ply
format ascii 1.0
element vertex 1085
property float x
property float y
property float z
property float intensity
end_header
4.202302 -1.230572 0.558755 13.000000
4.201363 -1.244304 0.559111 11.000000
4.197526 -1.257188 0.559111 11.000000
4.217408 -1.277248 0.562084 27.000000
4.226762 -1.294248 0.563749 39.000000
4.206126 -1.260135 0.506053 52.000000
4.192725 -1.270150 0.504986 35.000000
4.218278 -1.292037 0.508296 25.000000
4.215245 -1.305266 0.508403 26.000000
4.196988 -1.313736 0.506801 41.000000
3.762431 -1.410061 0.466009 9.000000
3.775756 -1.428283 0.468038 10.000000
3.769499 -1.439151 0.467824 6.000000
3.748367 -1.444272 0.465902 17.000000
3.745771 -1.456486 0.466116 15.000000
3.741285 -1.467971 0.466116 17.000000
3.730293 -1.476880 0.465368 23.000000
3.720205 -1.486104 0.464728 20.000000
3.716550 -1.497882 0.464834 16.000000
3.711016 -1.508902 0.464728 27.000000
3.705449 -1.519903 0.464621 23.000000
3.712712 -1.536207 0.466009 15.000000
3.696971 -1.542994 0.464728 17.000000
3.698634 -1.557030 0.465475 37.000000
3.689264 -1.566426 0.464941 26.000000
3.893912 -0.773534 0.413447 51.000000
3.889568 -0.785083 0.413257 49.000000
3.887141 -0.797012 0.413257 57.000000
3.891500 -0.810353 0.413922 53.000000
3.888996 -0.822288 0.413922 47.000000
3.890348 -0.835050 0.414302 51.000000
3.884850 -0.846347 0.414017 64.000000
3.883207 -0.858476 0.414112 61.000000
3.874727 -0.869080 0.413542 42.000000
3.871071 -0.880743 0.413447 51.000000
3.866411 -0.892168 0.413257 40.000000
3.862686 -0.903799 0.413162 62.000000
3.861833 -0.916104 0.413352 51.000000
3.859972 -0.928180 0.413447 53.000000
3.858073 -0.940254 0.413542 65.000000
3.852271 -0.951370 0.413257 37.000000
3.856095 -0.964874 0.413922 55.000000
3.857941 -0.977921 0.414397 52.000000
3.853959 -0.989505 0.414302 46.000000
3.849941 -1.001074 0.414207 59.000000
3.845889 -1.012628 0.414112 47.000000
3.840841 -1.023910 0.413922 46.000000
3.842487 -1.036984 0.414397 45.000000
3.825842 -1.045099 0.413067 73.000000
3.823577 -1.057097 0.413162 43.000000
3.823193 -1.069626 0.413447 50.000000
3.820851 -1.081621 0.413542 61.000000
3.820386 -1.094160 0.413827 61.000000
3.817011 -1.105876 0.413827 54.000000
3.815511 -1.118140 0.414017 70.000000
3.819699 -1.132101 0.414777 50.000000
3.816208 -1.143815 0.414777 68.000000
3.814586 -1.156094 0.414967 50.000000
3.813877 -1.168666 0.415252 50.000000
3.812176 -1.180950 0.415442 56.000000
3.804734 -1.191451 0.415062 42.000000
3.801061 -1.203118 0.415062 50.000000
3.795455 -1.214168 0.414872 53.000000
3.789818 -1.225195 0.414682 51.000000
3.788880 -1.237742 0.414967 51.000000
3.782229 -1.248425 0.414682 45.000000
3.780270 -1.260653 0.414872 52.000000
3.778272 -1.272879 0.415062 40.000000
3.769636 -1.282863 0.414587 65.000000
3.768507 -1.295392 0.414872 61.000000
3.771099 -1.309231 0.415537 58.000000
3.768944 -1.321452 0.415727 60.000000
3.762056 -1.332013 0.415442 68.000000
3.758889 -1.343884 0.415537 60.000000
3.753812 -1.355072 0.415442 63.000000
3.747766 -1.365901 0.415252 71.000000
3.743558 -1.377392 0.415252 78.000000
3.743048 -1.390256 0.415632 67.000000
3.742494 -1.403130 0.416012 70.000000
3.741896 -1.416013 0.416392 66.000000
3.742185 -1.429261 0.416867 42.000000
3.741498 -1.442166 0.417246 76.000000
3.737056 -1.453638 0.417246 63.000000
3.735359 -1.466187 0.417531 65.000000
3.728992 -1.476907 0.417341 60.000000
3.725368 -1.488710 0.417436 41.000000
3.720783 -1.500132 0.417436 59.000000
3.717085 -1.511915 0.417531 55.000000
3.713350 -1.523690 0.417626 80.000000
3.709578 -1.535455 0.417721 63.000000
3.706687 -1.547596 0.417911 45.000000
3.703757 -1.559732 0.418101 47.000000
3.698038 -1.570699 0.418006 60.000000
3.910654 -0.788812 0.364965 32.000000
3.913097 -0.801807 0.365378 52.000000
3.909643 -0.813605 0.365295 46.000000
3.901278 -0.824359 0.364800 50.000000
3.893859 -0.835279 0.364388 68.000000
3.891278 -0.847221 0.364388 62.000000
3.887687 -0.858940 0.364306 62.000000
3.887951 -0.871518 0.364553 68.000000
3.882344 -0.882778 0.364306 78.000000
3.881560 -0.895133 0.364471 88.000000
3.884618 -0.908399 0.364965 104.000000
3.883752 -0.920773 0.365130 99.000000
3.881877 -0.932917 0.365213 84.000000
3.882870 -0.945766 0.365543 91.000000
3.875113 -0.956479 0.365130 87.000000
3.868293 -0.967396 0.364800 126.000000
3.867239 -0.979749 0.364965 100.000000
3.865180 -0.991856 0.365048 92.000000
3.863083 -1.003961 0.365130 92.000000
3.859021 -1.015554 0.365048 113.000000
3.854925 -1.027132 0.364965 104.000000
3.851755 -1.038954 0.364965 113.000000
3.844704 -1.049716 0.364636 102.000000
3.840505 -1.061241 0.364553 106.000000
3.835312 -1.072481 0.364388 105.000000
3.831044 -1.083971 0.364306 108.000000
3.839198 -1.099012 0.365295 64.000000
3.834851 -1.110508 0.365213 78.000000
3.831425 -1.122268 0.365213 68.000000
3.828920 -1.134300 0.365295 69.000000
3.829241 -1.147186 0.365625 66.000000
3.827610 -1.159507 0.365790 58.000000
3.826894 -1.172120 0.366037 71.000000
3.825184 -1.184445 0.366202 70.000000
3.819630 -1.195580 0.366037 53.000000
3.817844 -1.207894 0.366202 56.000000
3.812222 -1.218994 0.366037 69.000000
3.806568 -1.230071 0.365872 69.000000
3.799934 -1.240815 0.365625 65.000000
3.796109 -1.252467 0.365625 57.000000
3.796976 -1.265684 0.366037 53.000000
3.795908 -1.278281 0.366285 42.000000
3.791025 -1.289600 0.366202 55.000000
3.787994 -1.301549 0.366285 33.000000
3.783983 -1.313164 0.366285 60.000000
3.785579 -1.326745 0.366779 64.000000
3.778672 -1.337355 0.366532 63.000000
3.774552 -1.348942 0.366532 60.000000
3.768521 -1.359839 0.366367 79.000000
3.768076 -1.372759 0.366697 56.000000
3.771329 -1.387065 0.367357 32.000000
3.759582 -1.395854 0.366697 67.000000
3.757149 -1.408081 0.366862 46.000000
3.756539 -1.421012 0.367192 61.000000
3.750300 -1.431819 0.367027 51.000000
3.745890 -1.443318 0.367027 62.000000
3.740515 -1.454442 0.366944 66.000000
3.739746 -1.467367 0.367274 57.000000
3.735227 -1.478834 0.367274 47.000000
3.735299 -1.492135 0.367687 55.000000
3.734401 -1.505079 0.368016 68.000000
3.729766 -1.516528 0.368016 55.000000
3.726940 -1.528721 0.368181 49.000000
3.723153 -1.540529 0.368264 48.000000
3.715651 -1.550792 0.368016 48.000000
3.709957 -1.561797 0.367934 50.000000
3.920115 -0.780148 0.318066 37.000000
3.919659 -0.792566 0.318207 48.000000
3.916231 -0.804387 0.318137 53.000000
3.912769 -0.816195 0.318066 42.000000
3.902439 -0.826544 0.317501 68.000000
3.897934 -0.838094 0.317360 51.000000
3.894370 -0.849836 0.317289 72.000000
3.893692 -0.862210 0.317430 70.000000
3.887136 -0.873279 0.317148 70.000000
3.883465 -0.884979 0.317077 84.000000
3.884620 -0.897786 0.317360 66.000000
3.880876 -0.909472 0.317289 83.000000
3.880008 -0.921835 0.317430 98.000000
3.876192 -0.933501 0.317360 98.000000
3.873310 -0.945389 0.317360 102.000000
3.873297 -0.957985 0.317572 69.000000
3.864533 -0.968411 0.317148 97.000000
3.861544 -0.980262 0.317148 77.000000
3.859485 -0.992353 0.317218 89.000000
3.856422 -1.004189 0.317218 104.000000
3.859111 -1.017540 0.317642 86.000000
3.857898 -1.029889 0.317783 83.000000
3.861462 -1.043539 0.318278 94.000000
3.861129 -1.056170 0.318490 104.000000
3.860754 -1.068808 0.318702 112.000000
3.855536 -1.080110 0.318560 138.000000
3.845486 -1.090032 0.318066 120.000000
3.832534 -1.099077 0.317360 138.000000
3.829145 -1.110830 0.317360 107.000000
3.824761 -1.122292 0.317289 109.000000
3.821300 -1.134021 0.317289 100.000000
3.820669 -1.146598 0.317501 89.000000
3.819043 -1.158893 0.317642 76.000000
3.817377 -1.171189 0.317783 69.000000
3.814718 -1.183190 0.317854 71.000000
3.813926 -1.195783 0.318066 58.000000
3.811191 -1.207779 0.318137 55.000000
3.806518 -1.219162 0.318066 52.000000
3.802759 -1.230835 0.318066 64.000000
3.798017 -1.242186 0.317995 48.000000
3.794188 -1.253832 0.317995 53.000000
3.795055 -1.267045 0.318349 43.000000
3.788314 -1.277726 0.318137 70.000000
3.788153 -1.290628 0.318419 55.000000
3.785119 -1.302568 0.318490 57.000000
3.782048 -1.314502 0.318560 51.000000
3.777997 -1.326099 0.318560 62.000000
3.770149 -1.336352 0.318278 46.000000
3.761335 -1.346233 0.317925 58.000000
3.759064 -1.358443 0.318066 52.000000
3.754879 -1.369969 0.318066 59.000000
3.750658 -1.381483 0.318066 39.000000
3.748272 -1.393678 0.318207 57.000000
3.747715 -1.406572 0.318490 60.000000
3.746181 -1.419122 0.318702 70.000000
3.742741 -1.430965 0.318772 64.000000
3.738333 -1.442441 0.318772 62.000000
3.733891 -1.453903 0.318772 53.000000
3.733126 -1.466810 0.319055 52.000000
3.729536 -1.478623 0.319125 58.000000
3.724982 -1.490058 0.319125 61.000000
3.725944 -1.503718 0.319549 41.000000
3.720389 -1.514766 0.319479 48.000000
3.719416 -1.527687 0.319761 53.000000
3.723006 -1.542525 0.320397 41.000000
3.715495 -1.552787 0.320185 39.000000
3.713471 -1.565340 0.320397 37.000000
3.711406 -1.577896 0.320609 40.000000
3.924532 -0.779799 0.268074 23.000000
3.919185 -0.791243 0.267899 39.000000
3.914784 -0.802862 0.267783 46.000000
3.912302 -0.814868 0.267783 34.000000
3.910761 -0.827074 0.267841 56.000000
3.908205 -0.839068 0.267841 59.000000
3.908538 -0.851692 0.268015 48.000000
3.905907 -0.863679 0.268015 41.000000
3.903239 -0.875659 0.268015 67.000000
3.903454 -0.888294 0.268190 53.000000
3.901683 -0.900490 0.268248 67.000000
3.897930 -0.912229 0.268190 68.000000
3.896085 -0.924414 0.268248 57.000000
3.893230 -0.936362 0.268248 73.000000
3.889369 -0.948066 0.268190 70.000000
3.886442 -0.959994 0.268190 71.000000
3.883479 -0.971913 0.268190 56.000000
3.877576 -0.983086 0.268015 59.000000
3.872607 -0.994481 0.267899 65.000000
3.867606 -1.005854 0.267783 74.000000
3.864502 -1.017715 0.267783 73.000000
3.857503 -1.028537 0.267551 75.000000
3.856257 -1.040888 0.267667 68.000000
3.855934 -1.053503 0.267841 62.000000
3.852684 -1.065328 0.267841 67.000000
3.846514 -1.076336 0.267667 76.000000
3.845114 -1.088676 0.267783 70.000000
3.841756 -1.100467 0.267783 66.000000
3.839321 -1.112526 0.267841 64.000000
3.836848 -1.124581 0.267899 54.000000
3.832422 -1.136063 0.267841 45.000000
3.830831 -1.148389 0.267957 65.000000
3.825379 -1.159557 0.267841 56.000000
3.818940 -1.170410 0.267667 54.000000
3.812471 -1.181234 0.267493 45.000000
3.810734 -1.193522 0.267609 57.000000
3.808007 -1.205509 0.267667 57.000000
3.807142 -1.218099 0.267841 49.000000
3.810986 -1.232231 0.268306 65.000000
3.809086 -1.244537 0.268422 44.000000
3.807146 -1.256844 0.268538 42.000000
3.808007 -1.270098 0.268829 58.000000
3.802200 -1.281137 0.268713 51.000000
3.798252 -1.292796 0.268713 69.000000
3.792380 -1.303793 0.268596 60.000000
3.785533 -1.314439 0.268422 57.000000
3.778656 -1.325056 0.268248 53.000000
3.775514 -1.336976 0.268306 56.000000
3.769515 -1.347880 0.268190 57.000000
3.768178 -1.360456 0.268364 47.000000
3.763987 -1.372010 0.268364 61.000000
3.757886 -1.382861 0.268248 42.000000
3.755498 -1.395079 0.268364 43.000000
3.756808 -1.408698 0.268713 61.000000
3.755270 -1.421278 0.268887 49.000000
3.753689 -1.433861 0.269061 54.000000
3.752067 -1.446448 0.269235 59.000000
3.748542 -1.458314 0.269293 55.000000
3.745909 -1.470538 0.269410 58.000000
3.743236 -1.482758 0.269526 51.000000
3.735888 -1.493124 0.269351 48.000000
3.735919 -1.506445 0.269642 44.000000
3.736828 -1.520158 0.269990 44.000000
3.736764 -1.533510 0.270281 53.000000
3.739421 -1.548023 0.270746 51.000000
3.737417 -1.560642 0.270920 44.000000
3.730772 -1.571326 0.270804 33.000000
3.728690 -1.583936 0.270978 50.000000
3.921193 -0.793585 0.220619 33.000000
3.916782 -0.805210 0.220527 54.000000
3.912338 -0.816815 0.220434 39.000000
3.909814 -0.828814 0.220434 47.000000
3.905299 -0.840385 0.220342 52.000000
3.901726 -0.852150 0.220296 61.000000
3.902020 -0.864764 0.220434 40.000000
3.901298 -0.877168 0.220527 55.000000
3.901510 -0.889799 0.220666 63.000000
3.896816 -0.901315 0.220573 68.000000
3.890141 -0.912354 0.220388 78.000000
3.886352 -0.924054 0.220342 73.000000
3.882528 -0.935739 0.220296 55.000000
3.880609 -0.947883 0.220342 71.000000
3.882532 -0.960983 0.220573 71.000000
3.885379 -0.974346 0.220851 64.000000
3.888181 -0.987735 0.221128 55.000000
3.885132 -0.999660 0.221128 53.000000
3.882047 -1.011574 0.221128 42.000000
3.876028 -1.022716 0.220989 52.000000
3.866115 -1.032800 0.220666 63.000000
3.856178 -1.042832 0.220342 65.000000
3.846216 -1.052814 0.220018 64.000000
3.840079 -1.063810 0.219880 55.000000
3.837760 -1.075855 0.219926 56.000000
3.833480 -1.087352 0.219880 57.000000
3.835887 -1.100759 0.220157 83.000000
3.835371 -1.113357 0.220296 81.000000
3.834812 -1.125962 0.220434 62.000000
3.832297 -1.138006 0.220481 56.000000
3.830702 -1.150332 0.220573 65.000000
3.826199 -1.161789 0.220527 72.000000
3.820706 -1.172936 0.220434 69.000000
3.815181 -1.184061 0.220342 79.000000
3.812484 -1.196059 0.220388 51.000000
3.807844 -1.207448 0.220342 71.000000
3.810781 -1.221257 0.220666 60.000000
3.809868 -1.233865 0.220804 58.000000
3.812711 -1.247720 0.221128 56.000000
3.811711 -1.260352 0.221267 64.000000
3.808774 -1.272356 0.221313 60.000000
3.802012 -1.283078 0.221174 55.000000
3.793330 -1.293126 0.220943 55.000000
3.786511 -1.303783 0.220804 44.000000
3.780606 -1.314738 0.220712 55.000000
3.774670 -1.325669 0.220619 63.000000
3.775293 -1.338912 0.220851 63.000000
3.772108 -1.350824 0.220897 50.000000
3.773583 -1.364427 0.221174 58.000000
3.772194 -1.377025 0.221313 68.000000
3.769827 -1.389281 0.221405 43.000000
3.765547 -1.400840 0.221405 47.000000
3.766843 -1.414492 0.221683 39.000000
3.761552 -1.425688 0.221637 58.000000
3.773023 -1.443284 0.222422 31.000000
3.763917 -1.453055 0.222191 39.000000
3.758510 -1.464234 0.222145 46.000000
3.755860 -1.476488 0.222238 53.000000
3.749455 -1.487268 0.222145 68.000000
3.744875 -1.498764 0.222145 55.000000
3.743038 -1.511367 0.222284 54.000000
3.738384 -1.522844 0.222284 53.000000
3.739239 -1.536582 0.222561 68.000000
3.735430 -1.548429 0.222607 58.000000
3.730662 -1.559882 0.222607 53.000000
3.724017 -1.570544 0.222515 39.000000
3.719182 -1.581962 0.222515 38.000000
3.931246 -0.794390 0.171497 38.000000
3.925853 -0.805844 0.171395 46.000000
3.925319 -0.818293 0.171463 46.000000
3.921812 -0.830125 0.171429 46.000000
3.919247 -0.842153 0.171429 48.000000
3.919574 -0.854812 0.171531 53.000000
3.916933 -0.866833 0.171531 52.000000
3.916206 -0.879284 0.171598 39.000000
3.913490 -0.891295 0.171598 57.000000
3.909763 -0.903072 0.171564 34.000000
3.905028 -0.914607 0.171497 53.000000
3.902204 -0.926583 0.171497 55.000000
3.896427 -0.937848 0.171395 43.000000
3.893532 -0.949798 0.171395 50.000000
3.887689 -0.961019 0.171294 40.000000
3.882783 -0.972456 0.171226 71.000000
3.880750 -0.984609 0.171260 50.000000
3.877712 -0.996511 0.171260 58.000000
3.879472 -1.009662 0.171429 55.000000
3.880222 -1.022578 0.171564 38.000000
3.877066 -1.034478 0.171564 38.000000
3.874839 -1.046628 0.171598 45.000000
3.868718 -1.057720 0.171497 51.000000
3.862565 -1.068784 0.171395 53.000000
3.855418 -1.079551 0.171260 55.000000
3.844395 -1.089194 0.170989 54.000000
3.839114 -1.100432 0.170921 54.000000
3.837640 -1.112762 0.170989 42.000000
3.834208 -1.124531 0.170989 52.000000
3.835531 -1.137710 0.171158 54.000000
3.832979 -1.149759 0.171192 47.000000
3.829434 -1.161513 0.171192 42.000000
3.831585 -1.175015 0.171395 54.000000
3.826053 -1.186172 0.171327 51.000000
3.823350 -1.198204 0.171361 52.000000
3.820608 -1.210230 0.171395 45.000000
3.819733 -1.222861 0.171497 52.000000
3.816914 -1.234881 0.171531 60.000000
3.815007 -1.247207 0.171598 38.000000
3.813061 -1.259532 0.171666 61.000000
3.810127 -1.271541 0.171700 50.000000
3.803367 -1.282266 0.171598 42.000000
3.797523 -1.293284 0.171531 47.000000
3.792592 -1.304604 0.171497 63.000000
3.787628 -1.315905 0.171463 49.000000
3.787345 -1.328843 0.171598 56.000000
3.785135 -1.341124 0.171666 58.000000
3.786648 -1.354751 0.171869 47.000000
3.789994 -1.369079 0.172140 40.000000
3.789531 -1.382070 0.172275 56.000000
3.787149 -1.394380 0.172343 59.000000
3.787537 -1.407734 0.172512 46.000000
3.782264 -1.418996 0.172478 45.000000
3.771351 -1.428115 0.172241 52.000000
3.766952 -1.439679 0.172241 44.000000
3.760652 -1.450510 0.172174 44.000000
3.754322 -1.461315 0.172106 39.000000
3.753542 -1.474288 0.172241 53.000000
3.747143 -1.485060 0.172174 60.000000
3.744425 -1.497292 0.172241 41.000000
3.749082 -1.512512 0.172580 52.000000
3.743498 -1.523630 0.172546 54.000000
3.742504 -1.536627 0.172682 52.000000
3.740542 -1.549249 0.172783 60.000000
3.736694 -1.561103 0.172817 41.000000
3.737412 -1.574889 0.173020 41.000000
3.732563 -1.586348 0.173020 61.000000
3.728597 -1.598185 0.173054 56.000000
3.725512 -1.610410 0.173122 40.000000
3.949703 -0.785313 0.123005 42.000000
3.946295 -0.797230 0.122984 48.000000
3.939913 -0.808530 0.122897 75.000000
3.934477 -0.820003 0.122832 42.000000
3.931943 -0.832070 0.122832 51.000000
3.931327 -0.844548 0.122876 56.000000
3.926764 -0.856180 0.122832 60.000000
3.924119 -0.868223 0.122832 55.000000
3.921436 -0.880258 0.122832 52.000000
3.921642 -0.892950 0.122897 56.000000
3.918884 -0.904977 0.122897 53.000000
3.913168 -0.916313 0.122832 62.000000
3.910339 -0.928314 0.122832 61.000000
3.907472 -0.940306 0.122832 41.000000
3.900684 -0.951343 0.122746 65.000000
3.899688 -0.963785 0.122789 52.000000
3.893803 -0.975017 0.122724 51.000000
3.889824 -0.986713 0.122702 63.000000
3.886779 -0.998642 0.122702 72.000000
3.882729 -1.010310 0.122681 60.000000
3.879611 -1.022218 0.122681 56.000000
3.876457 -1.034115 0.122681 60.000000
3.870370 -1.045222 0.122616 56.000000
3.867145 -1.057091 0.122616 43.000000
3.865811 -1.069483 0.122659 71.000000
3.860586 -1.080800 0.122616 49.000000
3.854366 -1.091822 0.122551 55.000000
3.848115 -1.102816 0.122486 48.000000
3.842793 -1.114061 0.122443 52.000000
3.840316 -1.126126 0.122464 59.000000
3.836843 -1.137903 0.122464 78.000000
3.836207 -1.150530 0.122529 57.000000
3.837444 -1.163743 0.122638 52.000000
3.838635 -1.176974 0.122746 62.000000
3.835961 -1.189041 0.122767 48.000000
3.831341 -1.200506 0.122746 76.000000
3.824780 -1.211350 0.122681 53.000000
3.825807 -1.224601 0.122789 61.000000
3.822983 -1.236640 0.122811 55.000000
3.821072 -1.248984 0.122854 75.000000
3.819121 -1.261327 0.122897 54.000000
3.817131 -1.273670 0.122941 74.000000
3.810362 -1.284418 0.122876 51.000000
3.804511 -1.295458 0.122832 66.000000
3.798628 -1.306474 0.122789 54.000000
3.795546 -1.318450 0.122811 39.000000
3.800918 -1.333395 0.123027 36.000000
3.791155 -1.343048 0.122897 61.000000
3.792665 -1.356692 0.123027 47.000000
3.793187 -1.370018 0.123135 58.000000
3.789906 -1.381991 0.123157 49.000000
3.785648 -1.393612 0.123157 53.000000
3.783229 -1.405915 0.123200 64.000000
3.781706 -1.418568 0.123265 49.000000
3.775466 -1.429456 0.123222 59.000000
3.771063 -1.441032 0.123222 50.000000
3.766624 -1.452595 0.123222 52.000000
3.764014 -1.464869 0.123265 61.000000
3.764155 -1.478235 0.123373 61.000000
3.758672 -1.489409 0.123352 56.000000
3.757799 -1.502417 0.123438 48.000000
3.756881 -1.515433 0.123525 62.000000
3.754993 -1.528082 0.123590 59.000000
3.750287 -1.539595 0.123590 64.000000
3.749241 -1.552622 0.123676 42.000000
3.745383 -1.564503 0.123698 49.000000
3.735958 -1.574046 0.123590 72.000000
3.731112 -1.585501 0.123590 30.000000
3.737258 -1.601663 0.123849 50.000000
3.726820 -1.610743 0.123720 41.000000
3.961106 -0.788502 0.073395 60.000000
3.961608 -0.801245 0.073423 53.000000
3.955213 -0.812590 0.073386 53.000000
3.948786 -0.823904 0.073349 55.000000
3.945262 -0.835807 0.073339 38.000000
3.943656 -0.848118 0.073349 50.000000
3.937128 -0.859359 0.073312 59.000000
3.929592 -0.870352 0.073266 53.000000
3.924952 -0.881965 0.073247 50.000000
3.921253 -0.893781 0.073238 43.000000
3.918492 -0.905807 0.073238 49.000000
3.911800 -0.916911 0.073201 63.000000
3.909942 -0.929139 0.073210 46.000000
3.908045 -0.941365 0.073219 57.000000
3.907082 -0.953824 0.073238 40.000000
3.901225 -0.965086 0.073210 47.000000
3.896306 -0.976564 0.073191 45.000000
3.895230 -0.989005 0.073210 53.000000
3.895082 -1.001698 0.073238 53.000000
3.891991 -1.013644 0.073238 59.000000
3.891763 -1.026345 0.073266 49.000000
3.893427 -1.039570 0.073312 39.000000
3.891184 -1.051771 0.073321 55.000000
3.887939 -1.063704 0.073321 50.000000
3.881767 -1.074826 0.073293 44.000000
3.875562 -1.085920 0.073266 59.000000
3.867402 -1.096441 0.073219 55.000000
3.860176 -1.107198 0.073182 51.000000
3.856761 -1.119035 0.073182 57.000000
3.852350 -1.130581 0.073173 45.000000
3.848863 -1.142394 0.073173 37.000000
3.849171 -1.155347 0.073210 63.000000
3.846565 -1.167442 0.073219 37.000000
3.848701 -1.180998 0.073275 66.000000
3.844105 -1.192504 0.073266 54.000000
3.839474 -1.203992 0.073256 55.000000
3.841481 -1.217579 0.073312 43.000000
3.838680 -1.229664 0.073321 62.000000
3.836792 -1.242051 0.073339 55.000000
3.832963 -1.253817 0.073339 42.000000
3.829098 -1.265570 0.073339 63.000000
3.824250 -1.276995 0.073330 50.000000
3.820314 -1.288721 0.073330 48.000000
3.814449 -1.299791 0.073312 45.000000
3.807607 -1.310511 0.073284 47.000000
3.807346 -1.323500 0.073321 61.000000
3.805155 -1.335837 0.073339 53.000000
3.799154 -1.346836 0.073321 65.000000
3.800652 -1.360508 0.073377 55.000000
3.794580 -1.371482 0.073358 52.000000
3.791294 -1.383460 0.073367 52.000000
3.785155 -1.394394 0.073349 44.000000
3.778047 -1.404954 0.073321 54.000000
3.778400 -1.418296 0.073367 57.000000
3.774966 -1.430235 0.073377 49.000000
3.770561 -1.441810 0.073377 52.000000
3.771716 -1.455532 0.073432 45.000000
3.770028 -1.468185 0.073460 51.000000
3.770160 -1.481574 0.073506 52.000000
3.765596 -1.493133 0.073506 51.000000
3.763783 -1.505793 0.073534 61.000000
3.763782 -1.519205 0.073580 55.000000
3.763734 -1.532632 0.073626 49.000000
3.758089 -1.543791 0.073617 45.000000
3.754259 -1.555696 0.073626 61.000000
3.748546 -1.566821 0.073617 56.000000
3.740036 -1.576760 0.073580 47.000000
3.737021 -1.589010 0.073599 53.000000
3.949627 -0.810521 0.022862 35.000000
3.947122 -0.822634 0.022862 52.000000
3.944579 -0.834740 0.022862 57.000000
3.944933 -0.847467 0.022852 54.000000
3.941338 -0.859353 0.022855 47.000000
3.932824 -0.870147 0.022875 41.000000
3.929160 -0.881989 0.022878 50.000000
3.925461 -0.893818 0.022882 54.000000
3.922700 -0.905857 0.022882 51.000000
3.916981 -0.917204 0.022892 57.000000
3.915122 -0.929448 0.022888 51.000000
3.914196 -0.941922 0.022882 57.000000
3.912260 -0.954163 0.022878 55.000000
3.906402 -0.965442 0.022888 50.000000
3.901481 -0.976937 0.022895 53.000000
3.898465 -0.988902 0.022895 47.000000
3.898319 -1.001603 0.022885 58.000000
3.895228 -1.013559 0.022885 43.000000
3.892100 -1.025504 0.022885 49.000000
3.888935 -1.037440 0.022885 46.000000
3.888631 -1.050148 0.022875 50.000000
3.884426 -1.061809 0.022878 48.000000
3.877295 -1.072656 0.022892 41.000000
3.875912 -1.085085 0.022885 59.000000
3.872564 -1.096971 0.022885 69.000000
3.869181 -1.108847 0.022885 57.000000
3.871524 -1.122381 0.022865 53.000000
3.868062 -1.134254 0.022865 44.000000
3.867440 -1.146967 0.022855 53.000000
3.864861 -1.159114 0.022852 56.000000
3.860330 -1.170676 0.022855 47.000000
3.859589 -1.183392 0.022845 41.000000
3.851164 -1.193749 0.022862 49.000000
3.840803 -1.203467 0.022885 63.000000
3.836139 -1.214944 0.022888 63.000000
3.833346 -1.227012 0.022885 41.000000
3.829564 -1.238766 0.022885 59.000000
3.825745 -1.250509 0.022885 73.000000
3.823790 -1.262867 0.022878 71.000000
3.820846 -1.274909 0.022875 66.000000
3.820708 -1.287902 0.022862 61.000000
3.815792 -1.299295 0.022865 56.000000
3.813679 -1.311646 0.022859 56.000000
3.816250 -1.325635 0.022835 59.000000
3.812165 -1.337337 0.022835 62.000000
3.808044 -1.349026 0.022835 51.000000
3.804829 -1.361039 0.022832 62.000000
3.795933 -1.371009 0.022849 48.000000
3.790769 -1.382306 0.022852 48.000000
3.781818 -1.392203 0.022868 48.000000
3.776591 -1.403451 0.022872 57.000000
3.776950 -1.416785 0.022855 57.000000
3.776327 -1.429782 0.022842 35.000000
3.776593 -1.443144 0.022825 50.000000
3.777747 -1.456881 0.022805 41.000000
3.776988 -1.469913 0.022792 51.000000
3.774322 -1.482225 0.022786 62.000000
3.766967 -1.492693 0.022795 54.000000
3.764227 -1.504985 0.022789 61.000000
3.757737 -1.515778 0.022795 44.000000
3.753996 -1.527677 0.022792 70.000000
3.754842 -1.541463 0.022772 54.000000
3.751944 -1.553741 0.022766 51.000000
3.755465 -1.568711 0.022736 51.000000
3.753399 -1.581389 0.022726 39.000000
3.745769 -1.591724 0.022736 58.000000
3.927753 -0.805523 -0.026558 27.000000
3.934073 -0.819405 -0.026699 45.000000
3.934475 -0.832092 -0.026747 50.000000
3.933859 -0.844579 -0.026778 35.000000
3.935157 -0.857495 -0.026841 42.000000
3.936413 -0.870428 -0.026904 30.000000
3.938602 -0.883596 -0.026982 40.000000
3.938797 -0.896341 -0.027029 39.000000
3.936029 -0.908421 -0.027029 45.000000
3.936144 -0.921176 -0.027076 33.000000
3.930381 -0.932554 -0.027029 51.000000
3.927501 -0.944608 -0.027029 49.000000
3.921670 -0.955943 -0.026982 55.000000
3.913866 -0.966770 -0.026904 39.000000
3.908942 -0.978288 -0.026872 47.000000
3.906891 -0.990521 -0.026888 58.000000
3.905771 -1.003000 -0.026919 47.000000
3.902675 -1.014979 -0.026919 47.000000
3.901476 -1.027456 -0.026951 51.000000
3.900238 -1.039936 -0.026982 49.000000
3.898960 -1.052419 -0.027014 58.000000
3.894748 -1.064112 -0.026998 40.000000
3.890502 -1.075789 -0.026982 54.000000
3.887183 -1.087720 -0.026982 54.000000
3.884789 -1.099913 -0.026998 51.000000
3.883319 -1.112377 -0.027029 57.000000
3.883730 -1.125399 -0.027092 42.000000
3.882178 -1.137872 -0.027124 45.000000
3.881544 -1.150630 -0.027171 45.000000
3.880869 -1.163394 -0.027218 51.000000
3.876325 -1.175005 -0.027202 44.000000
3.874614 -1.187478 -0.027233 46.000000
3.867132 -1.198176 -0.027171 57.000000
3.857713 -1.208241 -0.027076 36.000000
3.852081 -1.219466 -0.027045 59.000000
3.843561 -1.229755 -0.026966 43.000000
3.837867 -1.240925 -0.026935 63.000000
3.832141 -1.252073 -0.026904 43.000000
3.829231 -1.264137 -0.026919 62.000000
3.829129 -1.277145 -0.026982 46.000000
3.828035 -1.289845 -0.027029 70.000000
3.825953 -1.302227 -0.027061 50.000000
3.826667 -1.315585 -0.027139 51.000000
3.823557 -1.327647 -0.027155 44.000000
3.819467 -1.339371 -0.027155 63.000000
3.811569 -1.349747 -0.027092 40.000000
3.809294 -1.362108 -0.027124 52.000000
3.804156 -1.373449 -0.027108 51.000000
3.802743 -1.386141 -0.027155 69.000000
3.802226 -1.399183 -0.027218 52.000000
3.803539 -1.412931 -0.027312 52.000000
3.804803 -1.426700 -0.027406 47.000000
3.806954 -1.440844 -0.027516 38.000000
3.800647 -1.451803 -0.027485 51.000000
3.797108 -1.463817 -0.027501 42.000000
3.788872 -1.474009 -0.027438 44.000000
3.782471 -1.484895 -0.027406 55.000000
3.777898 -1.496492 -0.027406 44.000000
3.778859 -1.510303 -0.027501 41.000000
3.774208 -1.521889 -0.027501 64.000000
3.772299 -1.534592 -0.027548 57.000000
3.769423 -1.546917 -0.027579 44.000000
3.769279 -1.560387 -0.027658 59.000000
3.766319 -1.572714 -0.027689 40.000000
3.762398 -1.584650 -0.027705 43.000000
3.757519 -1.596185 -0.027705 41.000000
3.939320 -0.808409 -0.075008 36.000000
3.938779 -0.820898 -0.075064 57.000000
3.933308 -0.832358 -0.074981 36.000000
3.932691 -0.844841 -0.075036 58.000000
3.929104 -0.856689 -0.075008 46.000000
3.925481 -0.868524 -0.074981 36.000000
3.929626 -0.882094 -0.075175 49.000000
3.928850 -0.894589 -0.075230 50.000000
3.927061 -0.906863 -0.075258 51.000000
3.930101 -0.920272 -0.075425 46.000000
3.931149 -0.933248 -0.075536 42.000000
3.931184 -0.946005 -0.075619 49.000000
3.931176 -0.958771 -0.075702 53.000000
3.928216 -0.970827 -0.075702 42.000000
3.929099 -0.983844 -0.075813 49.000000
3.928969 -0.996630 -0.075896 47.000000
3.925893 -1.008679 -0.075896 61.000000
3.922779 -1.020719 -0.075896 45.000000
3.912863 -1.030968 -0.075702 51.000000
3.905818 -1.041939 -0.075591 42.000000
3.901637 -1.053656 -0.075563 46.000000
3.890672 -1.063515 -0.075341 53.000000
3.887391 -1.075446 -0.075341 53.000000
3.883110 -1.087098 -0.075314 44.000000
3.879757 -1.099006 -0.075314 54.000000
3.878289 -1.111454 -0.075369 57.000000
3.872941 -1.122792 -0.075314 64.000000
3.866600 -1.133825 -0.075230 66.000000
3.864061 -1.145966 -0.075258 68.000000
3.865315 -1.159250 -0.075397 59.000000
3.869394 -1.173422 -0.075619 40.000000
3.863864 -1.184702 -0.075563 56.000000
3.860211 -1.196551 -0.075563 41.000000
3.858430 -1.208985 -0.075619 48.000000
3.851844 -1.219912 -0.075536 51.000000
3.847131 -1.231419 -0.075508 47.000000
3.842383 -1.242909 -0.075480 57.000000
3.837602 -1.254381 -0.075452 62.000000
3.834685 -1.266462 -0.075480 65.000000
3.826040 -1.276640 -0.075341 75.000000
3.829684 -1.290925 -0.075563 52.000000
3.828545 -1.303634 -0.075646 51.000000
3.825472 -1.315698 -0.075674 53.000000
3.822362 -1.327756 -0.075702 52.000000
3.821101 -1.340469 -0.075785 44.000000
3.815086 -1.351518 -0.075730 47.000000
3.812804 -1.363889 -0.075785 43.000000
3.804841 -1.374223 -0.075674 45.000000
3.801546 -1.386232 -0.075702 42.000000
3.799151 -1.398578 -0.075757 45.000000
3.794842 -1.410227 -0.075757 48.000000
3.792370 -1.422565 -0.075813 52.000000
3.793598 -1.436315 -0.075979 34.000000
3.786372 -1.446877 -0.075896 42.000000
3.784713 -1.459565 -0.075979 29.000000
3.779286 -1.470807 -0.075952 39.000000
3.776617 -1.483125 -0.076007 52.000000
3.772978 -1.495073 -0.076035 56.000000
3.769302 -1.507012 -0.076063 41.000000
3.770224 -1.520811 -0.076229 59.000000
3.768318 -1.533500 -0.076312 57.000000
3.766370 -1.546192 -0.076396 63.000000
3.764380 -1.558887 -0.076479 48.000000
3.754967 -1.568503 -0.076340 44.000000
3.748295 -1.579240 -0.076285 42.000000
3.745272 -1.591514 -0.076340 46.000000
3.951484 -0.810392 -0.125899 31.000000
3.953870 -0.823530 -0.126101 33.000000
3.955235 -0.836484 -0.126262 32.000000
3.954604 -0.849034 -0.126342 29.000000
3.951004 -0.860950 -0.126302 33.000000
3.955173 -0.874578 -0.126584 35.000000
3.954421 -0.887146 -0.126665 31.000000
3.950707 -0.899052 -0.126624 30.000000
3.945983 -0.910719 -0.126544 37.000000
3.940251 -0.922137 -0.126423 50.000000
3.936432 -0.933991 -0.126383 37.000000
3.931605 -0.945596 -0.126302 36.000000
3.923832 -0.956470 -0.126101 31.000000
3.917969 -0.967784 -0.125980 33.000000
3.920797 -0.981256 -0.126221 23.000000
3.919705 -0.993771 -0.126302 35.000000
3.925347 -1.008030 -0.126665 36.000000
3.929972 -1.022080 -0.126987 42.000000
3.949041 -1.039987 -0.127914 30.000000
3.942935 -1.051326 -0.127793 46.000000
3.943550 -1.064459 -0.127955 49.000000
3.923002 -1.097747 -0.127511 57.000000
3.935959 -1.114406 -0.128196 36.000000
3.920995 -1.123173 -0.127713 35.000000
3.920410 -1.136032 -0.127834 39.000000
3.904744 -1.157509 -0.127471 39.000000
3.914573 -1.173501 -0.128035 45.000000
3.899481 -1.182027 -0.127552 34.000000
3.911120 -1.198670 -0.128196 44.000000
3.915060 -1.213030 -0.128519 37.000000
3.914180 -1.225932 -0.128640 43.000000
3.918974 -1.240650 -0.129003 41.000000
3.923714 -1.255408 -0.129365 45.000000
3.908436 -1.263750 -0.128882 46.000000
3.916887 -1.279770 -0.129406 36.000000
3.901556 -1.288021 -0.128922 43.000000
3.900430 -1.300934 -0.129043 31.000000
3.903049 -1.315128 -0.129325 36.000000
3.897103 -1.326452 -0.129244 30.000000
3.880732 -1.334178 -0.128720 41.000000
3.870958 -1.344110 -0.128479 45.000000
3.856444 -1.352342 -0.128035 36.000000
3.844742 -1.361498 -0.127713 37.000000
3.840547 -1.373287 -0.127713 31.000000
3.816581 -1.377936 -0.126866 44.000000
3.816090 -1.391008 -0.127028 36.000000
3.811805 -1.402709 -0.127028 42.000000
3.812166 -1.416137 -0.127229 49.000000
3.807804 -1.427826 -0.127229 47.000000
3.806209 -1.440562 -0.127350 45.000000
3.799905 -1.451519 -0.127269 48.000000
3.796366 -1.463530 -0.127310 33.000000
3.790926 -1.474808 -0.127269 41.000000
3.788244 -1.487162 -0.127350 42.000000
3.787379 -1.500249 -0.127511 37.000000
3.781831 -1.511491 -0.127471 35.000000
3.782736 -1.525329 -0.127713 30.000000
3.780815 -1.538057 -0.127834 27.000000
3.773306 -1.548511 -0.127713 36.000000
3.777769 -1.563902 -0.128116 27.000000
4.145207 -1.120905 -0.188037 40.000000
4.150419 -1.135987 -0.188508 48.000000
4.144989 -1.148182 -0.188404 53.000000
4.135677 -1.159278 -0.188090 47.000000
4.125375 -1.170055 -0.187723 58.000000
4.115047 -1.180780 -0.187357 49.000000
4.105650 -1.191730 -0.187043 40.000000
4.099100 -1.203477 -0.186886 68.000000
4.091559 -1.214912 -0.186677 39.000000
4.085899 -1.226885 -0.186572 10.000000
4.090716 -1.242023 -0.187043 26.000000
4.086887 -1.254568 -0.187043 38.000000
4.072526 -1.263847 -0.186467 17.000000
4.085783 -1.281711 -0.187409 38.000000
4.081831 -1.294240 -0.187409 36.000000
4.083548 -1.308584 -0.187723 45.000000
4.072863 -1.318954 -0.187357 87.000000
4.078289 -1.334546 -0.187880 52.000000
4.077020 -1.347992 -0.188037 53.000000
4.079496 -1.362707 -0.188404 49.000000
4.080974 -1.377130 -0.188718 46.000000
4.086183 -1.392863 -0.189241 41.000000
4.082835 -1.405718 -0.189293 51.000000
4.088879 -1.421842 -0.189869 34.000000
4.167795 -1.125011 -0.242717 31.000000
4.148922 -1.133583 -0.241682 47.000000
4.137731 -1.144178 -0.241165 34.000000
4.122670 -1.153639 -0.240388 50.000000
4.113350 -1.164650 -0.240000 56.000000
4.104002 -1.175615 -0.239612 53.000000
4.096542 -1.187089 -0.239353 63.000000
4.089050 -1.198528 -0.239094 53.000000
4.079614 -1.209365 -0.238706 52.000000
4.073973 -1.221302 -0.238576 55.000000
4.066387 -1.232637 -0.238317 42.000000
4.065448 -1.245984 -0.238512 52.000000
4.059700 -1.257860 -0.238382 47.000000
4.053917 -1.269712 -0.238253 44.000000
4.050954 -1.282445 -0.238317 47.000000
4.047001 -1.294867 -0.238317 39.000000
4.048706 -1.309120 -0.238706 46.000000
4.050362 -1.323395 -0.239094 54.000000
4.048178 -1.336441 -0.239223 70.000000
4.059204 -1.353907 -0.240259 33.000000
4.069216 -1.371135 -0.241229 35.000000
4.070658 -1.385543 -0.241617 48.000000
4.080543 -1.402893 -0.242588 36.000000
4.083761 -1.418025 -0.243106 36.000000
4.124320 -1.088152 -0.290070 24.000000
4.113255 -1.098744 -0.289457 37.000000
4.103127 -1.109538 -0.288922 44.000000
4.097780 -1.121595 -0.288768 45.000000
4.091437 -1.133364 -0.288539 38.000000
4.088900 -1.146180 -0.288615 35.000000
4.083446 -1.158175 -0.288462 55.000000
4.082749 -1.171522 -0.288692 47.000000
4.080093 -1.184320 -0.288768 49.000000
4.079311 -1.197673 -0.288998 52.000000
4.072750 -1.209332 -0.288768 38.000000
4.069020 -1.221822 -0.288768 59.000000
4.065252 -1.234299 -0.288768 53.000000
4.063353 -1.247350 -0.288922 42.000000
4.057602 -1.259220 -0.288768 55.000000
4.054672 -1.271961 -0.288845 39.000000
4.057404 -1.286502 -0.289381 22.000000
4.052488 -1.298640 -0.289304 42.000000
4.051331 -1.311988 -0.289534 51.000000
4.052025 -1.325960 -0.289917 97.000000
4.048885 -1.338698 -0.289993 67.000000
4.049488 -1.352692 -0.290376 68.000000
4.053822 -1.367976 -0.291065 56.000000
4.063764 -1.385228 -0.292213 36.000000
4.068923 -1.400932 -0.292978 38.000000
4.074966 -1.417008 -0.293820 41.000000
4.127049 -1.088419 -0.342585 27.000000
4.118878 -1.099790 -0.342141 34.000000
4.117408 -1.112942 -0.342319 30.000000
4.101485 -1.122150 -0.341165 43.000000
4.095143 -1.133930 -0.340899 55.000000
4.096441 -1.147833 -0.341343 57.000000
4.092900 -1.160395 -0.341343 40.000000
4.091235 -1.173496 -0.341520 45.000000
4.087616 -1.186042 -0.341520 51.000000
4.089692 -1.200261 -0.342052 46.000000
4.090765 -1.214220 -0.342496 36.000000
4.092744 -1.228483 -0.343028 44.000000
4.089910 -1.241323 -0.343117 35.000000
4.098460 -1.257665 -0.344271 24.000000
4.107901 -1.274365 -0.345513 74.000000
4.101120 -1.286068 -0.345246 49.000000
4.096206 -1.298343 -0.345158 76.000000
4.084615 -1.308472 -0.344448 44.000000
4.077739 -1.320077 -0.344182 44.000000
4.072723 -1.332271 -0.344093 49.000000
4.066725 -1.344135 -0.343916 44.000000
4.056914 -1.354711 -0.343383 43.000000
4.055570 -1.368107 -0.343649 45.000000
4.056067 -1.382150 -0.344093 44.000000
4.060284 -1.397505 -0.344892 36.000000
4.065386 -1.413227 -0.345779 37.000000
4.141880 -1.105610 -0.398420 36.000000
4.127903 -1.115460 -0.397306 60.000000
4.124461 -1.128119 -0.397306 59.000000
4.118104 -1.139972 -0.397003 49.000000
4.112671 -1.152065 -0.396800 38.000000
4.114861 -1.166303 -0.397407 54.000000
4.114132 -1.179744 -0.397711 65.000000
4.111449 -1.192637 -0.397812 41.000000
4.116363 -1.207763 -0.398723 44.000000
4.121223 -1.222932 -0.399634 49.000000
4.123169 -1.237284 -0.400242 40.000000
4.131731 -1.253679 -0.401558 46.000000
4.134524 -1.268390 -0.402266 46.000000
4.145818 -1.285780 -0.403886 135.000000
4.127613 -1.294032 -0.402368 45.000000
4.117932 -1.304888 -0.401760 30.000000
4.101592 -1.313574 -0.400444 33.000000
4.091863 -1.324315 -0.399837 57.000000
4.078324 -1.333773 -0.398825 38.000000
4.068544 -1.344407 -0.398217 45.000000
4.065344 -1.357198 -0.398318 50.000000
4.063047 -1.370299 -0.398521 62.000000
4.063533 -1.384361 -0.399027 65.000000
4.063030 -1.398115 -0.399432 59.000000
4.062480 -1.411879 -0.399837 59.000000
4.067518 -1.427628 -0.400849 41.000000
4.122354 -1.099951 -0.447383 34.000000
4.122797 -1.113630 -0.447836 37.000000
4.127028 -1.128370 -0.448740 54.000000
4.125462 -1.141556 -0.448966 47.000000
4.124811 -1.155012 -0.449305 53.000000
4.125072 -1.168745 -0.449757 42.000000
4.127197 -1.183038 -0.450435 43.000000
4.136908 -1.199570 -0.452018 51.000000
4.139882 -1.214214 -0.452809 48.000000
4.136137 -1.226909 -0.452809 33.000000
4.145677 -1.243591 -0.454391 35.000000
4.152301 -1.259477 -0.455635 44.000000
4.138918 -1.269296 -0.454504 24.000000
4.128362 -1.279928 -0.453713 22.000000
4.141481 -1.297938 -0.455748 46.000000
4.134638 -1.309737 -0.455409 58.000000
4.127762 -1.321507 -0.455069 43.000000
4.115180 -1.331411 -0.454052 50.000000
4.105410 -1.342177 -0.453374 47.000000
4.096556 -1.353207 -0.452809 51.000000
4.091442 -1.365454 -0.452696 53.000000
4.084409 -1.377047 -0.452357 55.000000
4.080165 -1.389572 -0.452357 46.000000
4.076823 -1.402406 -0.452470 48.000000
4.076255 -1.416212 -0.452922 32.000000
4.070953 -1.428382 -0.452809 37.000000
4.144858 -1.106404 -0.503780 39.000000
4.137612 -1.118081 -0.503278 43.000000
4.141819 -1.132862 -0.504281 46.000000
4.137368 -1.145299 -0.504156 47.000000
4.134790 -1.158254 -0.504281 59.000000
4.132172 -1.171204 -0.504407 50.000000
4.134282 -1.185516 -0.505158 55.000000
4.136343 -1.199851 -0.505911 40.000000
4.138354 -1.214209 -0.506662 42.000000
4.139366 -1.228310 -0.507289 46.000000
4.132727 -1.240149 -0.506913 30.000000
4.136498 -1.255124 -0.507916 24.000000
4.125718 -1.293439 -0.508041 11.000000
4.125514 -1.307288 -0.508543 33.000000
4.121484 -1.319939 -0.508543 38.000000
4.114583 -1.331662 -0.508166 36.000000
4.110478 -1.344279 -0.508166 39.000000
4.096913 -1.353773 -0.506913 48.000000
4.088976 -1.365080 -0.506412 66.000000
4.085709 -1.377935 -0.506537 29.000000
4.083341 -1.391103 -0.506788 49.000000
4.079054 -1.403624 -0.506788 49.000000
4.076603 -1.416782 -0.507039 39.000000
4.073173 -1.429611 -0.507164 45.000000
4.169733 -1.124756 -0.560906 36.000000
4.166262 -1.137543 -0.560906 32.000000
4.149386 -1.146625 -0.558982 54.000000
4.145849 -1.159350 -0.558982 56.000000
4.143226 -1.172333 -0.559119 58.000000
4.144371 -1.186403 -0.559806 47.000000
4.150226 -1.201868 -0.561181 56.000000
4.157926 -1.217937 -0.562830 41.000000
4.159867 -1.232377 -0.563655 37.000000
4.138104 -1.323232 -0.564479 45.000000
4.135910 -1.336531 -0.564754 43.000000
4.126141 -1.347368 -0.563930 48.000000
4.115404 -1.357848 -0.562967 52.000000
4.108400 -1.369527 -0.562555 50.000000
4.102302 -1.381493 -0.562280 55.000000
4.096169 -1.393434 -0.562005 53.000000
4.090938 -1.405672 -0.561868 57.000000
4.096899 -1.421789 -0.563380 28.000000
4.147521 -1.162595 -0.611334 53.000000
4.155352 -1.178548 -0.613125 48.000000
4.148864 -1.190474 -0.612677 41.000000
4.154690 -1.205950 -0.614169 31.000000
4.161407 -1.221752 -0.615810 41.000000
4.159535 -1.235076 -0.616108 28.000000
4.169723 -1.336173 -0.622076 40.000000
4.159019 -1.346829 -0.621032 35.000000
4.141709 -1.355280 -0.618943 30.000000
4.137531 -1.367981 -0.618943 25.000000
4.124873 -1.377851 -0.617600 42.000000
4.112194 -1.387656 -0.616258 48.000000
4.106981 -1.399947 -0.616108 45.000000
4.097992 -1.410932 -0.615363 46.000000
4.199350 -1.133532 -0.671185 56.000000
4.195852 -1.146410 -0.671185 63.000000
4.183754 -1.156909 -0.669735 40.000000
4.177334 -1.168941 -0.669252 45.000000
4.170879 -1.180944 -0.668768 51.000000
4.171032 -1.194822 -0.669413 61.000000
4.169242 -1.208163 -0.669735 73.000000
4.171199 -1.222614 -0.670701 68.000000
4.177836 -1.238492 -0.672473 53.000000
4.173416 -1.349456 -0.677145 50.000000
4.157061 -1.358268 -0.675051 55.000000
4.147252 -1.369158 -0.674084 58.000000
4.137414 -1.380001 -0.673118 46.000000
4.128485 -1.391112 -0.672312 68.000000
4.124197 -1.403772 -0.672312 61.000000
4.124537 -1.418023 -0.673118 62.000000
4.123897 -1.431965 -0.673762 45.000000
4.218808 -1.140786 -0.728512 38.000000
4.206738 -1.151386 -0.726956 57.000000
4.207932 -1.165600 -0.727821 44.000000
4.196749 -1.176379 -0.726437 68.000000
4.193120 -1.189249 -0.726437 54.000000
4.190399 -1.202379 -0.726610 72.000000
4.190474 -1.216327 -0.727302 68.000000
4.190503 -1.230286 -0.727994 42.000000
4.181179 -1.353998 -0.732836 49.000000
4.176068 -1.366514 -0.732664 58.000000
4.165310 -1.377157 -0.731453 52.000000
4.154525 -1.387747 -0.730242 55.000000
4.148382 -1.399857 -0.729896 63.000000
4.142202 -1.411942 -0.729550 69.000000
4.137851 -1.424643 -0.729550 51.000000
4.140904 -1.439917 -0.730934 75.000000
4.215725 -1.139527 -0.780487 65.000000
4.213158 -1.152714 -0.780671 67.000000
4.209601 -1.165635 -0.780671 69.000000
4.207898 -1.179075 -0.781040 82.000000
4.208043 -1.193051 -0.781778 84.000000
4.204363 -1.205956 -0.781778 68.000000
4.204419 -1.219945 -0.782516 84.000000
4.201599 -1.233115 -0.782700 73.000000
4.200623 -1.246839 -0.783254 55.000000
4.181412 -1.367837 -0.786574 64.000000
4.177197 -1.380659 -0.786574 93.000000
4.171077 -1.392845 -0.786205 91.000000
4.170509 -1.406892 -0.786943 83.000000
4.167103 -1.419997 -0.787127 70.000000
4.168303 -1.434695 -0.788234 60.000000
4.167595 -1.448768 -0.788972 64.000000
4.167767 -1.463175 -0.789894 52.000000
