ply
format ascii 1.0
element vertex 1260
property float x
property float y
property float z
property float intensity
end_header
2.701758 -0.332066 0.727513 7.000000
2.659392 -0.335138 0.716871 25.000000
2.659313 -0.343420 0.717118 21.000000
2.657286 -0.351450 0.716871 28.000000
2.658116 -0.359861 0.717366 25.000000
2.656039 -0.367881 0.717118 42.000000
2.657776 -0.376436 0.717861 29.000000
2.665239 -0.385839 0.720088 27.000000
2.669793 -0.394865 0.721573 32.000000
2.671443 -0.403488 0.722316 29.000000
2.674023 -0.412273 0.723306 34.000000
2.672745 -0.420475 0.723306 40.000000
2.663790 -0.427444 0.721326 34.000000
2.664378 -0.435928 0.721821 39.000000
2.666851 -0.444738 0.722811 40.000000
2.663563 -0.452593 0.722316 31.000000
2.666936 -0.461589 0.723553 36.000000
2.669324 -0.470442 0.724543 31.000000
2.667868 -0.478629 0.724543 29.000000
2.674965 -0.488379 0.726771 32.000000
2.674407 -0.496761 0.727018 29.000000
2.673822 -0.505143 0.727266 24.000000
2.677968 -0.514442 0.728751 30.000000
2.677328 -0.522841 0.728998 25.000000
2.670010 -0.529920 0.727513 20.000000
2.669321 -0.538301 0.727761 23.000000
2.665759 -0.546098 0.727266 16.000000
2.634003 -0.234698 0.675038 10.000000
2.639076 -0.243310 0.676455 20.000000
2.646056 -0.252140 0.678344 32.000000
2.644303 -0.260162 0.678108 31.000000
2.655094 -0.269446 0.680942 29.000000
2.660054 -0.278194 0.682359 30.000000
2.659188 -0.286353 0.682359 26.000000
2.666990 -0.295470 0.684485 25.000000
2.654484 -0.302336 0.681651 31.000000
2.657405 -0.310928 0.682595 40.000000
2.659333 -0.319426 0.683304 28.000000
2.653518 -0.326991 0.682123 24.000000
2.652503 -0.335131 0.682123 24.000000
2.645679 -0.342521 0.680706 20.000000
2.654250 -0.351909 0.683068 23.000000
2.660861 -0.361092 0.684957 26.000000
2.664553 -0.369920 0.686138 46.000000
2.659558 -0.377548 0.685193 36.000000
2.664157 -0.386541 0.686610 26.000000
2.665842 -0.395139 0.687318 31.000000
2.664618 -0.403315 0.687318 30.000000
2.662407 -0.411340 0.687082 46.000000
2.661133 -0.419507 0.687082 36.000000
2.663671 -0.428284 0.688027 29.000000
2.668098 -0.437395 0.689444 36.000000
2.665785 -0.445419 0.689208 35.000000
2.676861 -0.455710 0.692278 21.000000
2.675450 -0.463920 0.692278 36.000000
2.676885 -0.472632 0.692986 33.000000
2.676378 -0.481014 0.693222 30.000000
2.672023 -0.488699 0.692514 34.000000
2.681020 -0.498845 0.695112 20.000000
2.676612 -0.506527 0.694403 38.000000
2.678863 -0.515470 0.695348 31.000000
2.676315 -0.523500 0.695112 32.000000
2.669931 -0.530763 0.693931 29.000000
2.679721 -0.541255 0.696765 21.000000
2.668528 -0.547525 0.694403 27.000000
2.666835 -0.555709 0.694403 20.000000
2.667970 -0.564491 0.695112 13.000000
2.646273 -0.568397 0.690152 17.000000
2.658759 -0.579611 0.693695 9.000000
2.623963 -0.209075 0.639761 7.000000
2.643702 -0.218815 0.644481 13.000000
2.661464 -0.228511 0.648752 25.000000
2.659780 -0.236589 0.648527 35.000000
2.660012 -0.244838 0.648752 35.000000
2.656338 -0.252720 0.648077 37.000000
2.653610 -0.260678 0.647628 54.000000
2.654737 -0.269014 0.648077 43.000000
2.652930 -0.277056 0.647853 43.000000
2.657881 -0.285820 0.649201 62.000000
2.652149 -0.293436 0.648077 40.000000
2.653172 -0.301792 0.648527 42.000000
2.656105 -0.310384 0.649426 50.000000
2.654173 -0.318415 0.649201 32.000000
2.650282 -0.326199 0.648527 41.000000
2.644436 -0.333717 0.647403 36.000000
2.642433 -0.341704 0.647178 39.000000
2.643304 -0.350065 0.647628 30.000000
2.643183 -0.358304 0.647853 31.000000
2.646897 -0.367081 0.648977 34.000000
2.642864 -0.374789 0.648302 42.000000
2.648452 -0.383875 0.649876 46.000000
2.657865 -0.393570 0.652348 37.000000
2.654718 -0.401431 0.651899 38.000000
2.659252 -0.410466 0.653247 46.000000
2.655092 -0.418168 0.652573 26.000000
2.656683 -0.426775 0.653247 38.000000
2.658246 -0.435397 0.653922 47.000000
2.658820 -0.443871 0.654371 24.000000
2.649761 -0.450718 0.652573 41.000000
2.658927 -0.460677 0.655046 26.000000
2.655582 -0.468493 0.654596 42.000000
2.657968 -0.477328 0.655495 42.000000
2.660325 -0.486181 0.656394 38.000000
2.659779 -0.494519 0.656619 34.000000
2.664951 -0.503945 0.658193 29.000000
2.671047 -0.513592 0.659991 44.000000
2.663722 -0.520662 0.658642 36.000000
2.664979 -0.529401 0.659316 44.000000
2.666207 -0.538154 0.659991 53.000000
2.663589 -0.546135 0.659766 38.000000
2.671440 -0.556292 0.662014 27.000000
2.670675 -0.564687 0.662239 28.000000
2.665119 -0.572059 0.661340 20.000000
2.674776 -0.582724 0.664037 33.000000
2.664412 -0.589033 0.662014 26.000000
2.665445 -0.597845 0.662688 21.000000
2.658848 -0.604938 0.661564 20.000000
2.572565 -0.174113 0.596342 5.000000
2.593857 -0.191539 0.601253 8.000000
2.607869 -0.200613 0.604457 16.000000
2.632561 -0.210628 0.610009 29.000000
2.624114 -0.218060 0.608300 21.000000
2.635113 -0.227111 0.610863 36.000000
2.636350 -0.235367 0.611290 23.000000
2.639507 -0.243812 0.612144 34.000000
2.644582 -0.252463 0.613425 24.000000
2.635044 -0.259717 0.611503 28.000000
2.637151 -0.268095 0.612144 34.000000
2.640203 -0.276590 0.612998 30.000000
2.641284 -0.284897 0.613425 39.000000
2.636514 -0.292570 0.612571 38.000000
2.637545 -0.300878 0.612998 37.000000
2.635639 -0.308855 0.612785 33.000000
2.641469 -0.317753 0.614279 40.000000
2.637573 -0.325498 0.613639 39.000000
2.634624 -0.333344 0.613212 37.000000
2.636495 -0.341801 0.613852 26.000000
2.639308 -0.350400 0.614707 40.000000
2.641125 -0.358889 0.615347 36.000000
2.642915 -0.367393 0.615988 42.000000
2.641775 -0.375500 0.615988 36.000000
2.646411 -0.384443 0.617269 35.000000
2.648119 -0.392989 0.617910 40.000000
2.646901 -0.401111 0.617910 28.000000
2.645658 -0.409230 0.617910 42.000000
2.643425 -0.417193 0.617696 36.000000
2.645991 -0.425920 0.618550 31.000000
2.642743 -0.433721 0.618123 34.000000
2.641400 -0.441826 0.618123 43.000000
2.642922 -0.450419 0.618764 37.000000
2.646341 -0.459359 0.619832 37.000000
2.643956 -0.467306 0.619618 28.000000
2.645395 -0.475933 0.620259 34.000000
2.647767 -0.484749 0.621113 30.000000
2.652030 -0.493940 0.622394 25.000000
2.655302 -0.502981 0.623462 29.000000
2.657584 -0.511863 0.624316 34.000000
2.662713 -0.521325 0.625811 43.000000
2.665892 -0.530442 0.626878 34.000000
2.666167 -0.539005 0.627306 40.000000
2.659716 -0.546202 0.626238 26.000000
2.657071 -0.554160 0.626024 43.000000
2.656314 -0.562511 0.626238 35.000000
2.654576 -0.570658 0.626238 33.000000
2.652813 -0.578799 0.626238 34.000000
2.656748 -0.588200 0.627519 32.000000
2.657791 -0.596989 0.628160 17.000000
2.658804 -0.605790 0.628800 30.000000
2.662645 -0.615262 0.630082 31.000000
2.663599 -0.624095 0.630722 26.000000
2.655018 -0.630686 0.629227 12.000000
2.649721 -0.145337 0.579103 6.000000
2.629706 -0.152330 0.575071 24.000000
2.629226 -0.160397 0.575071 43.000000
2.634586 -0.168840 0.576281 32.000000
2.634056 -0.176922 0.576281 23.000000
2.632524 -0.184933 0.576079 41.000000
2.634875 -0.193224 0.576684 38.000000
2.635246 -0.201382 0.576886 43.000000
2.634616 -0.209466 0.576886 44.000000
2.632009 -0.217386 0.576482 34.000000
2.631329 -0.225460 0.576482 37.000000
2.634528 -0.233879 0.577289 48.000000
2.636724 -0.242229 0.577894 53.000000
2.637918 -0.250503 0.578297 34.000000
2.635188 -0.258403 0.577894 57.000000
2.640229 -0.267079 0.579103 47.000000
2.640372 -0.275280 0.579305 37.000000
2.639515 -0.283379 0.579305 38.000000
2.635712 -0.291153 0.578700 44.000000
2.631887 -0.298905 0.578095 49.000000
2.632903 -0.307206 0.578498 46.000000
2.638756 -0.316099 0.579910 55.000000
2.634858 -0.323834 0.579305 36.000000
2.636767 -0.332284 0.579910 59.000000
2.636707 -0.340497 0.580111 56.000000
2.640504 -0.349228 0.581119 38.000000
2.640391 -0.357459 0.581321 52.000000
2.638312 -0.365423 0.581119 51.000000
2.634269 -0.373103 0.580514 68.000000
2.644744 -0.382869 0.582933 45.000000
2.642588 -0.390837 0.582732 44.000000
2.640408 -0.398796 0.582530 45.000000
2.637236 -0.406596 0.582127 53.000000
2.640814 -0.415447 0.583135 43.000000
2.644363 -0.424324 0.584143 60.000000
2.642082 -0.432276 0.583941 51.000000
2.635912 -0.439574 0.582933 49.000000
2.640345 -0.448644 0.584143 42.000000
2.643782 -0.457578 0.585151 48.000000
2.643330 -0.465857 0.585352 37.000000
2.644781 -0.474484 0.585957 40.000000
2.644276 -0.482772 0.586159 48.000000
2.643745 -0.491061 0.586360 44.000000
2.639339 -0.498624 0.585756 38.000000
2.639721 -0.507089 0.586159 35.000000
2.641036 -0.515748 0.586764 50.000000
2.642324 -0.524421 0.587368 51.000000
2.644543 -0.533300 0.588175 35.000000
2.640975 -0.541017 0.587772 41.000000
2.639303 -0.549117 0.587772 45.000000
2.650064 -0.559846 0.590392 49.000000
2.650249 -0.568384 0.590795 52.000000
2.648493 -0.576513 0.590795 42.000000
2.657232 -0.586961 0.593013 48.000000
2.654463 -0.594896 0.592811 41.000000
2.660266 -0.604775 0.594424 23.000000
2.675577 -0.616897 0.598053 21.000000
2.669857 -0.624210 0.597246 31.000000
2.666023 -0.631946 0.596843 39.000000
2.663120 -0.639894 0.596642 31.000000
2.664950 -0.648988 0.597448 18.000000
2.653438 -0.654813 0.595432 27.000000
2.653317 -0.663426 0.595835 17.000000
2.701011 -0.099650 0.557523 7.000000
2.644444 -0.113840 0.546667 22.000000
2.637217 -0.121639 0.545334 25.000000
2.625065 -0.129155 0.543048 31.000000
2.621716 -0.137056 0.542476 29.000000
2.624223 -0.145260 0.543048 38.000000
2.621805 -0.153197 0.542667 46.000000
2.637981 -0.162257 0.545905 17.000000
2.628653 -0.169784 0.544191 27.000000
2.628120 -0.177847 0.544191 42.000000
2.627562 -0.185909 0.544191 34.000000
2.631875 -0.194329 0.545143 36.000000
2.629308 -0.202253 0.544762 41.000000
2.628675 -0.210319 0.544762 44.000000
2.626061 -0.218221 0.544381 29.000000
2.627336 -0.226444 0.544762 35.000000
2.630539 -0.234851 0.545524 36.000000
2.632740 -0.243190 0.546095 38.000000
2.628072 -0.250894 0.545334 32.000000
2.627290 -0.258956 0.545334 39.000000
2.628436 -0.267213 0.545714 44.000000
2.628581 -0.275377 0.545905 34.000000
2.627723 -0.283440 0.545905 26.000000
2.628793 -0.291716 0.546286 48.000000
2.625935 -0.299558 0.545905 43.000000
2.625003 -0.307613 0.545905 41.000000
2.629896 -0.316366 0.547048 41.000000
2.625989 -0.324074 0.546476 35.000000
2.624983 -0.332129 0.546476 41.000000
2.621031 -0.339803 0.545905 43.000000
2.619976 -0.347843 0.545905 37.000000
2.624733 -0.356669 0.547048 36.000000
2.623627 -0.364720 0.547048 41.000000
2.626383 -0.373319 0.547810 30.000000
2.633970 -0.382641 0.549524 45.000000
2.635697 -0.391151 0.550095 36.000000
2.637396 -0.399675 0.550667 43.000000
2.635188 -0.407615 0.550476 43.000000
2.636834 -0.416156 0.551048 43.000000
2.638453 -0.424710 0.551619 28.000000
2.639075 -0.433120 0.552000 46.000000
2.630955 -0.440084 0.550667 43.000000
2.627657 -0.447824 0.550286 35.000000
2.630140 -0.456554 0.551048 36.000000
2.629694 -0.464791 0.551238 42.000000
2.630188 -0.473204 0.551619 44.000000
2.630655 -0.481624 0.552000 39.000000
2.627235 -0.489333 0.551619 37.000000
2.628615 -0.497938 0.552190 34.000000
2.634788 -0.507482 0.553714 35.000000
2.633218 -0.515563 0.553714 40.000000
2.635476 -0.524404 0.554476 37.000000
2.635779 -0.532875 0.554857 36.000000
2.638940 -0.541945 0.555809 39.000000
2.640149 -0.550638 0.556381 39.000000
2.647091 -0.560562 0.558095 42.000000
2.646319 -0.568887 0.558285 35.000000
2.647439 -0.577629 0.558857 58.000000
2.645654 -0.585749 0.558857 30.000000
2.643845 -0.593863 0.558857 36.000000
2.642968 -0.602189 0.559047 48.000000
2.647804 -0.611839 0.560380 31.000000
2.644958 -0.619736 0.560190 31.000000
2.644000 -0.628074 0.560380 29.000000
2.640151 -0.635724 0.559999 35.000000
2.642004 -0.644750 0.560761 32.000000
2.642872 -0.653558 0.561333 32.000000
2.643712 -0.662378 0.561904 35.000000
2.636909 -0.669280 0.560952 35.000000
2.633893 -0.677123 0.560761 28.000000
2.625152 -0.683472 0.559428 13.000000
2.667854 -0.064352 0.517802 10.000000
2.614533 -0.071084 0.508156 23.000000
2.620203 -0.079285 0.509228 30.000000
2.617981 -0.087257 0.508871 33.000000
2.614751 -0.095181 0.508335 38.000000
2.618379 -0.103358 0.509050 32.000000
2.617067 -0.111349 0.508871 49.000000
2.617696 -0.119422 0.509050 41.000000
2.616334 -0.127405 0.508871 28.000000
2.612983 -0.135278 0.508335 31.000000
2.614521 -0.143402 0.508692 42.000000
2.617015 -0.151593 0.509228 50.000000
2.619484 -0.159802 0.509764 55.000000
2.619964 -0.167901 0.509943 51.000000
2.618454 -0.175872 0.509764 47.000000
2.619866 -0.184042 0.510121 50.000000
2.617326 -0.191935 0.509764 42.000000
2.620649 -0.200264 0.510479 60.000000
2.619042 -0.208225 0.510300 48.000000
2.619371 -0.216340 0.510479 49.000000
2.621636 -0.224628 0.511015 40.000000
2.624854 -0.233019 0.511729 42.000000
2.621188 -0.240800 0.511193 58.000000
2.622396 -0.249027 0.511550 31.000000
2.616724 -0.256590 0.510657 48.000000
2.612008 -0.264220 0.509943 61.000000
2.608250 -0.271926 0.509407 38.000000
2.608382 -0.280032 0.509585 57.000000
2.607510 -0.288033 0.509585 40.000000
2.607592 -0.296143 0.509764 27.000000
2.609602 -0.304484 0.510300 48.000000
2.612564 -0.312957 0.511015 35.000000
2.617451 -0.321692 0.512086 63.000000
2.619380 -0.330090 0.512622 47.000000
2.617379 -0.337998 0.512444 53.000000
2.618281 -0.346285 0.512801 53.000000
2.625006 -0.355373 0.514230 52.000000
2.623904 -0.363425 0.514230 48.000000
2.626673 -0.372026 0.514944 43.000000
2.630388 -0.380788 0.515838 51.000000
2.634074 -0.389577 0.516731 49.000000
2.633839 -0.397803 0.516909 53.000000
2.634551 -0.406182 0.517267 44.000000
2.634264 -0.414416 0.517445 56.000000
2.635895 -0.422964 0.517981 49.000000
2.637498 -0.431526 0.518517 51.000000
2.636162 -0.439615 0.518517 38.000000
2.634800 -0.447701 0.518517 46.000000
2.637292 -0.456454 0.519231 61.000000
2.636848 -0.464714 0.519410 49.000000
2.630568 -0.471932 0.518517 43.000000
2.632980 -0.480708 0.519231 45.000000
2.631492 -0.488783 0.519231 58.000000
2.629014 -0.496672 0.519053 38.000000
2.633275 -0.505849 0.520125 41.000000
2.633642 -0.514303 0.520482 50.000000
2.638807 -0.523722 0.521732 46.000000
2.644904 -0.533373 0.523161 43.000000
2.646146 -0.542078 0.523697 48.000000
2.646398 -0.550594 0.524055 45.000000
2.648546 -0.559525 0.524769 41.000000
2.642969 -0.566822 0.524055 43.000000
2.642179 -0.575137 0.524233 50.000000
2.634638 -0.581967 0.523161 42.000000
2.633800 -0.590262 0.523340 41.000000
2.635814 -0.599213 0.524055 48.000000
2.637799 -0.608181 0.524769 45.000000
2.636878 -0.616495 0.524948 48.000000
2.642633 -0.626399 0.526377 37.000000
2.638786 -0.634043 0.526019 35.000000
2.639696 -0.642835 0.526555 38.000000
2.640577 -0.651638 0.527091 39.000000
2.639520 -0.659975 0.527270 51.000000
2.635575 -0.667586 0.526913 36.000000
2.637327 -0.676647 0.527627 37.000000
2.631429 -0.683745 0.526913 49.000000
2.636931 -0.693819 0.528342 27.000000
2.630037 -0.700639 0.527449 35.000000
2.631675 -0.709729 0.528163 39.000000
2.636129 -0.719615 0.529413 12.000000
2.604005 -0.024170 0.474432 10.000000
2.592088 -0.032018 0.472429 34.000000
2.598878 -0.040074 0.473597 24.000000
2.599729 -0.048065 0.473764 41.000000
2.600555 -0.056061 0.473931 44.000000
2.602342 -0.064087 0.474265 43.000000
2.603119 -0.072098 0.474432 37.000000
2.598944 -0.079964 0.473764 38.000000
2.601642 -0.088036 0.474265 38.000000
2.598404 -0.095909 0.473764 40.000000
2.596128 -0.103803 0.473430 43.000000
2.596782 -0.111809 0.473597 50.000000
2.600366 -0.119955 0.474265 51.000000
2.603925 -0.128125 0.474933 43.000000
2.606474 -0.136266 0.475434 49.000000
2.610966 -0.144532 0.476268 47.000000
2.612479 -0.152656 0.476602 34.000000
2.612982 -0.160730 0.476769 55.000000
2.611493 -0.168683 0.476602 43.000000
2.604077 -0.176231 0.475434 34.000000
2.599590 -0.183943 0.474766 36.000000
2.599997 -0.191989 0.474933 37.000000
2.596446 -0.199740 0.474432 41.000000
2.602701 -0.208252 0.475601 42.000000
2.604998 -0.216480 0.476101 36.000000
2.608251 -0.224808 0.476769 40.000000
2.617370 -0.233681 0.478439 44.000000
2.615659 -0.241620 0.478272 38.000000
2.615887 -0.249736 0.478439 32.000000
2.616089 -0.257857 0.478606 37.000000
2.613324 -0.265683 0.478272 41.000000
2.611516 -0.273597 0.478105 44.000000
2.609684 -0.281503 0.477938 42.000000
2.607828 -0.289399 0.477771 37.000000
2.604969 -0.297176 0.477437 46.000000
2.602086 -0.304938 0.477103 26.000000
2.607991 -0.313741 0.478272 39.000000
2.610930 -0.322222 0.478939 39.000000
2.615799 -0.330971 0.479941 49.000000
2.612816 -0.338742 0.479607 39.000000
2.610786 -0.346627 0.479440 34.000000
2.617527 -0.355693 0.480776 47.000000
2.613494 -0.363316 0.480275 44.000000
2.615295 -0.371748 0.480776 34.000000
2.617070 -0.380193 0.481277 36.000000
2.616867 -0.388365 0.481444 50.000000
2.622487 -0.397423 0.482612 34.000000
2.627102 -0.406368 0.483614 47.000000
2.624869 -0.414273 0.483447 33.000000
2.623586 -0.422324 0.483447 52.000000
2.627143 -0.431167 0.484282 38.000000
2.623863 -0.438901 0.483948 34.000000
2.628336 -0.447940 0.484949 39.000000
2.632779 -0.457011 0.485951 32.000000
2.631364 -0.465086 0.485951 33.000000
2.627984 -0.472808 0.485617 31.000000
2.633310 -0.482108 0.486786 33.000000
2.628911 -0.489645 0.486285 33.000000
2.622552 -0.496792 0.485450 37.000000
2.619079 -0.504464 0.485116 41.000000
2.616551 -0.512308 0.484949 37.000000
2.617869 -0.520909 0.485450 31.000000
2.624957 -0.530692 0.486953 34.000000
2.619453 -0.537951 0.486285 40.000000
2.618755 -0.546186 0.486452 38.000000
2.625749 -0.556052 0.487954 32.000000
2.623067 -0.563899 0.487787 31.000000
2.624215 -0.572573 0.488288 34.000000
2.617632 -0.579557 0.487453 37.000000
2.617766 -0.588017 0.487787 37.000000
2.621718 -0.597357 0.488789 28.000000
2.618912 -0.605176 0.488622 30.000000
2.617043 -0.613208 0.488622 33.000000
2.619946 -0.622371 0.489457 31.000000
2.620901 -0.631097 0.489958 39.000000
2.630448 -0.641935 0.491961 28.000000
2.629423 -0.650239 0.492128 49.000000
2.629329 -0.658781 0.492462 40.000000
2.630162 -0.667571 0.492963 43.000000
2.628102 -0.675637 0.492963 32.000000
2.626017 -0.683697 0.492963 29.000000
2.625814 -0.692252 0.493296 27.000000
2.623678 -0.700305 0.493296 18.000000
2.620565 -0.708094 0.493129 21.000000
2.621234 -0.716909 0.493630 27.000000
2.619972 -0.725210 0.493797 33.000000
2.620584 -0.734042 0.494298 34.000000
2.613576 -0.740736 0.493463 26.000000
2.574323 -0.738168 0.486953 6.000000
2.600321 -0.023264 0.441383 33.000000
2.597274 -0.031205 0.440919 47.000000
2.595191 -0.039143 0.440609 27.000000
2.599997 -0.047196 0.441383 38.000000
2.602803 -0.055235 0.441848 44.000000
2.601634 -0.063196 0.441693 37.000000
2.596490 -0.071042 0.440919 39.000000
2.591322 -0.078856 0.440144 50.000000
2.591068 -0.086806 0.440144 40.000000
2.589802 -0.094719 0.439990 50.000000
2.586538 -0.102546 0.439525 39.000000
2.589173 -0.110608 0.439990 49.000000
2.590795 -0.118641 0.440299 57.000000
2.590419 -0.126589 0.440299 48.000000
2.592978 -0.134690 0.440764 44.000000
2.602417 -0.143189 0.442313 49.000000
2.601965 -0.151172 0.442313 48.000000
2.607406 -0.159517 0.443242 50.000000
2.611834 -0.167833 0.444017 47.000000
2.614263 -0.176045 0.444481 41.000000
2.614696 -0.184134 0.444636 63.000000
2.614119 -0.192155 0.444636 51.000000
2.604652 -0.199494 0.443242 43.000000
2.605997 -0.207641 0.443552 53.000000
2.604363 -0.215554 0.443397 48.000000
2.602705 -0.223458 0.443242 45.000000
2.604960 -0.231705 0.443707 47.000000
2.607188 -0.239968 0.444171 59.000000
2.606439 -0.247965 0.444171 50.000000
2.612549 -0.256638 0.445256 61.000000
2.611749 -0.264652 0.445256 48.000000
2.611907 -0.272766 0.445410 54.000000
2.613023 -0.280990 0.445720 42.000000
2.613130 -0.289114 0.445875 40.000000
2.612231 -0.297129 0.445875 48.000000
2.615232 -0.305601 0.446495 59.000000
2.611340 -0.313270 0.446030 45.000000
2.613308 -0.321642 0.446495 55.000000
2.615249 -0.330030 0.446959 38.000000
2.611285 -0.337671 0.446495 54.000000
2.608278 -0.345421 0.446185 35.000000
2.611122 -0.353953 0.446804 47.000000
2.611002 -0.362098 0.446959 49.000000
2.611835 -0.370385 0.447269 65.000000
2.609709 -0.378254 0.447114 44.000000
2.607559 -0.386114 0.446959 32.000000
2.617107 -0.395738 0.448663 49.000000
2.619786 -0.404369 0.449283 56.000000
2.616581 -0.412097 0.448973 37.000000
2.617255 -0.420436 0.449283 42.000000
2.618878 -0.428943 0.449747 58.000000
2.617550 -0.436976 0.449747 57.000000
2.616197 -0.445004 0.449747 55.000000
2.613846 -0.452860 0.449592 55.000000
2.614390 -0.461220 0.449902 43.000000
2.615880 -0.469763 0.450367 51.000000
2.616370 -0.478142 0.450676 56.000000
2.614891 -0.486167 0.450676 52.000000
2.615328 -0.494554 0.450986 57.000000
2.613799 -0.502575 0.450986 41.000000
2.613214 -0.510782 0.451141 52.000000
2.611634 -0.518797 0.451141 52.000000
2.610999 -0.527002 0.451296 52.000000
2.608402 -0.534811 0.451141 46.000000
2.607716 -0.543013 0.451296 54.000000
2.609904 -0.551829 0.451916 44.000000
2.612063 -0.560663 0.452535 61.000000
2.617087 -0.570147 0.453619 58.000000
2.617255 -0.578600 0.453929 43.000000
2.622215 -0.588142 0.455013 54.000000
2.622325 -0.596622 0.455323 48.000000
2.620482 -0.604665 0.455323 51.000000
2.621500 -0.613377 0.455788 51.000000
2.622490 -0.622101 0.456252 52.000000
2.620569 -0.630144 0.456252 53.000000
2.621503 -0.638883 0.456717 54.000000
2.619530 -0.646923 0.456717 56.000000
2.620408 -0.655676 0.457182 44.000000
2.621257 -0.664441 0.457646 43.000000
2.620163 -0.672726 0.457801 51.000000
2.619043 -0.681010 0.457956 47.000000
2.617897 -0.689293 0.458111 62.000000
2.620543 -0.698595 0.458885 48.000000
2.619341 -0.706889 0.459040 59.000000
2.622878 -0.716484 0.459969 50.000000
2.633045 -0.727952 0.461983 37.000000
2.635556 -0.737358 0.462757 36.000000
2.637084 -0.746517 0.463377 41.000000
2.633832 -0.754332 0.463222 29.000000
2.625812 -0.760759 0.462293 26.000000
2.629153 -0.770479 0.463222 26.000000
2.557635 -0.758038 0.451916 8.000000
2.570438 -0.770421 0.454394 5.000000
2.583861 -0.047330 0.407226 27.000000
2.580735 -0.055195 0.406797 46.000000
2.580554 -0.063112 0.406797 35.000000
2.583316 -0.071110 0.407226 38.000000
2.586054 -0.079124 0.407655 34.000000
2.585799 -0.087058 0.407655 39.000000
2.590465 -0.095170 0.408370 47.000000
2.587194 -0.103000 0.407941 37.000000
2.584888 -0.110853 0.407655 50.000000
2.584536 -0.118783 0.407655 45.000000
2.582182 -0.126615 0.407369 40.000000
2.577828 -0.134333 0.406797 45.000000
2.583333 -0.142565 0.407655 54.000000
2.587824 -0.150776 0.408370 45.000000
2.591301 -0.158955 0.408942 42.000000
2.590801 -0.166904 0.408942 38.000000
2.594227 -0.175117 0.409514 32.000000
2.598614 -0.183421 0.410229 41.000000
2.598039 -0.191393 0.410229 55.000000
2.600400 -0.199588 0.410658 36.000000
2.599775 -0.207565 0.410658 41.000000
2.601099 -0.215703 0.410944 45.000000
2.604369 -0.224020 0.411516 42.000000
2.605642 -0.232183 0.411802 32.000000
2.599989 -0.239724 0.411087 40.000000
2.602198 -0.247980 0.411516 39.000000
2.603395 -0.256155 0.411802 56.000000
2.600627 -0.263942 0.411516 45.000000
2.596852 -0.271612 0.411087 48.000000
2.596990 -0.279683 0.411230 43.000000
2.596120 -0.287649 0.411230 36.000000
2.600142 -0.296171 0.411944 46.000000
2.596272 -0.303803 0.411516 44.000000
2.597293 -0.312002 0.411802 40.000000
2.597306 -0.320089 0.411944 48.000000
2.604168 -0.329045 0.413088 40.000000
2.603146 -0.337033 0.413088 43.000000
2.597194 -0.344370 0.412373 49.000000
2.604952 -0.353530 0.413660 32.000000
2.609738 -0.362334 0.414518 56.000000
2.605674 -0.369923 0.414089 41.000000
2.612363 -0.379049 0.415233 32.000000
2.608250 -0.386628 0.414804 32.000000
2.606073 -0.394480 0.414661 39.000000
2.608764 -0.403076 0.415233 40.000000
2.602626 -0.410310 0.414518 35.000000
2.601355 -0.418292 0.414518 39.000000
2.600060 -0.426271 0.414518 46.000000
2.602644 -0.434897 0.415090 42.000000
2.603250 -0.443211 0.415376 36.000000
2.604803 -0.451702 0.415805 41.000000
2.609254 -0.460721 0.416663 46.000000
2.609776 -0.469073 0.416949 49.000000
2.608325 -0.477078 0.416949 30.000000
2.608795 -0.485439 0.417235 42.000000
2.605349 -0.493073 0.416949 32.000000
2.603824 -0.501064 0.416949 38.000000
2.603245 -0.509239 0.417092 37.000000
2.605554 -0.517994 0.417663 36.000000
2.608804 -0.526963 0.418378 37.000000
2.611053 -0.535758 0.418950 32.000000
2.617149 -0.545378 0.420094 45.000000
2.618369 -0.554018 0.420523 30.000000
2.620528 -0.562878 0.421095 38.000000
2.621690 -0.571547 0.421524 34.000000
2.618958 -0.579374 0.421381 41.000000
2.619100 -0.587838 0.421667 30.000000
2.621144 -0.596748 0.422239 37.000000
2.619301 -0.604787 0.422239 38.000000
2.619361 -0.613270 0.422525 33.000000
2.622283 -0.622444 0.423239 37.000000
2.617473 -0.629793 0.422811 27.000000
2.620337 -0.638991 0.423525 29.000000
2.615482 -0.646316 0.423097 29.000000
2.616367 -0.655057 0.423525 35.000000
2.614345 -0.663081 0.423525 45.000000
2.617092 -0.672328 0.424240 30.000000
2.613101 -0.679856 0.423954 40.000000
2.616746 -0.689380 0.424812 40.000000
2.616532 -0.697914 0.425098 40.000000
2.618201 -0.706968 0.425670 35.000000
2.616019 -0.714998 0.425670 36.000000
2.618583 -0.724337 0.426385 24.000000
2.620162 -0.733433 0.426957 30.000000
2.622661 -0.742815 0.427672 33.000000
2.619418 -0.750585 0.427529 36.000000
2.623758 -0.760544 0.428530 21.000000
2.621413 -0.768590 0.428530 34.000000
2.628532 -0.779439 0.429959 24.000000
2.617595 -0.784944 0.428672 40.000000
2.621806 -0.794979 0.429673 28.000000
2.633550 -0.807364 0.431818 12.000000
2.600530 -0.071153 0.377972 22.000000
2.603272 -0.079222 0.378365 49.000000
2.600044 -0.087108 0.377972 33.000000
2.597784 -0.095012 0.377709 34.000000
2.597480 -0.102981 0.377709 47.000000
2.596161 -0.110907 0.377578 56.000000
2.591847 -0.118690 0.377054 48.000000
2.588500 -0.126495 0.376661 36.000000
2.581170 -0.134075 0.375744 30.000000
2.588665 -0.142430 0.376792 57.000000
2.591186 -0.150544 0.377185 45.000000
2.592690 -0.158615 0.377447 41.000000
2.592192 -0.166568 0.377447 40.000000
2.591669 -0.174520 0.377447 47.000000
2.594088 -0.182680 0.377840 60.000000
2.596481 -0.190856 0.378234 44.000000
2.596871 -0.198897 0.378365 70.000000
2.598226 -0.207021 0.378627 47.000000
2.597578 -0.214991 0.378627 50.000000
2.597894 -0.223044 0.378758 52.000000
2.602135 -0.231453 0.379413 51.000000
2.602400 -0.239526 0.379544 67.000000
2.606587 -0.247980 0.380199 58.000000
2.605814 -0.255975 0.380199 55.000000
2.603044 -0.263768 0.379937 64.000000
2.599265 -0.271444 0.379544 50.000000
2.600391 -0.279629 0.379806 62.000000
2.596565 -0.287278 0.379413 38.000000
2.594687 -0.295131 0.379282 52.000000
2.589830 -0.302629 0.378758 46.000000
2.592826 -0.311046 0.379282 46.000000
2.595796 -0.319484 0.379806 54.000000
2.600705 -0.328192 0.380592 67.000000
2.605585 -0.336933 0.381379 61.000000
2.604539 -0.344925 0.381379 58.000000
2.608380 -0.353581 0.382034 47.000000
2.614156 -0.362536 0.382951 46.000000
2.610087 -0.370136 0.382558 31.000000
2.609921 -0.378285 0.382689 41.000000
2.609728 -0.386435 0.382820 50.000000
2.603630 -0.393698 0.382165 39.000000
2.603389 -0.401836 0.382296 56.000000
2.603123 -0.409975 0.382427 61.000000
2.599896 -0.417645 0.382165 47.000000
2.598602 -0.425619 0.382165 54.000000
2.600218 -0.434080 0.382558 46.000000
2.598874 -0.442055 0.382558 47.000000
2.601413 -0.450704 0.383082 41.000000
2.606852 -0.459889 0.384000 47.000000
2.603477 -0.467534 0.383738 56.000000
2.604956 -0.476054 0.384131 34.000000
2.606407 -0.484588 0.384524 50.000000
2.601986 -0.492029 0.384131 65.000000
2.600464 -0.500009 0.384131 53.000000
2.601837 -0.508556 0.384524 50.000000
2.597347 -0.515956 0.384131 49.000000
2.599639 -0.524707 0.384655 47.000000
2.602873 -0.533677 0.385310 50.000000
2.607046 -0.542873 0.386096 47.000000
2.609248 -0.551690 0.386621 51.000000
2.610451 -0.560317 0.387014 54.000000
2.608720 -0.568323 0.387014 41.000000
2.608900 -0.576752 0.387276 52.000000
2.610987 -0.585622 0.387800 36.000000
2.611112 -0.594070 0.388062 47.000000
2.609277 -0.602078 0.388062 46.000000
2.610313 -0.610758 0.388455 52.000000
2.610356 -0.619221 0.388717 55.000000
2.608444 -0.627227 0.388717 37.000000
2.611323 -0.636401 0.389372 38.000000
2.610321 -0.644647 0.389504 48.000000
2.611216 -0.653375 0.389897 40.000000
2.611121 -0.661870 0.390159 54.000000
2.613879 -0.671111 0.390814 41.000000
2.618524 -0.680875 0.391731 39.000000
2.624092 -0.690926 0.392780 47.000000
2.622918 -0.699228 0.392911 39.000000
2.622675 -0.707789 0.393173 33.000000
2.622403 -0.716355 0.393435 47.000000
2.622104 -0.724925 0.393697 52.000000
2.618913 -0.732699 0.393566 48.000000
2.622376 -0.742352 0.394352 37.000000
2.619133 -0.750120 0.394221 52.000000
2.619676 -0.758980 0.394614 65.000000
2.626849 -0.769803 0.395925 50.000000
2.622574 -0.777295 0.395663 44.000000
2.620177 -0.785337 0.395663 44.000000
2.621550 -0.794523 0.396187 29.000000
2.612465 -0.800528 0.395270 45.000000
2.613785 -0.809713 0.395794 36.000000
2.610342 -0.817431 0.395663 34.000000
2.598371 -0.822443 0.394352 46.000000
2.626994 -0.840383 0.398677 7.000000
2.592489 -0.102758 0.345048 30.000000
2.605058 -0.111256 0.346594 26.000000
2.589827 -0.118573 0.344811 49.000000
2.585484 -0.126326 0.344335 45.000000
2.588058 -0.134411 0.344692 48.000000
2.586643 -0.142296 0.344573 49.000000
2.582229 -0.150003 0.344097 31.000000
2.581757 -0.157924 0.344097 33.000000
2.582251 -0.165907 0.344216 55.000000
2.582720 -0.173895 0.344335 65.000000
2.585146 -0.182026 0.344692 58.000000
2.582595 -0.189812 0.344454 48.000000
2.584971 -0.197960 0.344811 65.000000
2.584351 -0.205890 0.344811 46.000000
2.581728 -0.213655 0.344573 47.000000
2.582050 -0.221659 0.344692 60.000000
2.582347 -0.229667 0.344811 51.000000
2.584596 -0.237860 0.345167 47.000000
2.584843 -0.245882 0.345286 45.000000
2.586053 -0.254004 0.345524 58.000000
2.583285 -0.261737 0.345286 54.000000
2.586421 -0.270072 0.345762 45.000000
2.585580 -0.278006 0.345762 54.000000
2.582741 -0.285720 0.345524 60.000000
2.582839 -0.293754 0.345643 38.000000
2.583898 -0.301906 0.345881 45.000000
2.580002 -0.309478 0.345524 60.000000
2.584954 -0.318117 0.346238 52.000000
2.587906 -0.326542 0.346713 66.000000
2.591816 -0.335114 0.347308 30.000000
2.590775 -0.343064 0.347308 58.000000
2.588727 -0.350878 0.347189 52.000000
2.592556 -0.359498 0.347784 44.000000
2.596356 -0.368145 0.348378 42.000000
2.597180 -0.376393 0.348616 57.000000
2.596995 -0.384504 0.348735 44.000000
2.594821 -0.392322 0.348616 41.000000
2.596550 -0.400734 0.348973 54.000000
2.599232 -0.409314 0.349449 45.000000
2.597964 -0.417286 0.349449 43.000000
2.596671 -0.425255 0.349449 38.000000
2.599272 -0.433871 0.349924 56.000000
2.599887 -0.442176 0.350162 43.000000
2.598518 -0.450150 0.350162 52.000000
2.598103 -0.458292 0.350281 44.000000
2.596684 -0.466261 0.350281 66.000000
2.595241 -0.474225 0.350281 41.000000
2.595727 -0.482547 0.350519 48.000000
2.591307 -0.489956 0.350162 38.000000
2.590767 -0.498091 0.350281 49.000000
2.591176 -0.506417 0.350519 63.000000
2.593506 -0.515136 0.350995 42.000000
2.596780 -0.524071 0.351589 42.000000
2.597106 -0.532433 0.351827 50.000000
2.602265 -0.541812 0.352659 44.000000
2.603505 -0.550408 0.353016 42.000000
2.604717 -0.559017 0.353373 48.000000
2.605900 -0.567638 0.353730 39.000000
2.607055 -0.576272 0.354087 38.000000
2.605275 -0.584267 0.354087 51.000000
2.603470 -0.592257 0.354087 31.000000
2.607446 -0.601579 0.354800 35.000000
2.610423 -0.610704 0.355395 49.000000
2.603706 -0.617566 0.354800 32.000000
2.607592 -0.626942 0.355514 63.000000
2.608551 -0.635643 0.355870 58.000000
2.607552 -0.643880 0.355989 48.000000
2.609418 -0.652839 0.356465 53.000000
2.608365 -0.661085 0.356584 39.000000
2.606325 -0.669084 0.356584 40.000000
2.610026 -0.678574 0.357298 46.000000
2.612734 -0.687840 0.357892 35.000000
2.608692 -0.695342 0.357654 35.000000
2.606547 -0.703342 0.357654 38.000000
2.604376 -0.711335 0.357654 43.000000
2.605053 -0.720115 0.358011 47.000000
2.609526 -0.729973 0.358844 38.000000
2.609185 -0.738515 0.359081 32.000000
2.609771 -0.747335 0.359438 33.000000
2.618912 -0.758649 0.360865 47.000000
2.623242 -0.768632 0.361698 44.000000
2.618968 -0.776112 0.361460 51.000000
2.614672 -0.783574 0.361222 41.000000
2.612256 -0.791592 0.361222 48.000000
2.606966 -0.798732 0.360865 40.000000
2.607349 -0.807606 0.361222 28.000000
2.604860 -0.815601 0.361222 31.000000
2.599505 -0.822692 0.360865 35.000000
2.606427 -0.833684 0.362054 24.000000
2.605747 -0.842286 0.362292 21.000000
2.605982 -0.851200 0.362649 27.000000
2.601472 -0.858570 0.362411 18.000000
2.577333 -0.868185 0.360033 6.000000
2.595070 -0.126366 0.313521 12.000000
2.568854 -0.132987 0.310744 28.000000
2.575383 -0.141249 0.311492 34.000000
2.572952 -0.149035 0.311278 46.000000
2.565536 -0.156503 0.310531 39.000000
2.568021 -0.164564 0.310851 51.000000
2.569488 -0.172575 0.311065 42.000000
2.569938 -0.180528 0.311171 34.000000
2.574330 -0.188775 0.311705 46.000000
2.575722 -0.196824 0.311919 46.000000
2.577088 -0.204883 0.312132 61.000000
2.583384 -0.213363 0.312880 69.000000
2.583707 -0.221373 0.312987 53.000000
2.585987 -0.229562 0.313307 50.000000
2.582300 -0.237222 0.312987 43.000000
2.579581 -0.244955 0.312773 43.000000
2.583765 -0.253353 0.313307 38.000000
2.582976 -0.261279 0.313307 67.000000
2.582162 -0.269202 0.313307 53.000000
2.584289 -0.277442 0.313627 42.000000
2.584414 -0.285478 0.313734 60.000000
2.585502 -0.293631 0.313948 46.000000
2.588539 -0.302023 0.314375 52.000000
2.583652 -0.309489 0.313948 44.000000
2.584664 -0.317657 0.314161 51.000000
2.585650 -0.325834 0.314375 49.000000
2.586610 -0.334021 0.314588 59.000000
2.585573 -0.341955 0.314588 52.000000
2.581556 -0.349485 0.314268 50.000000
2.583426 -0.357813 0.314588 43.000000
2.585270 -0.366156 0.314909 38.000000
2.590038 -0.374941 0.315549 56.000000
2.588876 -0.382886 0.315549 56.000000
2.587689 -0.390826 0.315549 60.000000
2.590409 -0.399370 0.315977 51.000000
2.594082 -0.408089 0.316511 41.000000
2.590854 -0.415730 0.316297 41.000000
2.589567 -0.423677 0.316297 63.000000
2.587274 -0.431456 0.316190 50.000000
2.589859 -0.440058 0.316617 55.000000
2.584578 -0.447323 0.316190 42.000000
2.583193 -0.455250 0.316190 43.000000
2.582763 -0.463349 0.316297 45.000000
2.585242 -0.471985 0.316724 53.000000
2.587692 -0.480641 0.317151 57.000000
2.586205 -0.488578 0.317151 50.000000
2.584694 -0.496510 0.317151 42.000000
2.586086 -0.505009 0.317472 42.000000
2.588425 -0.513716 0.317899 52.000000
2.591710 -0.522638 0.318433 61.000000
2.593017 -0.531186 0.318753 41.000000
2.593322 -0.539544 0.318967 57.000000
2.593600 -0.547909 0.319180 61.000000
2.595795 -0.556698 0.319607 55.000000
2.597961 -0.565506 0.320034 57.000000
2.595243 -0.573259 0.319928 34.000000
2.592502 -0.581001 0.319821 49.000000
2.592646 -0.589393 0.320034 45.000000
2.593732 -0.598014 0.320355 68.000000
2.591885 -0.605969 0.320355 49.000000
2.595819 -0.615295 0.320995 44.000000
2.594886 -0.623488 0.321102 50.000000
2.595859 -0.632152 0.321423 48.000000
2.593907 -0.640113 0.321423 46.000000
2.592895 -0.648310 0.321529 59.000000
2.595713 -0.657483 0.322063 57.000000
2.595610 -0.665938 0.322277 53.000000
2.593555 -0.673898 0.322277 48.000000
2.593398 -0.682358 0.322490 45.000000
2.598018 -0.692104 0.323238 68.000000
2.595882 -0.700071 0.323238 46.000000
2.595640 -0.708556 0.323452 51.000000
2.597288 -0.717576 0.323879 37.000000
2.597946 -0.726344 0.324199 37.000000
2.603359 -0.736477 0.325053 46.000000
2.602043 -0.744735 0.325160 59.000000
2.602612 -0.753544 0.325480 64.000000
2.606012 -0.763203 0.326121 64.000000
2.604612 -0.771477 0.326228 63.000000
2.601280 -0.779179 0.326121 53.000000
2.598878 -0.787156 0.326121 60.000000
2.595500 -0.794834 0.326014 48.000000
2.593999 -0.803087 0.326121 50.000000
2.591523 -0.811042 0.326121 53.000000
2.589970 -0.819288 0.326228 54.000000
2.592180 -0.828745 0.326762 45.000000
2.598140 -0.839446 0.327723 48.000000
2.600278 -0.848957 0.328257 41.000000
2.601438 -0.858177 0.328684 40.000000
2.603509 -0.867727 0.329218 41.000000
2.602719 -0.876345 0.329431 46.000000
2.601901 -0.884966 0.329645 44.000000
2.575666 -0.884865 0.326975 12.000000
2.570502 -0.157689 0.280384 21.000000
2.552124 -0.164430 0.278675 46.000000
2.556573 -0.172592 0.279150 20.000000
2.560997 -0.180783 0.279625 41.000000
2.568373 -0.189221 0.280384 44.000000
2.573736 -0.197554 0.280954 42.000000
2.573117 -0.205449 0.280954 47.000000
2.580412 -0.213997 0.281714 49.000000
2.576768 -0.221658 0.281429 44.000000
2.580042 -0.229914 0.281809 50.000000
2.579324 -0.237828 0.281809 49.000000
2.575610 -0.245458 0.281524 37.000000
2.572863 -0.253165 0.281334 46.000000
2.573065 -0.261157 0.281429 60.000000
2.570271 -0.268844 0.281239 56.000000
2.569434 -0.276728 0.281239 54.000000
2.571541 -0.284937 0.281524 50.000000
2.577579 -0.293611 0.282189 55.000000
2.579633 -0.301863 0.282474 40.000000
2.580671 -0.310013 0.282664 35.000000
2.579708 -0.317928 0.282664 67.000000
2.573782 -0.325220 0.282189 63.000000
2.570798 -0.332860 0.281999 50.000000
2.564830 -0.340093 0.281524 48.000000
2.560815 -0.347560 0.281239 36.000000
2.558750 -0.355278 0.281144 57.000000
2.562577 -0.363824 0.281619 53.000000
2.567360 -0.372539 0.282189 38.000000
2.572114 -0.381287 0.282759 47.000000
2.574869 -0.389771 0.283139 32.000000
2.580548 -0.398730 0.283804 50.000000
2.582263 -0.407109 0.284089 48.000000
2.581985 -0.415187 0.284184 55.000000
2.580698 -0.423106 0.284184 41.000000
2.580370 -0.431185 0.284279 29.000000
2.581980 -0.439600 0.284563 48.000000
2.581600 -0.447688 0.284658 47.000000
2.578253 -0.455261 0.284468 41.000000
2.578804 -0.463520 0.284658 42.000000
2.580308 -0.471966 0.284943 47.000000
2.581784 -0.480425 0.285228 43.000000
2.583233 -0.488898 0.285513 32.000000
2.576832 -0.495882 0.285038 50.000000
2.577253 -0.504167 0.285228 44.000000
2.577647 -0.512459 0.285418 53.000000
2.577039 -0.520561 0.285513 42.000000
2.577380 -0.528864 0.285703 42.000000
2.575745 -0.536769 0.285703 38.000000
2.581878 -0.546314 0.286463 53.000000
2.582137 -0.554650 0.286653 35.000000
2.583341 -0.563204 0.286938 36.000000
2.582573 -0.571341 0.287033 37.000000
2.584694 -0.580132 0.287413 36.000000
2.580961 -0.587618 0.287223 48.000000
2.582056 -0.596204 0.287508 54.000000
2.581184 -0.604349 0.287603 44.000000
2.582224 -0.612954 0.287888 35.000000
2.582267 -0.621338 0.288078 41.000000
2.584217 -0.630199 0.288458 44.000000
2.579372 -0.637409 0.288173 40.000000
2.579336 -0.645803 0.288363 48.000000
2.581203 -0.654690 0.288742 40.000000
2.581111 -0.663101 0.288932 40.000000
2.576174 -0.670265 0.288647 34.000000
2.576031 -0.678672 0.288837 30.000000
2.579708 -0.688109 0.289407 33.000000
2.585274 -0.698093 0.290167 56.000000
2.590803 -0.708118 0.290927 32.000000
2.593416 -0.717388 0.291402 35.000000
2.594080 -0.726144 0.291687 31.000000
2.597587 -0.735725 0.292257 36.000000
2.602017 -0.745607 0.292921 50.000000
2.605455 -0.755247 0.293491 51.000000
2.600260 -0.762398 0.293206 39.000000
2.599818 -0.770937 0.293396 47.000000
2.595532 -0.778338 0.293206 47.000000
2.593132 -0.786298 0.293206 39.000000
2.590708 -0.794250 0.293206 39.000000
2.586357 -0.801606 0.293016 51.000000
2.582936 -0.809239 0.292921 58.000000
2.582339 -0.817760 0.293111 36.000000
2.584559 -0.827194 0.293586 33.000000
2.588640 -0.837261 0.294251 33.000000
2.586059 -0.845199 0.294251 40.000000
2.584400 -0.853441 0.294346 47.000000
2.587436 -0.863253 0.294916 28.000000
2.589493 -0.872775 0.295391 29.000000
2.594343 -0.883279 0.296151 26.000000
2.589738 -0.890587 0.295961 28.000000
2.590755 -0.899833 0.296341 18.000000
2.587983 -0.907777 0.296341 32.000000
2.575800 -0.912393 0.295391 10.000000
2.602051 -0.930672 0.298335 8.000000
2.609678 -0.183325 0.251335 12.000000
2.586244 -0.189651 0.249438 29.000000
2.573725 -0.196671 0.248449 43.000000
2.572116 -0.204488 0.248366 46.000000
2.571477 -0.212378 0.248366 44.000000
2.565848 -0.219840 0.247954 42.000000
2.565162 -0.227711 0.247954 43.000000
2.562466 -0.235397 0.247789 60.000000
2.560740 -0.243163 0.247707 47.000000
2.562957 -0.251310 0.247954 74.000000
2.566140 -0.259574 0.248284 57.000000
2.564341 -0.267342 0.248202 54.000000
2.563508 -0.275208 0.248202 68.000000
2.563643 -0.283181 0.248284 63.000000
2.567713 -0.291608 0.248696 63.000000
2.567796 -0.299600 0.248779 47.000000
2.571812 -0.308069 0.249191 56.000000
2.569866 -0.315836 0.249109 55.000000
2.575806 -0.324593 0.249686 70.000000
2.577763 -0.332877 0.249933 49.000000
2.576730 -0.340784 0.249933 54.000000
2.579623 -0.349223 0.250263 53.000000
2.583475 -0.357820 0.250675 44.000000
2.583352 -0.365884 0.250758 48.000000
2.587148 -0.374522 0.251170 49.000000
2.586973 -0.382604 0.251253 49.000000
2.589729 -0.391135 0.251582 65.000000
2.589501 -0.399230 0.251665 67.000000
2.585311 -0.406707 0.251417 57.000000
2.584051 -0.414637 0.251417 42.000000
2.580800 -0.422241 0.251253 71.000000
2.579492 -0.430157 0.251253 61.000000
2.579143 -0.438235 0.251335 50.000000
2.576804 -0.445976 0.251253 69.000000
2.577387 -0.454226 0.251417 60.000000
2.578924 -0.462659 0.251665 54.000000
2.579453 -0.470927 0.251830 64.000000
2.577996 -0.478839 0.251830 44.000000
2.575536 -0.486561 0.251747 62.000000
2.576967 -0.495024 0.251995 50.000000
2.577392 -0.503310 0.252160 50.000000
2.579746 -0.511992 0.252489 57.000000
2.577186 -0.519707 0.252407 53.000000
2.578508 -0.528212 0.252654 63.000000
2.579803 -0.536729 0.252902 49.000000
2.583994 -0.545878 0.253397 53.000000
2.581333 -0.553594 0.253314 61.000000
2.580596 -0.561723 0.253397 39.000000
2.576914 -0.569207 0.253232 53.000000
2.580018 -0.578201 0.253644 47.000000
2.578232 -0.586114 0.253644 48.000000
2.576422 -0.594021 0.253644 49.000000
2.580410 -0.603284 0.254139 61.000000
2.581456 -0.611888 0.254386 44.000000
2.582473 -0.620504 0.254633 61.000000
2.585399 -0.629604 0.255046 53.000000
2.583455 -0.637533 0.255046 51.000000
2.582453 -0.645697 0.255128 68.000000
2.584325 -0.654597 0.255458 51.000000
2.580374 -0.662027 0.255293 74.000000
2.580260 -0.670441 0.255458 48.000000
2.579154 -0.678608 0.255540 60.000000
2.578023 -0.686774 0.255623 49.000000
2.578791 -0.695459 0.255870 48.000000
2.581452 -0.704681 0.256283 48.000000
2.582159 -0.713394 0.256530 64.000000
2.581878 -0.721849 0.256695 41.000000
2.587323 -0.731938 0.257355 56.000000
2.590813 -0.741519 0.257849 59.000000
2.594270 -0.751127 0.258344 46.000000
2.594822 -0.759924 0.258592 53.000000
2.594390 -0.768447 0.258756 57.000000
2.591065 -0.776117 0.258674 47.000000
2.590580 -0.784641 0.258839 39.000000
2.584348 -0.791417 0.258509 46.000000
2.582860 -0.799637 0.258592 62.000000
2.578493 -0.806962 0.258427 53.000000
2.578855 -0.815771 0.258674 58.000000
2.578239 -0.824286 0.258839 33.000000
2.581388 -0.834031 0.259334 47.000000
2.583553 -0.843494 0.259746 50.000000
2.580953 -0.851416 0.259746 40.000000
2.583056 -0.860907 0.260158 50.000000
2.585125 -0.870418 0.260571 73.000000
2.588103 -0.880271 0.261065 54.000000
2.593873 -0.891123 0.261807 49.000000
2.597717 -0.901364 0.262385 49.000000
2.599642 -0.910978 0.262797 50.000000
2.600593 -0.920280 0.263127 41.000000
2.611834 -0.933286 0.264364 26.000000
2.607083 -0.940618 0.264199 51.000000
2.599503 -0.946906 0.263787 42.000000
2.572628 -0.214254 0.217846 20.000000
2.562020 -0.221291 0.217140 38.000000
2.559341 -0.228974 0.216999 41.000000
2.553661 -0.236367 0.216646 40.000000
2.555902 -0.244484 0.216858 32.000000
2.556133 -0.252422 0.216928 33.000000
2.556339 -0.260363 0.216999 39.000000
2.551560 -0.267790 0.216716 40.000000
2.549734 -0.275510 0.216646 44.000000
2.550860 -0.283551 0.216787 52.000000
2.554934 -0.291940 0.217140 51.000000
2.551054 -0.299429 0.216928 52.000000
2.556065 -0.307968 0.217352 61.000000
2.557089 -0.316052 0.217493 48.000000
2.563035 -0.324770 0.217988 58.000000
2.563015 -0.332760 0.218058 40.000000
2.563960 -0.340883 0.218199 46.000000
2.562902 -0.348748 0.218199 59.000000
2.564785 -0.357020 0.218411 53.000000
2.568615 -0.365588 0.218764 43.000000
2.568469 -0.373610 0.218835 45.000000
2.567311 -0.381488 0.218835 56.000000
2.569087 -0.389810 0.219047 56.000000
2.564921 -0.397233 0.218835 55.000000
2.563690 -0.405101 0.218835 55.000000
2.563420 -0.413122 0.218906 51.000000
2.558203 -0.420340 0.218623 63.000000
2.556902 -0.428186 0.218623 40.000000
2.555576 -0.436029 0.218623 59.000000
2.554226 -0.443867 0.218623 41.000000
2.547941 -0.450834 0.218270 31.000000
2.554400 -0.460060 0.218835 42.000000
2.558864 -0.468971 0.219259 30.000000
2.554471 -0.476272 0.219047 53.000000
2.552998 -0.484107 0.219047 55.000000
2.558357 -0.493256 0.219541 42.000000
2.561727 -0.502060 0.219894 42.000000
2.565067 -0.510889 0.220248 51.000000
2.567398 -0.519545 0.220530 47.000000
2.566769 -0.527620 0.220601 43.000000
2.568068 -0.536102 0.220813 54.000000
2.570315 -0.544804 0.221095 45.000000
2.563755 -0.551640 0.220742 46.000000
2.567898 -0.560778 0.221166 60.000000
2.569088 -0.569299 0.221378 44.000000
2.568302 -0.577397 0.221448 37.000000
2.572355 -0.586602 0.221872 55.000000
2.571515 -0.594715 0.221943 61.000000
2.578419 -0.604647 0.222578 57.000000
2.580435 -0.613476 0.222861 42.000000
2.576601 -0.620923 0.222720 39.000000
2.579529 -0.630006 0.223073 41.000000
2.580489 -0.638635 0.223285 51.000000
2.577550 -0.646307 0.223214 48.000000
2.581357 -0.655682 0.223638 30.000000
2.573536 -0.662110 0.223214 48.000000
2.575354 -0.671007 0.223496 40.000000
2.574248 -0.679159 0.223567 55.000000
2.571189 -0.686796 0.223496 44.000000
2.567143 -0.694161 0.223355 43.000000
2.569813 -0.703349 0.223708 48.000000
2.567643 -0.711229 0.223708 37.000000
2.571212 -0.720716 0.224132 41.000000
2.571868 -0.729416 0.224344 35.000000
2.572495 -0.738127 0.224556 51.000000
2.574051 -0.747127 0.224838 33.000000
2.579405 -0.757265 0.225403 29.000000
2.579938 -0.766026 0.225615 50.000000
2.582353 -0.775369 0.225968 35.000000
2.579962 -0.783288 0.225968 44.000000
2.578501 -0.791492 0.226039 47.000000
2.578919 -0.800285 0.226251 41.000000
2.578355 -0.808789 0.226392 34.000000
2.572058 -0.815491 0.226110 45.000000
2.571444 -0.823986 0.226251 31.000000
2.568904 -0.831872 0.226251 45.000000
2.574873 -0.842537 0.226887 56.000000
2.577013 -0.851996 0.227240 44.000000
2.575333 -0.860214 0.227310 40.000000
2.572681 -0.868111 0.227310 48.000000
2.575672 -0.877928 0.227734 40.000000
2.580513 -0.888421 0.228299 44.000000
2.580602 -0.897315 0.228511 44.000000
2.577837 -0.905228 0.228511 45.000000
2.579749 -0.914798 0.228864 34.000000
2.584444 -0.925395 0.229429 29.000000
2.591913 -0.937046 0.230206 35.000000
2.590901 -0.945676 0.230347 29.000000
2.596412 -0.956721 0.230983 26.000000
2.589725 -0.963293 0.230700 39.000000
2.599833 -0.976137 0.231689 32.000000
2.629478 -0.996467 0.234161 10.000000
2.616159 -1.000613 0.233384 7.000000
2.575760 -0.237071 0.185765 23.000000
2.570052 -0.244498 0.185474 49.000000
2.562335 -0.251698 0.185068 62.000000
2.557578 -0.259154 0.184835 59.000000
2.551806 -0.266481 0.184545 44.000000
2.556932 -0.274950 0.184893 56.000000
2.560046 -0.283232 0.185126 68.000000
2.558173 -0.290972 0.185068 70.000000
2.556277 -0.298703 0.185010 46.000000
2.560304 -0.307140 0.185300 65.000000
2.564304 -0.315604 0.185590 65.000000
2.569266 -0.324220 0.185939 75.000000
2.561329 -0.331204 0.185532 63.000000
2.560301 -0.339060 0.185532 50.000000
2.561227 -0.347182 0.185648 51.000000
2.561139 -0.355175 0.185707 80.000000
2.563002 -0.363452 0.185881 61.000000
2.562863 -0.371457 0.185939 44.000000
2.562699 -0.379464 0.185997 67.000000
2.562510 -0.387474 0.186055 60.000000
2.560322 -0.395182 0.185997 51.000000
2.562056 -0.403501 0.186171 43.000000
2.560806 -0.411359 0.186171 53.000000
2.558547 -0.419052 0.186113 52.000000
2.557249 -0.426900 0.186113 65.000000
2.554943 -0.434576 0.186055 55.000000
2.559500 -0.443436 0.186404 68.000000
2.563043 -0.452154 0.186694 42.000000
2.556731 -0.459132 0.186404 69.000000
2.557274 -0.467333 0.186520 50.000000
2.552884 -0.474629 0.186346 69.000000
2.551416 -0.482459 0.186346 49.000000
2.553845 -0.491039 0.186578 60.000000
2.553306 -0.499063 0.186636 57.000000
2.553721 -0.507283 0.186752 54.000000
2.558024 -0.516302 0.187101 54.000000
2.565230 -0.525953 0.187623 71.000000
2.566536 -0.534432 0.187798 46.000000
2.568791 -0.543130 0.188030 56.000000
2.569065 -0.551427 0.188146 48.000000
2.570287 -0.559945 0.188320 67.000000
2.571481 -0.568474 0.188495 54.000000
2.570699 -0.576579 0.188553 50.000000
2.566971 -0.584020 0.188437 52.000000
