ply
format ascii 1.0
element vertex 1293
property float x
property float y
property float z
property float intensity
end_header
2.814595 0.677454 0.665529 63.000000
2.822363 0.670172 0.666811 37.000000
2.825357 0.661733 0.667024 44.000000
2.827374 0.653062 0.667024 32.000000
2.835078 0.645689 0.668306 46.000000
2.842765 0.638274 0.669587 50.000000
2.844710 0.629550 0.669587 44.000000
2.851400 0.621862 0.670655 41.000000
2.854249 0.613317 0.670868 25.000000
2.848472 0.602935 0.669160 30.000000
2.857002 0.595592 0.670655 37.000000
2.846377 0.584265 0.667879 19.000000
2.847198 0.575336 0.667665 29.000000
2.851824 0.567171 0.668306 28.000000
2.863138 0.560299 0.670441 12.000000
2.690558 0.917648 0.618010 18.000000
2.717489 0.917532 0.623251 39.000000
2.719363 0.908880 0.623050 45.000000
2.725858 0.901763 0.623856 39.000000
2.726750 0.892787 0.623453 26.000000
2.735067 0.886228 0.624663 40.000000
2.736840 0.877534 0.624461 39.000000
2.742321 0.870021 0.625066 43.000000
2.745912 0.861897 0.625267 48.000000
2.752285 0.854630 0.626074 39.000000
2.756766 0.846757 0.626477 46.000000
2.763100 0.839434 0.627283 42.000000
2.766600 0.831234 0.627485 44.000000
2.769138 0.822743 0.627485 58.000000
2.768829 0.813415 0.626880 51.000000
2.771312 0.804917 0.626880 41.000000
2.773768 0.796411 0.626880 43.000000
2.776199 0.787897 0.626880 56.000000
2.778603 0.779376 0.626880 49.000000
2.778149 0.770064 0.626275 39.000000
2.786167 0.763088 0.627485 54.000000
2.791331 0.755304 0.628090 51.000000
2.791743 0.746231 0.627687 53.000000
2.790231 0.736663 0.626880 51.000000
2.785843 0.726370 0.625469 45.000000
2.787110 0.717576 0.625267 53.000000
2.790247 0.709263 0.625469 40.000000
2.796211 0.701652 0.626275 32.000000
2.797400 0.692835 0.626074 50.000000
2.798560 0.684017 0.625872 54.000000
2.803502 0.676117 0.626477 46.000000
2.810328 0.668645 0.627485 41.000000
2.815227 0.660691 0.628090 55.000000
2.818195 0.652272 0.628291 55.000000
2.823047 0.644276 0.628896 51.000000
2.829789 0.636686 0.629904 42.000000
2.839379 0.629697 0.631517 49.000000
2.844168 0.621610 0.632122 52.000000
2.845104 0.612675 0.631920 44.000000
2.845054 0.603538 0.631517 40.000000
2.850728 0.595607 0.632323 46.000000
2.851582 0.586661 0.632122 47.000000
2.852409 0.577716 0.631920 47.000000
2.852247 0.568579 0.631517 37.000000
2.859744 0.560956 0.632726 35.000000
2.855682 0.551067 0.631517 46.000000
2.864095 0.543581 0.632928 37.000000
2.862860 0.534253 0.632323 32.000000
2.858706 0.524408 0.631114 30.000000
2.709965 0.932178 0.589141 21.000000
2.724892 0.927978 0.591617 36.000000
2.724005 0.918358 0.590855 34.000000
2.722155 0.908441 0.589903 38.000000
2.722133 0.899160 0.589331 34.000000
2.720214 0.889278 0.588379 38.000000
2.721061 0.880323 0.587998 43.000000
2.726554 0.872870 0.588569 39.000000
2.727348 0.863907 0.588188 51.000000
2.731858 0.856123 0.588569 45.000000
2.735409 0.848029 0.588760 51.000000
2.739876 0.840209 0.589141 41.000000
2.745258 0.832656 0.589712 49.000000
2.750620 0.825077 0.590284 42.000000
2.750316 0.815795 0.589712 44.000000
2.752805 0.807354 0.589712 57.000000
2.758098 0.799726 0.590284 45.000000
2.763369 0.792073 0.590855 35.000000
2.766730 0.783859 0.591045 38.000000
2.773848 0.776693 0.591998 29.000000
2.779056 0.768966 0.592569 46.000000
2.783296 0.760954 0.592950 47.000000
2.791303 0.753950 0.594093 41.000000
2.794552 0.745636 0.594283 24.000000
2.790182 0.735305 0.592950 47.000000
2.790525 0.726247 0.592569 44.000000
2.789887 0.716948 0.591998 40.000000
2.791122 0.708143 0.591807 43.000000
2.798043 0.700771 0.592760 55.000000
2.801132 0.692420 0.592950 35.000000
2.805151 0.684289 0.593331 46.000000
2.809146 0.676140 0.593712 61.000000
2.815027 0.668427 0.594474 39.000000
2.821843 0.660909 0.595426 48.000000
2.826727 0.652912 0.595998 46.000000
2.826802 0.643800 0.595617 47.000000
2.827807 0.634909 0.595426 38.000000
2.835492 0.627506 0.596569 35.000000
2.836444 0.618594 0.596378 39.000000
2.841208 0.610509 0.596950 43.000000
2.844028 0.601993 0.597140 43.000000
2.844901 0.593064 0.596950 40.000000
2.851514 0.585322 0.597902 55.000000
2.858107 0.577545 0.598855 37.000000
2.860829 0.568966 0.599045 44.000000
2.866414 0.560942 0.599807 43.000000
2.866194 0.551773 0.599426 44.000000
2.867873 0.542977 0.599426 37.000000
2.869526 0.534176 0.599426 27.000000
2.869220 0.525016 0.599045 29.000000
2.868885 0.515863 0.598664 37.000000
2.869487 0.506887 0.598474 30.000000
2.870061 0.497913 0.598283 27.000000
2.887058 0.491749 0.601331 11.000000
2.700289 0.967450 0.554064 34.000000
2.709736 0.961463 0.555315 32.000000
2.719171 0.955428 0.556565 44.000000
2.721160 0.946758 0.556387 36.000000
2.720330 0.937124 0.555672 40.000000
2.724124 0.929091 0.555851 46.000000
2.726029 0.920414 0.555672 29.000000
2.727907 0.911735 0.555493 27.000000
2.728823 0.902744 0.555136 45.000000
2.726904 0.892837 0.554243 45.000000
2.724950 0.882951 0.553350 34.000000
2.732331 0.876089 0.554243 45.000000
2.733130 0.867107 0.553886 48.000000
2.737655 0.859307 0.554243 56.000000
2.738400 0.850321 0.553886 46.000000
2.740995 0.841915 0.553886 58.000000
2.745448 0.834074 0.554243 52.000000
2.752706 0.827062 0.555136 52.000000
2.754287 0.818333 0.554958 49.000000
2.755841 0.809602 0.554779 57.000000
2.756422 0.800594 0.554422 49.000000
2.763594 0.793491 0.555315 51.000000
2.769801 0.786083 0.556029 57.000000
2.774095 0.778113 0.556387 47.000000
2.777417 0.769861 0.556565 41.000000
2.784511 0.762635 0.557458 52.000000
2.788737 0.754603 0.557816 30.000000
2.793891 0.746805 0.558352 56.000000
2.795218 0.737979 0.558173 46.000000
2.797468 0.729400 0.558173 61.000000
2.798740 0.720569 0.557994 43.000000
2.799031 0.711495 0.557637 44.000000
2.800246 0.702664 0.557458 50.000000
2.807164 0.695252 0.558352 79.000000
2.805460 0.685703 0.557637 43.000000
2.804682 0.676401 0.557101 40.000000
2.808658 0.668248 0.557458 49.000000
2.811653 0.659853 0.557637 55.000000
2.807912 0.649893 0.556565 28.000000
2.820445 0.643682 0.558530 44.000000
2.823366 0.635242 0.558709 56.000000
2.827223 0.627003 0.559066 43.000000
2.831056 0.618746 0.559423 59.000000
2.835827 0.610679 0.559959 62.000000
2.837687 0.601976 0.559959 47.000000
2.840483 0.593468 0.560138 47.000000
2.842291 0.584751 0.560138 58.000000
2.845036 0.576223 0.560317 50.000000
2.845825 0.567300 0.560138 50.000000
2.852380 0.559513 0.561031 44.000000
2.852151 0.550386 0.560674 40.000000
2.854793 0.541817 0.560852 44.000000
2.862245 0.534138 0.561924 48.000000
2.865806 0.525709 0.562281 39.000000
2.867405 0.516915 0.562281 49.000000
2.872853 0.508801 0.562996 35.000000
2.875370 0.500153 0.563175 43.000000
2.883680 0.492488 0.564425 48.000000
2.887118 0.483964 0.564782 41.000000
2.888589 0.475104 0.564782 45.000000
2.901690 0.468119 0.566926 24.000000
2.898253 0.458446 0.566033 14.000000
2.681267 0.996540 0.517837 35.000000
2.684311 0.988309 0.517837 48.000000
2.683626 0.978716 0.517169 33.000000
2.686616 0.970478 0.517169 35.000000
2.689581 0.962231 0.517169 35.000000
2.694379 0.954635 0.517503 40.000000
2.702876 0.948325 0.518504 37.000000
2.708567 0.941000 0.519005 42.000000
2.711441 0.932686 0.519005 40.000000
2.716156 0.924999 0.519339 41.000000
2.718047 0.916346 0.519172 44.000000
2.721781 0.908316 0.519339 52.000000
2.727363 0.900890 0.519840 45.000000
2.725429 0.890985 0.519005 46.000000
2.727211 0.882315 0.518838 44.000000
2.734600 0.875449 0.519673 32.000000
2.735393 0.866459 0.519339 40.000000
2.738979 0.858358 0.519506 54.000000
2.741600 0.849951 0.519506 37.000000
2.737597 0.839510 0.518338 47.000000
2.739216 0.830820 0.518171 33.000000
2.742696 0.822696 0.518338 35.000000
2.742372 0.813436 0.517837 45.000000
2.745801 0.805296 0.518004 43.000000
2.748258 0.796868 0.518004 41.000000
2.750690 0.788433 0.518004 58.000000
2.757839 0.781336 0.518838 40.000000
2.765919 0.774469 0.519840 45.000000
2.771132 0.766770 0.520341 46.000000
2.778227 0.759566 0.521176 42.000000
2.778640 0.750524 0.520842 38.000000
2.780930 0.741996 0.520842 32.000000
2.783193 0.733461 0.520842 46.000000
2.785430 0.724919 0.520842 30.000000
2.784777 0.715632 0.520341 44.000000
2.786959 0.707085 0.520341 52.000000
2.786246 0.697812 0.519840 37.000000
2.793159 0.690445 0.520675 38.000000
2.798138 0.682575 0.521176 51.000000
2.802136 0.674450 0.521509 60.000000
2.805151 0.666078 0.521676 48.000000
2.808141 0.657694 0.521843 51.000000
2.807264 0.648408 0.521342 38.000000
2.809240 0.639793 0.521342 40.000000
2.812151 0.631388 0.521509 41.000000
2.816963 0.623397 0.522010 34.000000
2.820789 0.615173 0.522344 48.000000
2.822663 0.606516 0.522344 47.000000
2.825475 0.598058 0.522511 43.000000
2.832122 0.590395 0.523346 35.000000
2.836818 0.582299 0.523847 37.000000
2.839557 0.573789 0.524014 35.000000
2.839370 0.564689 0.523680 35.000000
2.843024 0.556355 0.524014 42.000000
2.846654 0.548003 0.524347 37.000000
2.851228 0.539819 0.524848 38.000000
2.857717 0.531973 0.525683 44.000000
2.863214 0.523915 0.526351 30.000000
2.864808 0.515128 0.526351 33.000000
2.863463 0.505821 0.525850 36.000000
2.865001 0.497033 0.525850 37.000000
2.871372 0.489071 0.526685 39.000000
2.870914 0.479934 0.526351 38.000000
2.878210 0.472083 0.527352 42.000000
2.883539 0.463879 0.528020 34.000000
2.888844 0.455646 0.528688 31.000000
2.896074 0.447687 0.529689 39.000000
2.898409 0.438948 0.529856 29.000000
2.893890 0.429184 0.528855 28.000000
2.656885 1.034997 0.480724 31.000000
2.656361 1.025418 0.480104 29.000000
2.664108 1.019028 0.480879 44.000000
2.669994 1.011900 0.481343 53.000000
2.673085 1.003703 0.481343 42.000000
2.675226 0.995154 0.481188 45.000000
2.681048 0.987966 0.481653 39.000000
2.685922 0.980413 0.481963 32.000000
2.685201 0.970825 0.481343 58.000000
2.692818 0.964247 0.482118 59.000000
2.694832 0.955651 0.481963 55.000000
2.700548 0.948361 0.482427 49.000000
2.707177 0.941368 0.483047 50.000000
2.710053 0.933058 0.483047 53.000000
2.712903 0.924740 0.483047 44.000000
2.714791 0.916097 0.482892 44.000000
2.715714 0.907138 0.482582 58.000000
2.721299 0.899732 0.483047 62.000000
2.723107 0.891071 0.482892 57.000000
2.724888 0.882409 0.482737 54.000000
2.729464 0.874647 0.483047 61.000000
2.731193 0.865971 0.482892 50.000000
2.734780 0.857883 0.483047 37.000000
2.739286 0.850074 0.483357 48.000000
2.743770 0.842246 0.483666 45.000000
2.746341 0.833824 0.483666 46.000000
2.749832 0.825679 0.483821 47.000000
2.752353 0.817238 0.483821 47.000000
2.754847 0.808790 0.483821 46.000000
2.758264 0.800610 0.483976 47.000000
2.762607 0.792689 0.484286 45.000000
2.762174 0.783401 0.483821 63.000000
2.767418 0.775723 0.484286 45.000000
2.770737 0.767492 0.484441 44.000000
2.773079 0.758988 0.484441 56.000000
2.771580 0.749446 0.483821 47.000000
2.775775 0.741449 0.484131 64.000000
2.773260 0.731670 0.483357 52.000000
2.777404 0.723656 0.483666 69.000000
2.779611 0.715132 0.483666 50.000000
2.780835 0.706358 0.483512 40.000000
2.783947 0.698063 0.483666 57.000000
2.792788 0.691179 0.484751 58.000000
2.792976 0.682139 0.484441 54.000000
2.800819 0.674955 0.485370 65.000000
2.800954 0.665903 0.485060 53.000000
2.802022 0.657081 0.484906 51.000000
2.804987 0.648704 0.485060 57.000000
2.806001 0.639876 0.484906 53.000000
2.806987 0.631047 0.484751 50.000000
2.809875 0.622646 0.484906 51.000000
2.811771 0.614023 0.484906 61.000000
2.813642 0.605394 0.484906 50.000000
2.822252 0.598192 0.485990 62.000000
2.827942 0.590337 0.486609 51.000000
2.830707 0.581857 0.486764 56.000000
2.837321 0.574149 0.487539 61.000000
2.837131 0.565056 0.487229 56.000000
2.840790 0.556729 0.487539 62.000000
2.847336 0.548945 0.488313 50.000000
2.849006 0.540207 0.488313 56.000000
2.851621 0.531645 0.488468 42.000000
2.853239 0.522894 0.488468 41.000000
2.853858 0.513963 0.488313 55.000000
2.857367 0.505549 0.488623 61.000000
2.858904 0.496780 0.488623 76.000000
2.857493 0.487509 0.488158 60.000000
2.858975 0.478740 0.488158 63.000000
2.862381 0.470286 0.488468 68.000000
2.867711 0.462131 0.489087 66.000000
2.875946 0.454409 0.490172 49.000000
2.878303 0.445735 0.490326 45.000000
2.883564 0.437494 0.490946 36.000000
2.887825 0.429081 0.491411 41.000000
2.890105 0.420361 0.491566 47.000000
2.893337 0.411770 0.491875 41.000000
2.893609 0.402756 0.491720 34.000000
2.898746 0.394409 0.492340 31.000000
2.887211 0.383823 0.490326 9.000000
2.642415 1.066551 0.445543 35.000000
2.646593 1.058807 0.445686 24.000000
2.645229 1.048857 0.444972 33.000000
2.644751 1.039287 0.444400 39.000000
2.646083 1.030449 0.444114 49.000000
2.652001 1.023396 0.444543 41.000000
2.652356 1.014193 0.444114 33.000000
2.660082 1.007807 0.444829 58.000000
2.667793 1.001382 0.445543 38.000000
2.671781 0.993538 0.445686 64.000000
2.680387 0.987391 0.446544 54.000000
2.683404 0.979163 0.446544 34.000000
2.686396 0.970926 0.446544 49.000000
2.688430 0.962346 0.446401 43.000000
2.686706 0.952438 0.445686 38.000000
2.689615 0.944191 0.445686 41.000000
2.695304 0.936911 0.446115 44.000000
2.694423 0.927347 0.445543 33.000000
2.698192 0.919396 0.445686 43.000000
2.703813 0.912064 0.446115 58.000000
2.709414 0.904706 0.446544 50.000000
2.720633 0.899188 0.447831 58.000000
2.726201 0.891761 0.448260 47.000000
2.725158 0.882173 0.447688 41.000000
2.725967 0.873203 0.447402 41.000000
2.727690 0.864536 0.447259 49.000000
2.728441 0.855571 0.446973 42.000000
2.731053 0.847196 0.446973 44.000000
2.727962 0.837069 0.446115 45.000000
2.732412 0.829271 0.446401 49.000000
2.736839 0.821454 0.446687 49.000000
2.741243 0.813618 0.446973 48.000000
2.740878 0.804367 0.446544 57.000000
2.749035 0.797611 0.447402 54.000000
2.754323 0.789993 0.447831 52.000000
2.759590 0.782351 0.448260 55.000000
2.763883 0.774415 0.448546 49.000000
2.766246 0.765932 0.448546 49.000000
2.770492 0.757965 0.448832 41.000000
2.771849 0.749203 0.448689 35.000000
2.771266 0.739929 0.448260 39.000000
2.767781 0.729906 0.447402 48.000000
2.771923 0.721911 0.447688 49.000000
2.775084 0.713651 0.447831 58.000000
2.780137 0.705865 0.448260 47.000000
2.787090 0.698538 0.448975 55.000000
2.791141 0.690460 0.449261 57.000000
2.795169 0.682364 0.449547 48.000000
2.796287 0.673553 0.449404 33.000000
2.796415 0.664512 0.449118 54.000000
2.797477 0.655704 0.448975 42.000000
2.797547 0.646671 0.448689 40.000000
2.797588 0.637645 0.448403 42.000000
2.805324 0.630363 0.449261 45.000000
2.810144 0.622397 0.449690 33.000000
2.813974 0.614196 0.449976 49.000000
2.818748 0.606185 0.450405 45.000000
2.823498 0.598151 0.450834 36.000000
2.828226 0.590093 0.451262 56.000000
2.830993 0.581613 0.451405 52.000000
2.839554 0.574301 0.452406 29.000000
2.837420 0.564812 0.451834 46.000000
2.842053 0.556677 0.452263 37.000000
2.848607 0.548893 0.452978 36.000000
2.850277 0.540151 0.452978 39.000000
2.851921 0.531404 0.452978 41.000000
2.858405 0.523545 0.453693 25.000000
2.853180 0.513543 0.452692 39.000000
2.852793 0.504442 0.452406 33.000000
2.855302 0.495857 0.452549 41.000000
2.853883 0.486595 0.452120 52.000000
2.858291 0.478328 0.452549 48.000000
2.859745 0.469557 0.452549 40.000000
2.866058 0.461570 0.453264 48.000000
2.870393 0.453239 0.453693 41.000000
2.874704 0.444886 0.454122 40.000000
2.882905 0.437106 0.455123 40.000000
2.892063 0.429425 0.456267 40.000000
2.892388 0.420408 0.456124 41.000000
2.898563 0.412231 0.456838 35.000000
2.901775 0.403609 0.457124 49.000000
2.898096 0.394036 0.456410 24.000000
2.901253 0.385405 0.456695 32.000000
2.898496 0.375991 0.456124 35.000000
2.889818 0.365850 0.454694 32.000000
2.872264 0.354670 0.451977 17.000000
2.632771 1.081831 0.410340 38.000000
2.636077 1.073749 0.410340 43.000000
2.643036 1.067141 0.410864 45.000000
2.647218 1.059395 0.410995 39.000000
2.651378 1.051634 0.411126 30.000000
2.657360 1.044582 0.411519 41.000000
2.657781 1.035346 0.411126 41.000000
2.658170 1.026116 0.410733 38.000000
2.657601 1.016540 0.410209 48.000000
2.656999 1.006977 0.409685 44.000000
2.661004 0.999169 0.409816 51.000000
2.666845 0.992037 0.410209 43.000000
2.669876 0.983851 0.410209 57.000000
2.673813 0.975995 0.410340 55.000000
2.679592 0.968798 0.410733 61.000000
2.682551 0.960572 0.410733 49.000000
2.685486 0.952338 0.410733 54.000000
2.686524 0.943438 0.410471 52.000000
2.690342 0.935517 0.410602 46.000000
2.691325 0.926613 0.410340 47.000000
2.693216 0.918032 0.410209 39.000000
2.696959 0.910082 0.410340 61.000000
2.703501 0.903060 0.410864 42.000000
2.708141 0.895383 0.411126 43.000000
2.714644 0.888303 0.411650 53.000000
2.712641 0.878444 0.410995 54.000000
2.716267 0.870420 0.411126 57.000000
2.721760 0.862981 0.411519 57.000000
2.725341 0.854924 0.411650 66.000000
2.724163 0.845384 0.411126 53.000000
2.723901 0.836150 0.410733 53.000000
2.726453 0.827789 0.410733 53.000000
2.733727 0.820845 0.411388 48.000000
2.737183 0.812736 0.411519 49.000000
2.739664 0.804335 0.411519 43.000000
2.744975 0.796755 0.411912 53.000000
2.750265 0.789149 0.412305 52.000000
2.758396 0.782330 0.413092 50.000000
2.758874 0.773329 0.412830 49.000000
2.763145 0.765390 0.413092 58.000000
2.768349 0.757694 0.413485 45.000000
2.770660 0.749198 0.413485 51.000000
2.774861 0.741205 0.413747 57.000000
2.775205 0.732183 0.413485 51.000000
2.777438 0.723665 0.413485 64.000000
2.783486 0.716128 0.414009 49.000000
2.783748 0.707098 0.413747 58.000000
2.786866 0.698795 0.413878 51.000000
2.790921 0.690718 0.414140 46.000000
2.793027 0.682152 0.414140 48.000000
2.794143 0.673348 0.414009 41.000000
2.797160 0.665001 0.414140 59.000000
2.797257 0.655964 0.413878 67.000000
2.800222 0.647603 0.414009 55.000000
2.801229 0.638788 0.413878 49.000000
2.803176 0.630191 0.413878 57.000000
2.805096 0.621588 0.413878 36.000000
2.813770 0.614459 0.414795 47.000000
2.819519 0.606657 0.415319 50.000000
2.827186 0.599237 0.416106 46.000000
2.831923 0.591168 0.416499 62.000000
2.832752 0.582277 0.416368 58.000000
2.833553 0.573387 0.416237 49.000000
2.831409 0.563917 0.415713 32.000000
2.835072 0.555609 0.415975 41.000000
2.834816 0.546533 0.415713 56.000000
2.832584 0.537095 0.415188 51.000000
2.836167 0.528766 0.415451 69.000000
2.841677 0.520776 0.415975 62.000000
2.845212 0.512407 0.416237 51.000000
2.848724 0.504021 0.416499 49.000000
2.856117 0.496296 0.417285 67.000000
2.862513 0.488364 0.417940 63.000000
2.869864 0.480562 0.418727 46.000000
2.873282 0.472076 0.418989 61.000000
2.875695 0.463416 0.419120 58.000000
2.879062 0.454901 0.419382 52.000000
2.881423 0.446217 0.419513 39.000000
2.881799 0.437227 0.419382 47.000000
2.883127 0.428383 0.419382 61.000000
2.886389 0.419821 0.419644 43.000000
2.891590 0.411522 0.420168 59.000000
2.896767 0.403195 0.420692 68.000000
2.901919 0.394840 0.421216 54.000000
2.904100 0.386066 0.421348 36.000000
2.914119 0.378302 0.422527 41.000000
2.919200 0.369857 0.423051 51.000000
2.919337 0.360778 0.422920 46.000000
2.923383 0.352176 0.423313 37.000000
2.927403 0.343551 0.423706 42.000000
2.933369 0.335131 0.424362 39.000000
2.942266 0.327005 0.425410 26.000000
2.638725 1.046805 0.374304 46.000000
2.642848 1.039068 0.374423 54.000000
2.646948 1.031316 0.374541 35.000000
2.652879 1.024264 0.374898 53.000000
2.657863 1.016831 0.375136 42.000000
2.660041 1.008319 0.375017 42.000000
2.666840 1.001552 0.375493 43.000000
2.672691 0.994405 0.375850 51.000000
2.679456 0.987576 0.376325 40.000000
2.687135 0.981055 0.376920 37.000000
2.683598 0.970440 0.376087 52.000000
2.685627 0.961867 0.375969 38.000000
2.691373 0.954620 0.376325 51.000000
2.689606 0.944712 0.375731 40.000000
2.687803 0.934823 0.375136 57.000000
2.689720 0.926249 0.375017 60.000000
2.689730 0.917030 0.374660 44.000000
2.690649 0.908138 0.374423 66.000000
2.695306 0.900509 0.374660 51.000000
2.698056 0.892235 0.374660 62.000000
2.699837 0.883644 0.374541 69.000000
2.700646 0.874745 0.374304 72.000000
2.701427 0.865848 0.374066 60.000000
2.709748 0.859360 0.374779 58.000000
2.716161 0.852233 0.375255 60.000000
2.717814 0.843601 0.375136 52.000000
2.721339 0.835550 0.375255 66.000000
2.727689 0.828353 0.375731 49.000000
2.734021 0.821125 0.376206 56.000000
2.738431 0.813299 0.376444 55.000000
2.740913 0.804894 0.376444 68.000000
2.740509 0.795650 0.376087 54.000000
2.744846 0.787787 0.376325 65.000000
2.745340 0.778819 0.376087 57.000000
2.745804 0.769856 0.375850 54.000000
2.747197 0.761163 0.375731 49.000000
2.751434 0.753256 0.375969 59.000000
2.752774 0.744552 0.375850 47.000000
2.760800 0.737643 0.376563 53.000000
2.764970 0.729677 0.376801 60.000000
2.767195 0.721191 0.376801 37.000000
2.770356 0.712946 0.376920 52.000000
2.776380 0.705423 0.377396 58.000000
2.780457 0.697385 0.377634 73.000000
2.782583 0.688852 0.377634 48.000000
2.783719 0.680076 0.377515 65.000000
2.783862 0.671066 0.377277 64.000000
2.785908 0.662522 0.377277 67.000000
2.786961 0.653745 0.377158 66.000000
2.787986 0.644967 0.377039 59.000000
2.788984 0.636189 0.376920 58.000000
2.792860 0.628066 0.377158 61.000000
2.797681 0.620141 0.377515 48.000000
2.803450 0.612404 0.377990 58.000000
2.811139 0.605056 0.378704 70.000000
2.817838 0.597461 0.379298 60.000000
2.819658 0.588813 0.379298 60.000000
2.827286 0.581362 0.380012 50.000000
2.830030 0.572882 0.380131 47.000000
2.830800 0.564003 0.380012 50.000000
2.830569 0.554933 0.379774 49.000000
2.830308 0.545869 0.379536 42.000000
2.830994 0.536998 0.379417 56.000000
2.837508 0.529222 0.380012 48.000000
2.836189 0.519976 0.379655 64.000000
2.840702 0.511801 0.380012 39.000000
2.849102 0.504298 0.380844 39.000000
2.855527 0.496407 0.381439 49.000000
2.861930 0.488481 0.382034 44.000000
2.866353 0.480192 0.382390 45.000000
2.869772 0.471719 0.382628 47.000000
2.876106 0.463705 0.383223 54.000000
2.877515 0.454879 0.383223 57.000000
2.878897 0.446048 0.383223 47.000000
2.880252 0.437214 0.383223 36.000000
2.883544 0.428668 0.383461 45.000000
2.885828 0.419963 0.383580 44.000000
2.886120 0.410967 0.383461 45.000000
2.888351 0.402248 0.383580 42.000000
2.891539 0.393653 0.383818 44.000000
2.898638 0.385568 0.384531 42.000000
2.902761 0.377059 0.384888 44.000000
2.907844 0.368652 0.385364 68.000000
2.908961 0.359729 0.385364 42.000000
2.913008 0.351161 0.385720 49.000000
2.917030 0.342571 0.386077 43.000000
2.926945 0.334638 0.387147 33.000000
2.917104 0.324446 0.385839 43.000000
2.920060 0.315709 0.386077 31.000000
2.918052 0.306436 0.385720 35.000000
2.918979 0.297482 0.385720 30.000000
2.661456 1.018544 0.340537 59.000000
2.661779 1.009316 0.340217 39.000000
2.667656 1.002194 0.340537 30.000000
2.671650 0.994352 0.340644 48.000000
2.672822 0.985463 0.340430 48.000000
2.678635 0.978281 0.340751 37.000000
2.681623 0.970059 0.340751 33.000000
2.680843 0.960486 0.340324 43.000000
2.683777 0.952257 0.340324 51.000000
2.684809 0.943360 0.340110 58.000000
2.685813 0.934465 0.339896 49.000000
2.688667 0.926221 0.339896 64.000000
2.689614 0.917326 0.339683 68.000000
2.690531 0.908434 0.339469 46.000000
2.698021 0.901751 0.340003 57.000000
2.704551 0.894718 0.340430 58.000000
2.709173 0.887035 0.340644 62.000000
2.709990 0.878106 0.340430 56.000000
2.712671 0.869788 0.340430 60.000000
2.719118 0.862663 0.340857 52.000000
2.720803 0.854020 0.340751 61.000000
2.724360 0.845963 0.340857 43.000000
2.725042 0.837017 0.340644 49.000000
2.726645 0.828364 0.340537 57.000000
2.733935 0.821425 0.341071 60.000000
2.736442 0.813033 0.341071 59.000000
2.738924 0.804634 0.341071 54.000000
2.739470 0.795673 0.340857 67.000000
2.739987 0.786716 0.340644 47.000000
2.743344 0.778578 0.340751 55.000000
2.746677 0.770426 0.340857 52.000000
2.748070 0.761730 0.340751 65.000000
2.750393 0.753296 0.340751 42.000000
2.748852 0.743816 0.340324 37.000000
2.758806 0.737432 0.341178 46.000000
2.764901 0.729979 0.341605 61.000000
2.769052 0.721995 0.341819 53.000000
2.774143 0.714239 0.342139 53.000000
2.781139 0.706949 0.342673 54.000000
2.788117 0.699623 0.343207 47.000000
2.791216 0.691305 0.343313 59.000000
2.793323 0.682738 0.343313 64.000000
2.796371 0.674398 0.343420 51.000000
2.799395 0.666046 0.343527 48.000000
2.799489 0.657000 0.343313 46.000000
2.804397 0.649080 0.343634 56.000000
2.801529 0.639368 0.343100 56.000000
2.805417 0.631206 0.343313 40.000000
2.808311 0.622812 0.343420 49.000000
2.812151 0.614617 0.343634 53.000000
2.817912 0.606823 0.344061 50.000000
2.819760 0.598175 0.344061 50.000000
2.816716 0.588506 0.343527 54.000000
2.822404 0.580662 0.343954 60.000000
2.824172 0.572000 0.343954 52.000000
2.825913 0.563333 0.343954 55.000000
2.827628 0.554661 0.343954 52.000000
2.832246 0.546548 0.344275 46.000000
2.835863 0.538227 0.344488 49.000000
2.841411 0.530253 0.344915 47.000000
2.841068 0.521175 0.344702 54.000000
2.840697 0.512103 0.344488 50.000000
2.844213 0.503732 0.344702 37.000000
2.844765 0.494834 0.344595 41.000000
2.848230 0.486438 0.344808 63.000000
2.854612 0.478519 0.345342 63.000000
2.864897 0.471210 0.346303 65.000000
2.871237 0.463210 0.346837 57.000000
2.874609 0.454709 0.347051 53.000000
2.879920 0.446497 0.347478 62.000000
2.881277 0.437659 0.347478 60.000000
2.882606 0.428817 0.347478 43.000000
2.884892 0.420115 0.347585 49.000000
2.884198 0.410982 0.347371 63.000000
2.889385 0.402680 0.347798 72.000000
2.893562 0.394216 0.348119 63.000000
2.894758 0.385336 0.348119 53.000000
2.898885 0.376838 0.348439 47.000000
2.902986 0.368317 0.348760 43.000000
2.906076 0.359653 0.348973 58.000000
2.914076 0.351569 0.349721 57.000000
2.912178 0.342279 0.349400 46.000000
2.913215 0.333343 0.349400 56.000000
2.914224 0.324404 0.349400 54.000000
2.914217 0.315355 0.349293 50.000000
2.916159 0.306516 0.349400 47.000000
2.923021 0.298173 0.350041 41.000000
2.920954 0.288911 0.349721 41.000000
2.924795 0.280232 0.350041 37.000000
2.921681 0.270891 0.349614 25.000000
2.921508 0.261837 0.349507 25.000000
2.673229 0.994077 0.306788 29.000000
2.661323 0.980359 0.305268 41.000000
2.665253 0.972531 0.305363 55.000000
2.665416 0.963334 0.305079 46.000000
2.667422 0.954816 0.304984 47.000000
2.670338 0.946628 0.304984 39.000000
2.670413 0.937441 0.304699 37.000000
2.674216 0.929571 0.304794 44.000000
2.679879 0.922335 0.305079 50.000000
2.679870 0.913144 0.304794 67.000000
2.688317 0.906830 0.305363 52.000000
2.691087 0.898578 0.305363 65.000000
2.696666 0.891256 0.305648 59.000000
2.701280 0.883598 0.305838 49.000000
2.702084 0.874693 0.305648 50.000000
2.705703 0.866703 0.305743 56.000000
2.709298 0.858699 0.305838 65.000000
2.710020 0.849786 0.305648 57.000000
2.715466 0.842354 0.305933 63.000000
2.716135 0.833434 0.305743 64.000000
2.720584 0.825676 0.305933 51.000000
2.723104 0.817326 0.305933 57.000000
2.722736 0.808117 0.305648 48.000000
2.730933 0.801444 0.306218 55.000000
2.730511 0.792229 0.305933 58.000000
2.730058 0.783023 0.305648 46.000000
2.733406 0.774916 0.305743 48.000000
2.733853 0.765988 0.305553 55.000000
2.740027 0.758661 0.305933 45.000000
2.740422 0.749725 0.305743 58.000000
2.740787 0.740794 0.305553 58.000000
2.746894 0.733411 0.305933 60.000000
2.752018 0.725743 0.306218 68.000000
2.760012 0.718804 0.306788 60.000000
2.764132 0.710829 0.306978 40.000000
2.765335 0.702101 0.306883 48.000000
2.772303 0.694825 0.307358 66.000000
2.772490 0.685838 0.307168 53.000000
2.775548 0.677565 0.307263 57.000000
2.777613 0.669047 0.307263 60.000000
2.776748 0.659830 0.306978 50.000000
2.784574 0.652674 0.307548 46.000000
2.785593 0.643903 0.307453 52.000000
2.787555 0.635354 0.307453 64.000000
2.791434 0.627236 0.307643 45.000000
2.794317 0.618885 0.307738 46.000000
2.797175 0.610522 0.307833 57.000000
2.799035 0.601937 0.307833 50.000000
2.801842 0.593554 0.307928 48.000000
2.806573 0.585566 0.308213 48.000000
2.808357 0.576953 0.308213 42.000000
2.810113 0.568335 0.308213 52.000000
2.815749 0.560489 0.308593 45.000000
2.817455 0.551848 0.308593 40.000000
2.821090 0.543579 0.308783 50.000000
2.823722 0.535108 0.308878 44.000000
2.824372 0.526259 0.308783 46.000000
2.828911 0.518131 0.309068 56.000000
2.832446 0.509803 0.309258 43.000000
2.834977 0.501284 0.309352 61.000000
2.839444 0.493097 0.309637 41.000000
2.848793 0.485725 0.310397 35.000000
2.853215 0.477477 0.310682 42.000000
2.861543 0.469853 0.311347 60.000000
2.865919 0.461547 0.311632 64.000000
2.873221 0.453687 0.312202 38.000000
2.873616 0.444717 0.312107 52.000000
2.872998 0.435600 0.311917 43.000000
2.875305 0.426930 0.312012 56.000000
2.873646 0.417676 0.311727 54.000000
2.875900 0.408998 0.311822 48.000000
2.879113 0.400448 0.312012 44.000000
2.885260 0.392286 0.312487 40.000000
2.887436 0.383564 0.312582 47.000000
2.888599 0.374703 0.312582 54.000000
2.894673 0.366467 0.313057 57.000000
2.900724 0.358196 0.313531 41.000000
2.902797 0.349414 0.313626 58.000000
2.905833 0.340740 0.313816 45.000000
2.906865 0.331823 0.313816 40.000000
2.908858 0.323014 0.313911 45.000000
2.915774 0.314731 0.314481 42.000000
2.911776 0.305264 0.314006 45.000000
2.908737 0.295924 0.313626 46.000000
2.906659 0.286705 0.313341 45.000000
2.910498 0.278071 0.313626 49.000000
2.916293 0.269601 0.314101 27.000000
2.915124 0.260474 0.313911 42.000000
2.917893 0.251702 0.314101 48.000000
2.922619 0.243080 0.314481 42.000000
2.917398 0.233633 0.313911 31.000000
2.915123 0.224451 0.313626 18.000000
2.916791 0.215580 0.313721 8.000000
2.681413 0.960690 0.270548 30.000000
2.676834 0.949794 0.269889 59.000000
2.676914 0.940587 0.269641 57.000000
2.682611 0.933352 0.269889 58.000000
2.682635 0.924144 0.269641 53.000000
2.685458 0.915909 0.269641 43.000000
2.691088 0.908622 0.269889 50.000000
2.691972 0.899730 0.269724 46.000000
2.696613 0.892093 0.269889 60.000000
2.700284 0.884125 0.269971 45.000000
2.700139 0.874916 0.269724 59.000000
2.703760 0.866932 0.269806 54.000000
2.707357 0.858934 0.269889 45.000000
2.703323 0.848536 0.269311 39.000000
2.709721 0.841419 0.269641 59.000000
2.713242 0.833395 0.269724 41.000000
2.716740 0.825356 0.269806 64.000000
2.719259 0.817017 0.269806 62.000000
2.722708 0.808955 0.269889 61.000000
2.728046 0.801440 0.270136 56.000000
2.735277 0.794456 0.270548 56.000000
2.736744 0.785786 0.270466 61.000000
2.740101 0.777658 0.270548 55.000000
2.746312 0.770324 0.270878 61.000000
2.753464 0.763225 0.271290 48.000000
2.757715 0.755300 0.271455 54.000000
2.756171 0.745795 0.271125 51.000000
2.753633 0.736050 0.270713 56.000000
2.756841 0.727853 0.270796 49.000000
2.757133 0.718889 0.270631 57.000000
2.757395 0.709930 0.270466 49.000000
2.754730 0.700240 0.270054 51.000000
2.755899 0.691543 0.269971 51.000000
2.760910 0.683803 0.270218 57.000000
2.767836 0.676512 0.270631 57.000000
2.772804 0.668718 0.270878 68.000000
2.774843 0.660208 0.270878 65.000000
2.783647 0.653284 0.271455 52.000000
2.789522 0.645640 0.271785 57.000000
2.790518 0.636857 0.271703 59.000000
2.795376 0.628949 0.271950 53.000000
2.793400 0.619507 0.271620 59.000000
2.795288 0.610934 0.271620 68.000000
2.797149 0.602355 0.271620 63.000000
2.798009 0.593564 0.271538 68.000000
2.804695 0.585996 0.271950 53.000000
2.806479 0.577388 0.271950 58.000000
2.810191 0.569171 0.272115 59.000000
2.811924 0.560547 0.272115 59.000000
2.813631 0.551917 0.272115 46.000000
2.819225 0.544037 0.272445 56.000000
2.818923 0.535014 0.272280 53.000000
2.821530 0.526546 0.272362 46.000000
2.826073 0.518426 0.272610 45.000000
2.829612 0.510107 0.272775 45.000000
2.836070 0.502292 0.273187 57.000000
2.838580 0.493759 0.273269 55.000000
2.844993 0.485886 0.273682 67.000000
2.851385 0.477979 0.274094 56.000000
2.855788 0.469713 0.274341 46.000000
2.860168 0.461425 0.274589 43.000000
2.864523 0.453115 0.274836 63.000000
2.868854 0.444782 0.275084 47.000000
2.875132 0.436726 0.275496 67.000000
2.873501 0.427464 0.275248 72.000000
2.874799 0.418646 0.275248 46.000000
2.883963 0.410948 0.275908 47.000000
2.888171 0.402511 0.276156 59.000000
2.888405 0.393514 0.276073 52.000000
2.892562 0.385044 0.276320 41.000000
2.889777 0.375655 0.275991 58.000000
2.891904 0.366913 0.276073 45.000000
2.894005 0.358161 0.276156 58.000000
2.891133 0.348804 0.275826 56.000000
2.893179 0.340049 0.275908 47.000000
2.898170 0.331623 0.276238 57.000000
2.901154 0.322951 0.276403 59.000000
2.907085 0.314584 0.276815 62.000000
2.910019 0.305872 0.276980 46.000000
2.911935 0.297044 0.277063 57.000000
2.915808 0.288402 0.277310 56.000000
2.916680 0.279455 0.277310 70.000000
2.922485 0.270965 0.277722 53.000000
2.924295 0.262087 0.277805 48.000000
2.922107 0.252857 0.277557 59.000000
2.924855 0.244056 0.277722 42.000000
2.931550 0.235560 0.278217 38.000000
2.935240 0.226795 0.278464 42.000000
2.936916 0.217862 0.278547 33.000000
2.934588 0.208639 0.278300 52.000000
2.946152 0.200377 0.279207 42.000000
2.986533 0.193915 0.282505 13.000000
2.665809 0.916451 0.234656 42.000000
2.667664 0.907946 0.234585 51.000000
2.668547 0.899120 0.234444 53.000000
2.676023 0.892509 0.234797 47.000000
2.678749 0.884295 0.234797 38.000000
2.681449 0.876072 0.234797 45.000000
2.685073 0.868149 0.234867 51.000000
2.687724 0.859907 0.234867 42.000000
2.697006 0.853767 0.235362 66.000000
2.699612 0.845489 0.235362 42.000000
2.704099 0.837794 0.235503 74.000000
2.708564 0.830079 0.235644 65.000000
2.711097 0.821765 0.235644 59.000000
2.718383 0.814878 0.235997 57.000000
2.719914 0.806251 0.235927 42.000000
2.718546 0.796778 0.235644 65.000000
2.721936 0.788712 0.235715 63.000000
2.721466 0.779533 0.235503 50.000000
2.725765 0.771724 0.235644 62.000000
2.730040 0.763896 0.235786 48.000000
2.734293 0.756049 0.235927 62.000000
2.737562 0.747920 0.235997 60.000000
2.742733 0.740299 0.236209 51.000000
2.744027 0.731623 0.236139 59.000000
2.748188 0.723710 0.236280 56.000000
2.754256 0.716281 0.236562 62.000000
2.759339 0.708574 0.236774 66.000000
2.762467 0.700350 0.236845 49.000000
2.767505 0.692600 0.237057 49.000000
2.767681 0.683627 0.236916 62.000000
2.771703 0.675605 0.237057 50.000000
2.773763 0.667099 0.237057 52.000000
2.777737 0.659047 0.237198 52.000000
2.779746 0.650522 0.237198 64.000000
2.782701 0.642216 0.237269 44.000000
2.784658 0.633675 0.237269 50.000000
2.783669 0.624473 0.237057 68.000000
2.786546 0.616146 0.237127 59.000000
2.787448 0.607381 0.237057 64.000000
2.789299 0.598826 0.237057 56.000000
2.792099 0.590473 0.237127 48.000000
2.797803 0.582719 0.237410 49.000000
2.808371 0.575940 0.238046 58.000000
2.813058 0.567915 0.238258 59.000000
2.814787 0.559282 0.238258 43.000000
2.822363 0.551794 0.238681 48.000000
2.826001 0.543510 0.238823 47.000000
2.829616 0.535209 0.238964 55.000000
2.833205 0.526891 0.239105 53.000000
2.832846 0.517837 0.238964 47.000000
2.838349 0.509851 0.239246 66.000000
2.843829 0.501835 0.239529 42.000000
2.843389 0.492767 0.239388 62.000000
2.845871 0.484209 0.239458 47.000000
2.852262 0.476299 0.239811 48.000000
2.853710 0.467546 0.239811 49.000000
2.857101 0.459106 0.239953 55.000000
2.858496 0.450338 0.239953 48.000000
2.861835 0.441872 0.240094 49.000000
2.866136 0.433538 0.240306 50.000000
2.867453 0.424743 0.240306 44.000000
2.866768 0.415657 0.240164 53.000000
2.870993 0.407281 0.240376 48.000000
2.876181 0.399021 0.240659 57.000000
2.879368 0.390464 0.240800 50.000000
2.881541 0.381760 0.240871 49.000000
2.883688 0.373046 0.240941 48.000000
2.884819 0.364197 0.240941 44.000000
2.886913 0.355467 0.241012 43.000000
2.886009 0.346370 0.240871 56.000000
2.888049 0.337631 0.240941 50.000000
2.891053 0.328995 0.241083 38.000000
2.896014 0.320565 0.241365 44.000000
2.898968 0.311892 0.241506 40.000000
2.903879 0.303413 0.241789 50.000000
2.908766 0.294907 0.242071 49.000000
2.911642 0.286177 0.242213 33.000000
2.918464 0.277813 0.242636 42.000000
2.923276 0.269225 0.242919 48.000000
2.928062 0.260611 0.243201 40.000000
2.929842 0.251712 0.243272 55.000000
2.934577 0.243053 0.243555 39.000000
2.938292 0.234288 0.243766 45.000000
2.938997 0.225272 0.243766 48.000000
2.941664 0.216402 0.243908 49.000000
2.945299 0.207587 0.244120 30.000000
2.944926 0.198483 0.244049 37.000000
2.953485 0.189962 0.244614 35.000000
2.947084 0.180471 0.244120 42.000000
2.948620 0.171487 0.244190 39.000000
2.946144 0.162274 0.243978 25.000000
2.929694 0.152347 0.242778 10.000000
2.690962 0.889706 0.200170 41.000000
2.689883 0.880205 0.199938 51.000000
2.702069 0.875022 0.200519 44.000000
2.707593 0.867642 0.200693 42.000000
2.707387 0.858426 0.200519 58.000000
2.711913 0.850713 0.200635 37.000000
2.711650 0.841502 0.200461 40.000000
2.716127 0.833765 0.200577 55.000000
2.716762 0.824848 0.200461 56.000000
2.720236 0.816796 0.200519 44.000000
2.718901 0.807311 0.200286 53.000000
2.724239 0.799809 0.200461 60.000000
2.721886 0.790056 0.200170 60.000000
2.725256 0.781977 0.200228 65.000000
2.728603 0.773885 0.200286 64.000000
2.730965 0.765510 0.200286 63.000000
2.735224 0.757660 0.200403 47.000000
2.741388 0.750319 0.200635 62.000000
2.743677 0.741905 0.200635 71.000000
2.751727 0.735029 0.200983 63.000000
2.748178 0.725056 0.200635 41.000000
2.749423 0.716370 0.200577 66.000000
2.755475 0.708926 0.200809 61.000000
2.754734 0.699732 0.200635 55.000000
2.757837 0.691520 0.200693 58.000000
2.762852 0.683775 0.200867 61.000000
2.766877 0.675769 0.200983 62.000000
2.774760 0.668679 0.201332 44.000000
2.776799 0.660163 0.201332 59.000000
2.777839 0.651413 0.201274 50.000000
2.780797 0.643113 0.201332 48.000000
2.779837 0.633913 0.201158 55.000000
2.775925 0.624069 0.200809 42.000000
2.781725 0.616413 0.201041 63.000000
2.784579 0.608088 0.201100 70.000000
2.787407 0.599752 0.201158 80.000000
2.791187 0.591612 0.201274 61.000000
2.798852 0.584269 0.201622 60.000000
2.804543 0.576483 0.201855 69.000000
2.810213 0.568667 0.202087 57.000000
2.810965 0.559848 0.202029 50.000000
2.815609 0.551797 0.202203 51.000000
2.823170 0.544290 0.202552 55.000000
2.824827 0.535626 0.202552 52.000000
2.826457 0.526957 0.202552 50.000000
2.830024 0.518642 0.202668 54.000000
2.835532 0.510665 0.202900 52.000000
2.838068 0.502137 0.202958 56.000000
2.841563 0.493769 0.203074 44.000000
2.846017 0.485552 0.203249 63.000000
2.851432 0.477478 0.203481 59.000000
2.854853 0.469051 0.203597 57.000000
2.856278 0.460290 0.203597 41.000000
2.857677 0.451525 0.203597 59.000000
2.861022 0.443061 0.203713 53.000000
2.863355 0.434431 0.203772 54.000000
2.864674 0.425644 0.203772 41.000000
2.863003 0.416423 0.203597 50.000000
2.863279 0.407497 0.203539 68.000000
2.867482 0.399123 0.203713 42.000000
2.872650 0.390861 0.203946 52.000000
2.875815 0.382309 0.204062 56.000000
2.881924 0.374127 0.204352 45.000000
2.885039 0.365534 0.204469 53.000000
2.886147 0.356681 0.204469 55.000000
2.891192 0.348302 0.204701 67.000000
2.891256 0.339314 0.204643 52.000000
2.892283 0.330442 0.204643 62.000000
2.895268 0.321787 0.204759 51.000000
2.897234 0.313010 0.204817 62.000000
2.901159 0.304433 0.204991 50.000000
2.905059 0.295833 0.205166 45.000000
2.908934 0.287213 0.205340 49.000000
2.910795 0.278382 0.205398 41.000000
2.911635 0.269451 0.205398 50.000000
2.917420 0.260961 0.205688 52.000000
2.922185 0.252352 0.205921 54.000000
2.927920 0.243800 0.206211 61.000000
2.933630 0.235214 0.206502 62.000000
2.939315 0.226596 0.206792 56.000000
2.941987 0.217724 0.206908 46.000000
2.949612 0.209190 0.207315 55.000000
2.957212 0.200612 0.207721 26.000000
2.949844 0.191024 0.207257 42.000000
2.949419 0.181911 0.207199 50.000000
2.951957 0.172978 0.207315 49.000000
2.944499 0.163479 0.206850 23.000000
2.940002 0.154184 0.206560 11.000000
2.688613 0.850593 0.165970 39.000000
2.686444 0.840847 0.165739 55.000000
2.690919 0.833192 0.165831 46.000000
2.699193 0.826691 0.166109 55.000000
2.703628 0.818986 0.166201 46.000000
2.706128 0.810687 0.166201 46.000000
2.707645 0.802097 0.166155 41.000000
2.714885 0.795192 0.166386 53.000000
2.713475 0.785746 0.166201 47.000000
2.716833 0.777693 0.166247 45.000000
2.716323 0.768537 0.166109 65.000000
2.719630 0.760469 0.166155 58.000000
2.728689 0.753987 0.166478 43.000000
2.729063 0.745085 0.166386 79.000000
2.736157 0.738012 0.166617 40.000000
2.741304 0.730387 0.166756 63.000000
2.747396 0.722991 0.166941 71.000000
2.752501 0.715314 0.167080 52.000000
2.754683 0.706866 0.167080 50.000000
2.759743 0.699149 0.167218 49.000000
2.759937 0.690193 0.167126 57.000000
2.765920 0.682682 0.167311 50.000000
2.768002 0.674193 0.167311 49.000000
2.768115 0.665230 0.167218 51.000000
2.769171 0.656503 0.167172 54.000000
2.769227 0.647549 0.167080 61.000000
2.769254 0.638600 0.166987 59.000000
2.772174 0.630323 0.167033 48.000000
2.769221 0.620721 0.166802 62.000000
2.771113 0.612222 0.166802 52.000000
2.771026 0.603292 0.166710 56.000000
2.770911 0.594368 0.166617 63.000000
2.773698 0.586071 0.166663 50.000000
2.782329 0.578986 0.166987 42.000000
2.788984 0.571452 0.167218 48.000000
2.799536 0.564674 0.167634 36.000000
2.803215 0.556472 0.167727 49.000000
2.808830 0.548637 0.167912 52.000000
2.812463 0.540394 0.168004 50.000000
2.815089 0.531949 0.168050 36.000000
2.815725 0.523127 0.168004 40.000000
2.817317 0.514486 0.168004 53.000000
2.819865 0.506017 0.168050 40.000000
2.821405 0.497364 0.168050 48.000000
2.828822 0.489730 0.168328 58.000000
2.830312 0.481049 0.168328 50.000000
2.834730 0.472858 0.168467 44.000000
2.841096 0.464968 0.168698 51.000000
2.843495 0.456408 0.168744 56.000000
2.846856 0.447993 0.168836 51.000000
2.855127 0.440326 0.169160 50.000000
2.857452 0.431714 0.169206 50.000000
2.861727 0.423385 0.169345 40.000000
2.865978 0.415034 0.169484 48.000000
2.867239 0.406240 0.169484 41.000000
2.870450 0.397716 0.169576 55.000000
2.874626 0.389311 0.169715 45.000000
2.875807 0.380490 0.169715 49.000000
2.878942 0.371922 0.169807 56.000000
2.879079 0.362963 0.169761 59.000000
2.880178 0.354128 0.169761 39.000000
2.882243 0.345409 0.169807 58.000000
2.881305 0.336333 0.169715 36.000000
2.885301 0.327831 0.169854 44.000000
2.883315 0.318647 0.169715 34.000000
2.888251 0.310228 0.169900 53.000000
2.893164 0.301782 0.170085 41.000000
2.895070 0.293005 0.170131 61.000000
2.898937 0.284416 0.170270 40.000000
2.901785 0.275710 0.170362 40.000000
2.908586 0.267357 0.170640 61.000000
2.913372 0.258788 0.170825 38.000000
2.916143 0.250020 0.170917 44.000000
2.920878 0.241403 0.171102 34.000000
2.922601 0.232520 0.171148 40.000000
2.922304 0.223476 0.171102 35.000000
2.927957 0.214877 0.171333 47.000000
2.925613 0.205682 0.171194 32.000000
2.927227 0.196773 0.171241 23.000000
2.929811 0.187920 0.171333 8.000000
2.702708 0.820071 0.131313 43.000000
2.701382 0.810627 0.131178 61.000000
2.700982 0.801483 0.131076 37.000000
2.699592 0.792067 0.130941 50.000000
2.703929 0.784338 0.131009 63.000000
2.709205 0.776865 0.131110 49.000000
2.714460 0.769367 0.131212 51.000000
2.717770 0.761305 0.131246 57.000000
2.725873 0.754562 0.131449 55.000000
2.732995 0.747513 0.131618 69.000000
2.731416 0.738083 0.131483 71.000000
2.733668 0.729699 0.131483 52.000000
2.733961 0.720800 0.131415 75.000000
2.733258 0.711654 0.131313 67.000000
2.738332 0.704011 0.131415 52.000000
2.740479 0.695607 0.131415 51.000000
2.744539 0.687681 0.131483 63.000000
2.750517 0.680217 0.131618 68.000000
2.751620 0.671539 0.131584 70.000000
2.757554 0.664029 0.131719 72.000000
2.762496 0.656258 0.131821 64.000000
2.764496 0.647780 0.131821 45.000000
2.767444 0.639521 0.131855 65.000000
2.768418 0.630805 0.131821 59.000000
2.769365 0.622090 0.131787 73.000000
2.775164 0.614455 0.131923 57.000000
2.776060 0.605725 0.131889 62.000000
2.779859 0.597625 0.131956 56.000000
2.784613 0.589714 0.132058 57.000000
2.790323 0.581984 0.132193 66.000000
2.796011 0.574224 0.132329 72.000000
2.800699 0.566237 0.132430 63.000000
2.802423 0.557642 0.132430 60.000000
2.807063 0.549618 0.132532 57.000000
2.809717 0.541192 0.132566 52.000000
2.815292 0.533313 0.132701 58.000000
2.814950 0.524308 0.132634 57.000000
2.814579 0.515309 0.132566 52.000000
2.817131 0.506849 0.132600 51.000000
2.820641 0.498551 0.132667 62.000000
2.824127 0.490237 0.132735 46.000000
2.822661 0.481067 0.132634 66.000000
2.825110 0.472570 0.132667 52.000000
2.831478 0.464709 0.132837 52.000000
2.839797 0.457130 0.133074 47.000000
2.844148 0.448883 0.133175 58.000000
2.845512 0.440155 0.133175 49.000000
2.851790 0.432171 0.133344 47.000000
2.857056 0.424006 0.133480 49.000000
2.862300 0.415813 0.133615 47.000000
2.861583 0.406749 0.133548 52.000000
2.861828 0.397830 0.133514 61.000000
2.863035 0.389048 0.133514 52.000000
2.869169 0.380920 0.133683 56.000000
2.872306 0.372372 0.133751 58.000000
2.873435 0.363558 0.133751 62.000000
2.870569 0.354252 0.133615 49.000000
2.876604 0.346040 0.133785 55.000000
2.877652 0.337213 0.133785 53.000000
2.878673 0.328383 0.133785 60.000000
2.878674 0.319440 0.133751 55.000000
2.885602 0.311249 0.133954 44.000000
2.889525 0.302706 0.134055 47.000000
2.896407 0.294446 0.134258 44.000000
2.898291 0.285656 0.134292 49.000000
2.902138 0.277047 0.134394 39.000000
2.910936 0.268877 0.134665 43.000000
2.912743 0.260034 0.134699 37.000000
2.915519 0.251268 0.134766 46.000000
2.919264 0.242570 0.134868 39.000000
2.917006 0.233374 0.134766 31.000000
2.937638 0.225954 0.135443 15.000000
2.705355 0.793416 0.096864 35.000000
2.704896 0.784276 0.096799 36.000000
2.710172 0.776802 0.096864 44.000000
2.715428 0.769302 0.096929 39.000000
2.712000 0.759348 0.096799 57.000000
2.717207 0.751825 0.096864 46.000000
2.723358 0.744541 0.096950 49.000000
2.726594 0.736444 0.096972 53.000000
2.729807 0.728333 0.096994 55.000000
2.726228 0.718424 0.096864 50.000000
2.728420 0.710057 0.096864 81.000000
2.733490 0.702430 0.096929 55.000000
2.734663 0.693794 0.096907 43.000000
2.737748 0.685645 0.096929 61.000000
2.740809 0.677482 0.096950 63.000000
2.741904 0.668833 0.096929 50.000000
2.749775 0.661824 0.097059 60.000000
2.752765 0.653616 0.097080 47.000000
2.753783 0.644939 0.097059 64.000000
2.764515 0.638516 0.097253 35.000000
2.760613 0.628698 0.097124 49.000000
2.763505 0.620445 0.097145 54.000000
2.769299 0.612829 0.097232 57.000000
2.770189 0.604117 0.097210 61.000000
2.773984 0.596036 0.097253 46.000000
2.778734 0.588145 0.097318 64.000000
2.775632 0.578595 0.097210 45.000000
2.783270 0.571285 0.097340 49.000000
2.789909 0.563736 0.097448 43.000000
2.794566 0.555760 0.097513 59.000000
2.794297 0.546799 0.097470 41.000000
2.796942 0.538413 0.097491 57.000000
2.800546 0.530202 0.097535 37.000000
2.807073 0.522525 0.097643 38.000000
2.808663 0.513910 0.097643 56.000000
2.816130 0.506355 0.097773 37.000000
2.817670 0.497713 0.097773 38.000000
2.822139 0.489580 0.097838 52.000000
2.825598 0.481256 0.097881 62.000000
2.830020 0.473080 0.097946 40.000000
2.827512 0.463747 0.097859 59.000000
2.832869 0.455707 0.097946 48.000000
2.834254 0.447013 0.097946 41.000000
2.836600 0.438469 0.097968 52.000000
2.838920 0.429915 0.097989 40.000000
2.839237 0.421056 0.097968 51.000000
2.849419 0.413639 0.098162 45.000000
2.850675 0.404896 0.098162 53.000000
2.854875 0.396562 0.098227 40.000000
2.858059 0.388071 0.098270 45.000000
2.860227 0.379433 0.098292 53.000000
2.865343 0.371171 0.098379 52.000000
2.865477 0.362253 0.098357 62.000000
2.865582 0.353337 0.098335 38.000000
2.867646 0.344664 0.098357 38.000000
2.868690 0.335865 0.098357 48.000000
2.872686 0.327403 0.098422 34.000000
2.871690 0.318367 0.098379 39.000000
2.876629 0.309985 0.098465 45.000000
2.884527 0.301890 0.098617 33.000000
2.888423 0.293343 0.098682 37.000000
2.891299 0.284677 0.098725 30.000000
2.896140 0.276186 0.098811 35.000000
2.896974 0.267300 0.098811 32.000000
2.935715 0.841231 0.064284 28.000000
2.970033 0.841209 0.064589 22.000000
2.759782 0.772550 0.062545 43.000000
2.752501 0.761415 0.062452 49.000000
2.738425 0.748487 0.062295 45.000000
2.738778 0.739561 0.062276 53.000000
2.742001 0.731413 0.062286 47.000000
2.741331 0.722233 0.062258 62.000000
2.746437 0.714574 0.062286 46.000000
2.745710 0.705399 0.062258 51.000000
2.747862 0.696972 0.062258 57.000000
2.747077 0.687810 0.062230 77.000000
2.748203 0.679139 0.062221 70.000000
2.743473 0.669047 0.062156 62.000000
2.744541 0.660393 0.062147 69.000000
2.748500 0.652432 0.062165 62.000000
2.749515 0.643769 0.062156 48.000000
2.755374 0.636230 0.062193 54.000000
2.758288 0.627995 0.062202 71.000000
2.759226 0.619311 0.062193 66.000000
2.765995 0.611922 0.062239 49.000000
2.772745 0.604498 0.062286 58.000000
2.777519 0.596618 0.062313 68.000000
2.784228 0.589128 0.062360 52.000000
