ply
format ascii 1.0
element vertex 1273
property float x
property float y
property float z
property float intensity
end_header
2.183418 0.175162 0.377107 57.000000
2.183946 0.168463 0.377107 63.000000
2.184452 0.161762 0.377107 77.000000
2.184938 0.155059 0.377107 64.000000
2.188360 0.148555 0.377572 90.000000
2.184862 0.141586 0.376952 85.000000
2.188245 0.135064 0.377417 69.000000
2.189635 0.128408 0.377572 67.000000
2.189032 0.121635 0.377417 80.000000
2.189395 0.114919 0.377417 64.000000
2.187764 0.108104 0.377107 79.000000
2.185125 0.101255 0.376642 86.000000
2.183451 0.094465 0.376333 76.000000
2.183731 0.087766 0.376333 77.000000
2.183002 0.081030 0.376178 83.000000
2.182253 0.074298 0.376023 65.000000
2.183459 0.067633 0.376178 65.000000
2.183656 0.060934 0.376178 75.000000
2.183832 0.054235 0.376178 65.000000
2.183988 0.047535 0.376178 79.000000
2.183136 0.040816 0.376023 71.000000
2.183251 0.034118 0.376023 66.000000
2.184333 0.027432 0.376178 77.000000
2.178480 0.020675 0.375249 78.000000
2.183473 0.014022 0.376023 103.000000
2.177578 0.007304 0.375094 74.000000
2.177590 0.000624 0.375094 86.000000
2.178570 -0.006060 0.375249 85.000000
2.172613 -0.012708 0.374319 94.000000
2.173552 -0.019382 0.374474 74.000000
2.178421 -0.026111 0.375249 64.000000
2.175368 -0.032749 0.374784 54.000000
2.175257 -0.039423 0.374784 69.000000
2.172163 -0.046033 0.374319 84.000000
2.173986 -0.052745 0.374629 80.000000
2.171839 -0.059360 0.374319 83.000000
2.171647 -0.066023 0.374319 86.000000
2.171366 -0.099372 0.374474 97.000000
2.172037 -0.106081 0.374629 77.000000
2.172688 -0.112796 0.374784 87.000000
2.173318 -0.119515 0.374939 65.000000
2.173928 -0.126240 0.375094 83.000000
2.172544 -0.132848 0.374939 60.000000
2.172127 -0.139513 0.374939 68.000000
2.171688 -0.146176 0.374939 69.000000
2.173200 -0.152977 0.375249 67.000000
2.172721 -0.159644 0.375249 82.000000
2.171236 -0.166233 0.375094 83.000000
2.167221 -0.179308 0.374629 60.000000
2.177314 -0.220565 0.376797 9.000000
2.179575 -0.227553 0.377262 7.000000
2.179460 0.228193 0.350466 46.000000
2.179165 0.221405 0.350323 54.000000
2.183774 0.215109 0.350894 45.000000
2.181468 0.208124 0.350466 29.000000
2.182096 0.201431 0.350466 56.000000
2.180732 0.194558 0.350180 42.000000
2.183291 0.188038 0.350466 44.000000
2.183857 0.181339 0.350466 46.000000
2.183417 0.174558 0.350323 42.000000
2.184929 0.167935 0.350466 63.000000
2.182473 0.161011 0.350037 64.000000
2.182957 0.154315 0.350037 62.000000
2.181445 0.147482 0.349751 53.000000
2.170602 0.113325 0.347892 80.000000
2.169951 0.106616 0.347749 68.000000
2.173234 0.100097 0.348178 59.000000
2.174520 0.093472 0.348321 60.000000
2.179741 0.087000 0.349036 58.000000
2.181975 0.080386 0.349322 66.000000
2.184190 0.073760 0.349608 56.000000
2.186385 0.067120 0.349894 53.000000
2.190537 0.060524 0.350466 52.000000
2.189723 0.053778 0.350323 57.000000
2.190868 0.047082 0.350466 51.000000
2.190126 0.033622 0.350323 68.000000
2.171569 -0.006649 0.347606 52.000000
2.172528 -0.013317 0.347749 57.000000
2.169508 -0.019956 0.347320 56.000000
2.171415 -0.026636 0.347606 59.000000
2.170334 -0.033283 0.347463 60.000000
2.172201 -0.039976 0.347749 51.000000
2.173058 -0.046661 0.347892 66.000000
2.178841 -0.053470 0.348750 55.000000
2.184603 -0.060315 0.349608 51.000000
2.184407 -0.067017 0.349608 63.000000
2.181224 -0.073620 0.349179 63.000000
2.179009 -0.080240 0.348893 64.000000
2.177764 -0.086886 0.348750 45.000000
2.175510 -0.093483 0.348464 67.000000
2.174224 -0.100111 0.348321 53.000000
2.165998 -0.106397 0.347177 63.000000
2.166650 -0.113093 0.347320 76.000000
2.167281 -0.119794 0.347463 56.000000
2.166903 -0.126442 0.347463 56.000000
2.163542 -0.132909 0.347034 54.000000
2.163124 -0.139546 0.347034 57.000000
2.162685 -0.146182 0.347034 57.000000
2.165189 -0.153024 0.347463 61.000000
2.165696 -0.159738 0.347606 62.000000
2.164209 -0.166306 0.347463 61.000000
2.163688 -0.172945 0.347463 39.000000
2.164134 -0.179664 0.347606 30.000000
2.167517 -0.186640 0.348178 38.000000
2.169892 -0.193551 0.348607 48.000000
2.162389 -0.199575 0.347606 34.000000
2.165708 -0.206582 0.348178 51.000000
2.169004 -0.213611 0.348750 56.000000
2.165384 -0.219966 0.348321 48.000000
2.165683 -0.226710 0.348464 54.000000
2.177771 -0.234726 0.350323 10.000000
2.193419 0.243876 0.325816 65.000000
2.195143 0.237252 0.325947 59.000000
2.191916 0.230103 0.325422 46.000000
2.194585 0.223578 0.325684 64.000000
2.190327 0.216358 0.325029 63.000000
2.188020 0.209354 0.324636 62.000000
2.187665 0.202549 0.324505 64.000000
2.187289 0.195748 0.324374 68.000000
2.182940 0.188611 0.323719 63.000000
2.181533 0.181749 0.323457 82.000000
2.182080 0.175055 0.323457 85.000000
2.183595 0.168436 0.323588 84.000000
2.184102 0.161736 0.323588 94.000000
2.185577 0.155104 0.323719 82.000000
2.185053 0.148331 0.323588 71.000000
2.185498 0.141627 0.323588 80.000000
2.187901 0.135043 0.323850 90.000000
2.183357 0.128041 0.323195 62.000000
2.182749 0.121287 0.323064 79.000000
2.183111 0.114590 0.323064 64.000000
2.182462 0.107843 0.322933 77.000000
2.186744 0.101329 0.323457 79.000000
2.184073 0.094492 0.323064 92.000000
2.184353 0.087791 0.323064 79.000000
2.187584 0.081199 0.323457 70.000000
2.185842 0.074420 0.323195 78.000000
2.188041 0.067775 0.323457 63.000000
2.188239 0.061061 0.323457 87.000000
2.185443 0.054274 0.323064 96.000000
2.188572 0.047634 0.323457 87.000000
2.186726 0.040882 0.323195 64.000000
2.183867 0.034127 0.322801 66.000000
2.184953 0.027439 0.322933 93.000000
2.182053 0.020708 0.322539 68.000000
2.181115 0.014007 0.322408 74.000000
2.181147 0.007316 0.322408 72.000000
2.180168 0.000624 0.322277 86.000000
2.182143 -0.006071 0.322539 79.000000
2.184097 -0.012777 0.322801 84.000000
2.182064 -0.019460 0.322539 72.000000
2.184968 -0.026190 0.322933 79.000000
2.179921 -0.032818 0.322277 84.000000
2.180802 -0.039524 0.322408 77.000000
2.181661 -0.046236 0.322539 95.000000
2.179527 -0.052880 0.322277 98.000000
2.181336 -0.059621 0.322539 76.000000
2.183125 -0.066374 0.322801 76.000000
2.169966 -0.099307 0.321229 114.000000
2.168661 -0.105916 0.321098 109.000000
2.167336 -0.112517 0.320967 97.000000
2.167970 -0.119220 0.321098 72.000000
2.169574 -0.125986 0.321360 87.000000
2.171156 -0.132763 0.321622 75.000000
2.170738 -0.139424 0.321622 78.000000
2.174257 -0.146350 0.322146 87.000000
2.173798 -0.153020 0.322146 80.000000
2.174307 -0.159761 0.322277 94.000000
2.174795 -0.166507 0.322408 65.000000
2.173732 -0.179848 0.322408 81.000000
2.172691 -0.213364 0.322670 94.000000
2.172026 -0.220029 0.322670 62.000000
2.170355 -0.226588 0.322539 78.000000
2.168664 -0.233140 0.322408 75.000000
2.169909 -0.240010 0.322670 55.000000
2.166208 -0.246330 0.322277 54.000000
2.162488 -0.252629 0.321884 54.000000
2.160718 -0.259144 0.321753 54.000000
2.169752 -0.266984 0.323064 23.000000
2.145318 -0.270657 0.319918 6.000000
2.125141 -0.294646 0.317691 7.000000
2.196554 0.271342 0.299382 40.000000
2.195405 0.264363 0.299144 40.000000
2.198178 0.257859 0.299382 38.000000
2.191825 0.243485 0.298430 58.000000
2.194535 0.236974 0.298668 52.000000
2.192290 0.229927 0.298311 49.000000
2.191997 0.223099 0.298192 37.000000
2.190695 0.216177 0.297954 66.000000
2.190360 0.209360 0.297836 59.000000
2.190992 0.202639 0.297836 52.000000
2.190614 0.195828 0.297717 60.000000
2.190215 0.189020 0.297598 59.000000
2.189796 0.182217 0.297479 67.000000
2.188365 0.175338 0.297241 70.000000
2.186913 0.168470 0.297003 61.000000
2.186429 0.161686 0.296884 71.000000
2.188896 0.155119 0.297122 74.000000
2.187380 0.148267 0.296884 58.000000
2.194355 0.114960 0.297479 82.000000
2.191722 0.108079 0.297122 78.000000
2.194027 0.101447 0.297360 74.000000
2.193336 0.094672 0.297241 72.000000
2.192624 0.087902 0.297122 66.000000
2.195860 0.081286 0.297479 69.000000
2.192130 0.074412 0.297003 60.000000
2.189371 0.067593 0.296646 66.000000
2.190560 0.060904 0.296765 66.000000
2.189744 0.054158 0.296646 75.000000
2.188907 0.047418 0.296527 79.000000
2.183200 0.033890 0.295814 73.000000
2.180473 0.007085 0.295457 86.000000
2.185440 -0.006306 0.296052 75.000000
2.186404 -0.013016 0.296171 80.000000
2.186353 -0.019723 0.296171 81.000000
2.189261 -0.026465 0.296527 71.000000
2.189169 -0.033182 0.296527 74.000000
2.187072 -0.039863 0.296290 79.000000
2.184954 -0.046531 0.296052 69.000000
2.184801 -0.053234 0.296052 89.000000
2.182642 -0.059884 0.295814 86.000000
2.183441 -0.066609 0.295933 103.000000
2.179257 -0.073177 0.295457 97.000000
2.178029 -0.079826 0.295338 93.000000
2.178766 -0.086547 0.295457 99.000000
2.180475 -0.093315 0.295695 82.000000
2.180178 -0.100004 0.295695 77.000000
2.179861 -0.106692 0.295695 63.000000
2.183490 -0.113583 0.296171 65.000000
2.185114 -0.120390 0.296409 56.000000
2.182751 -0.126979 0.296171 85.000000
2.182352 -0.133675 0.296171 65.000000
2.181931 -0.140370 0.296171 60.000000
2.181491 -0.147063 0.296171 70.000000
2.184000 -0.153963 0.296527 56.000000
2.180547 -0.160446 0.296171 67.000000
2.180045 -0.167135 0.296171 68.000000
2.176553 -0.173587 0.295814 83.000000
2.176009 -0.180264 0.295814 61.000000
2.175446 -0.186939 0.295814 68.000000
2.172884 -0.193437 0.295576 56.000000
2.173270 -0.200193 0.295695 64.000000
2.172645 -0.206860 0.295695 61.000000
2.167059 -0.213041 0.295100 62.000000
2.171335 -0.220187 0.295695 72.000000
2.171637 -0.226950 0.295814 55.000000
2.167968 -0.233294 0.295457 51.000000
2.166255 -0.239836 0.295338 33.000000
2.166496 -0.246592 0.295457 42.000000
2.165729 -0.253238 0.295457 68.000000
2.170858 -0.260588 0.296171 38.000000
2.169063 -0.267126 0.296052 49.000000
2.168233 -0.273779 0.296052 52.000000
2.174276 -0.281318 0.296884 37.000000
2.173403 -0.287988 0.296884 41.000000
2.164637 -0.293591 0.295933 32.000000
2.094877 -0.290715 0.287608 10.000000
2.201877 0.293196 0.273049 61.000000
2.199808 0.286055 0.272729 52.000000
2.195744 0.278680 0.272195 72.000000
2.196589 0.271942 0.272195 62.000000
2.200374 0.265559 0.272515 60.000000
2.200191 0.258691 0.272408 66.000000
2.199986 0.251827 0.272302 77.000000
2.201737 0.245186 0.272408 54.000000
2.200501 0.238216 0.272195 79.000000
2.201222 0.231464 0.272195 89.000000
2.198954 0.224407 0.271875 67.000000
2.194685 0.217171 0.271341 73.000000
2.192372 0.210153 0.271020 62.000000
2.192016 0.203334 0.270913 73.000000
2.189659 0.196342 0.270593 69.000000
2.193222 0.189881 0.270913 80.000000
2.193794 0.183151 0.270913 58.000000
2.197319 0.176658 0.271234 73.000000
2.198842 0.169992 0.271341 73.000000
2.198362 0.163172 0.271234 97.000000
2.200836 0.156568 0.271447 87.000000
2.201306 0.149815 0.271447 65.000000
2.197786 0.142804 0.271020 69.000000
2.196229 0.135938 0.270807 69.000000
2.193658 0.129025 0.270486 68.000000
2.195037 0.122349 0.270593 70.000000
2.193416 0.115510 0.270380 75.000000
2.192767 0.108731 0.270273 77.000000
2.193090 0.102003 0.270273 65.000000
2.192399 0.095231 0.270166 75.000000
2.193675 0.088545 0.270273 70.000000
2.195923 0.081888 0.270486 76.000000
2.191195 0.074981 0.269952 65.000000
2.192409 0.068289 0.270059 72.000000
2.192608 0.061563 0.270059 87.000000
2.191793 0.054811 0.269952 63.000000
2.192945 0.048108 0.270059 73.000000
2.192088 0.041361 0.269952 80.000000
2.191210 0.034620 0.269846 65.000000
2.194289 0.027935 0.270166 76.000000
2.188398 0.021146 0.269525 85.000000
2.188453 0.014432 0.269525 93.000000
2.188487 0.007718 0.269525 93.000000
2.191483 0.001005 0.269846 88.000000
2.191476 -0.005718 0.269846 115.000000
2.192443 -0.012448 0.269952 104.000000
2.194383 -0.019192 0.270166 99.000000
2.195308 -0.025936 0.270273 108.000000
2.193229 -0.032641 0.270059 157.000000
2.193119 -0.039369 0.270059 161.000000
2.193982 -0.046119 0.270166 138.000000
2.193830 -0.052849 0.270166 190.000000
2.191670 -0.059525 0.269952 178.000000
2.193465 -0.066309 0.270166 175.000000
2.194176 -0.100039 0.270380 311.000000
2.188893 -0.106527 0.269846 238.000000
2.189549 -0.113294 0.269952 206.000000
2.189191 -0.120011 0.269952 152.000000
2.182857 -0.126381 0.269312 105.000000
2.182459 -0.133077 0.269312 93.000000
2.185017 -0.139963 0.269632 93.000000
2.181601 -0.146466 0.269312 90.000000
2.184117 -0.153368 0.269632 104.000000
2.185619 -0.160213 0.269846 85.000000
2.183135 -0.166766 0.269632 89.000000
2.182070 -0.180158 0.269632 86.000000
2.180685 -0.207016 0.269739 94.000000
2.180040 -0.213706 0.269739 101.000000
2.181353 -0.220593 0.269952 80.000000
2.179677 -0.227181 0.269846 89.000000
2.176992 -0.233655 0.269632 76.000000
2.174288 -0.240114 0.269418 84.000000
2.173542 -0.246784 0.269418 85.000000
2.174749 -0.253681 0.269632 75.000000
2.173961 -0.260352 0.269632 72.000000
2.170191 -0.266656 0.269312 50.000000
2.171336 -0.273562 0.269525 65.000000
2.171473 -0.280350 0.269632 51.000000
2.171588 -0.287141 0.269739 45.000000
2.172667 -0.294069 0.269952 47.000000
2.171755 -0.300733 0.269952 58.000000
2.173775 -0.307814 0.270273 63.000000
2.176757 -0.315051 0.270700 61.000000
2.179714 -0.322311 0.271127 57.000000
2.218040 -0.334942 0.275398 16.000000
2.222898 -0.342655 0.276039 9.000000
2.190973 0.311309 0.245813 52.000000
2.189946 0.304311 0.245623 38.000000
2.189883 0.297456 0.245528 46.000000
2.189799 0.290605 0.245433 51.000000
2.186731 0.283371 0.245053 46.000000
2.186602 0.276536 0.244958 44.000000
2.189417 0.270071 0.245148 59.000000
2.190235 0.263353 0.245148 56.000000
2.189055 0.256399 0.244958 48.000000
2.190821 0.249795 0.245053 52.000000
2.196523 0.243624 0.245528 54.000000
2.200230 0.237206 0.245813 55.000000
2.198967 0.230246 0.245623 49.000000
2.197682 0.223296 0.245433 56.000000
2.195385 0.216259 0.245148 53.000000
2.194057 0.209332 0.244958 50.000000
2.194688 0.202600 0.244958 48.000000
2.190342 0.195421 0.244483 59.000000
2.188948 0.188528 0.244293 69.000000
2.185548 0.181480 0.243913 61.000000
2.186094 0.174774 0.243913 57.000000
2.187613 0.168143 0.244008 58.000000
2.188118 0.161431 0.244008 68.000000
2.188603 0.154717 0.244008 65.000000
2.187081 0.147866 0.243818 56.000000
2.180484 0.107140 0.242963 78.000000
2.185775 0.100681 0.243438 62.000000
2.187068 0.094018 0.243533 66.000000
2.187346 0.087308 0.243533 65.000000
2.187603 0.080597 0.243533 77.000000
2.184856 0.073783 0.243248 39.000000
2.190047 0.067235 0.243723 52.000000
2.188253 0.060459 0.243533 62.000000
2.187433 0.053721 0.243438 74.000000
2.188582 0.047031 0.243533 59.000000
2.190820 0.033633 0.243723 72.000000
2.183105 0.006717 0.242963 109.000000
2.183115 0.000019 0.242963 111.000000
2.180118 -0.006671 0.242679 90.000000
2.181083 -0.013365 0.242774 105.000000
2.186009 -0.020099 0.243248 120.000000
2.187928 -0.026829 0.243438 162.000000
2.187835 -0.033542 0.243438 159.000000
2.188717 -0.040271 0.243533 207.000000
2.191569 -0.047049 0.243818 144.000000
2.188429 -0.053700 0.243533 183.000000
2.188254 -0.060414 0.243533 196.000000
2.188058 -0.067127 0.243533 205.000000
2.190827 -0.073939 0.243818 269.000000
2.193574 -0.080768 0.244103 307.000000
2.189337 -0.087341 0.243723 253.000000
2.187070 -0.093973 0.243533 199.000000
2.191743 -0.100909 0.244008 198.000000
2.192418 -0.107681 0.244103 180.000000
2.192077 -0.114406 0.244103 142.000000
2.188734 -0.120968 0.243818 162.000000
2.186365 -0.127567 0.243628 160.000000
2.185963 -0.134274 0.243628 144.000000
2.185541 -0.140980 0.243628 173.000000
2.180131 -0.147352 0.243153 123.000000
2.177683 -0.153900 0.242963 99.000000
2.178194 -0.160653 0.243058 86.000000
2.174713 -0.167108 0.242774 72.000000
2.173198 -0.173700 0.242679 79.000000
2.172655 -0.180367 0.242679 89.000000
2.172091 -0.187031 0.242679 79.000000
2.172498 -0.193782 0.242774 67.000000
2.175859 -0.200810 0.243153 57.000000
2.173251 -0.207297 0.242963 64.000000
2.176567 -0.214352 0.243343 71.000000
2.176890 -0.221128 0.243438 70.000000
2.176201 -0.227806 0.243438 66.000000
2.176482 -0.234587 0.243533 57.000000
2.175752 -0.241264 0.243533 73.000000
2.172034 -0.247601 0.243248 60.000000
2.172253 -0.254379 0.243343 57.000000
2.174428 -0.261397 0.243628 58.000000
2.172627 -0.267945 0.243533 54.000000
2.173771 -0.274858 0.243723 57.000000
2.172917 -0.281526 0.243723 59.000000
2.173030 -0.288321 0.243818 46.000000
2.174108 -0.295254 0.244008 53.000000
2.174178 -0.302059 0.244103 68.000000
2.174227 -0.308867 0.244198 39.000000
2.175240 -0.315821 0.244388 53.000000
2.173276 -0.322348 0.244293 47.000000
2.173261 -0.329162 0.244388 35.000000
2.175192 -0.336283 0.244673 44.000000
2.170217 -0.342336 0.244293 39.000000
2.165225 -0.348362 0.243913 33.000000
2.166111 -0.355325 0.244103 32.000000
2.166974 -0.362296 0.244293 19.000000
2.189407 -0.372942 0.246573 6.000000
2.204134 0.334894 0.219340 62.000000
2.206137 0.328277 0.219423 63.000000
2.206148 0.321363 0.219340 60.000000
2.205150 0.314312 0.219175 59.000000
2.206104 0.307546 0.219175 60.000000
2.202100 0.300104 0.218763 61.000000
2.196095 0.292427 0.218186 55.000000
2.196981 0.285688 0.218186 59.000000
2.196859 0.278821 0.218103 83.000000
2.197704 0.272080 0.218103 69.000000
2.196549 0.265098 0.217939 67.000000
2.197352 0.258358 0.217939 70.000000
2.199125 0.251728 0.218021 80.000000
2.201868 0.245200 0.218186 80.000000
2.200628 0.238230 0.218021 73.000000
2.200357 0.231373 0.217939 78.000000
2.201057 0.224622 0.217939 74.000000
2.198760 0.217574 0.217691 60.000000
2.202394 0.211112 0.217939 82.000000
2.201046 0.204170 0.217774 77.000000
2.200670 0.197328 0.217691 80.000000
2.201265 0.190575 0.217691 84.000000
2.201839 0.183821 0.217691 75.000000
2.202393 0.177065 0.217691 77.000000
2.203919 0.170384 0.217774 64.000000
2.200456 0.163327 0.217444 77.000000
2.200947 0.156576 0.217444 80.000000
2.198434 0.149620 0.217196 78.000000
2.197888 0.142810 0.217114 70.000000
2.198316 0.136066 0.217114 73.000000
2.195738 0.129146 0.216867 82.000000
2.197119 0.122465 0.216949 97.000000
2.196490 0.115671 0.216867 85.000000
2.195838 0.108883 0.216784 79.000000
2.198153 0.102238 0.216949 94.000000
2.197461 0.095450 0.216867 75.000000
2.198739 0.088748 0.216949 89.000000
2.197009 0.081928 0.216784 108.000000
2.194262 0.075086 0.216537 74.000000
2.193486 0.068323 0.216454 91.000000
2.191693 0.061537 0.216289 66.000000
2.189879 0.054764 0.216124 92.000000
2.189040 0.048023 0.216042 95.000000
2.188181 0.041288 0.215960 107.000000
2.191287 0.034622 0.216207 80.000000
2.191383 0.027899 0.216207 105.000000
2.192454 0.021185 0.216289 89.000000
2.194502 0.014471 0.216454 105.000000
2.194536 0.007739 0.216454 98.000000
2.199533 0.001007 0.216867 140.000000
2.199526 -0.005741 0.216867 168.000000
2.200494 -0.012495 0.216949 204.000000
2.198452 -0.019228 0.216784 198.000000
2.200376 -0.025996 0.216949 259.000000
2.201282 -0.032762 0.217032 262.000000
2.200175 -0.039497 0.216949 248.000000
2.200043 -0.046247 0.216949 231.000000
2.202880 -0.053069 0.217196 297.000000
2.190752 -0.059500 0.216207 517.000000
2.196536 -0.066403 0.216702 1110.000000
2.225207 -0.074108 0.219093 2023.000000
2.200071 -0.080025 0.217032 2660.000000
2.199816 -0.086774 0.217032 2630.000000
2.223435 -0.094543 0.219011 2128.000000
2.207206 -0.100635 0.217691 1480.000000
2.206887 -0.107406 0.217691 1014.000000
2.198585 -0.113763 0.217032 544.000000
2.194245 -0.120289 0.216702 305.000000
2.193866 -0.127020 0.216702 263.000000
2.193466 -0.133750 0.216702 298.000000
2.194040 -0.140543 0.216784 360.000000
2.191610 -0.147139 0.216619 236.000000
2.192142 -0.153932 0.216702 143.000000
2.191659 -0.160657 0.216702 138.000000
2.188175 -0.167152 0.216454 96.000000
2.186115 -0.180493 0.216372 97.000000
2.185073 -0.214200 0.216537 134.000000
2.181431 -0.220601 0.216289 84.000000
2.183717 -0.227603 0.216537 99.000000
2.182018 -0.234195 0.216454 67.000000
2.181289 -0.240888 0.216454 71.000000
2.179550 -0.247467 0.216372 83.000000
2.182739 -0.254615 0.216702 79.000000
2.181948 -0.261310 0.216702 76.000000
2.178169 -0.267638 0.216454 86.000000
2.178326 -0.274444 0.216537 71.000000
2.177474 -0.281126 0.216537 69.000000
2.177589 -0.287936 0.216619 88.000000
2.177683 -0.294749 0.216702 61.000000
2.174794 -0.301155 0.216537 76.000000
2.172873 -0.307686 0.216454 70.000000
2.174878 -0.314779 0.216702 85.000000
2.173902 -0.321450 0.216702 68.000000
2.173891 -0.328267 0.216784 43.000000
2.174844 -0.335239 0.216949 67.000000
2.174789 -0.342065 0.217032 60.000000
2.174714 -0.348893 0.217114 45.000000
2.177567 -0.356208 0.217444 54.000000
2.176464 -0.362887 0.217444 47.000000
2.174358 -0.369395 0.217361 51.000000
2.174196 -0.376235 0.217444 51.000000
2.176958 -0.383596 0.217774 58.000000
2.175771 -0.390273 0.217774 42.000000
2.197111 -0.401066 0.219670 12.000000
2.195871 -0.407805 0.219670 12.000000
2.216978 0.355980 0.194045 33.000000
2.214118 0.348555 0.193763 39.000000
2.208277 0.340692 0.193268 53.000000
2.206353 0.333467 0.193056 36.000000
2.202432 0.325963 0.192703 50.000000
2.205396 0.319492 0.192844 43.000000
2.204391 0.312443 0.192703 50.000000
2.205339 0.305679 0.192703 46.000000
2.202313 0.298374 0.192421 76.000000
2.196296 0.290696 0.191926 60.000000
2.196188 0.283828 0.191856 57.000000
2.197049 0.277089 0.191856 58.000000
2.192939 0.269736 0.191502 53.000000
2.189795 0.262529 0.191220 53.000000
2.192571 0.256042 0.191361 60.000000
2.193346 0.249315 0.191361 54.000000
2.196084 0.242805 0.191502 66.000000
2.194835 0.235852 0.191361 64.000000
2.192572 0.228805 0.191149 58.000000
2.191279 0.221875 0.191008 56.000000
2.191949 0.215151 0.191008 46.000000
2.195578 0.208710 0.191220 65.000000
2.196208 0.201973 0.191220 63.000000
2.193836 0.194968 0.191008 57.000000
2.197406 0.188494 0.191220 63.000000
2.195986 0.181586 0.191079 43.000000
2.194544 0.174688 0.190937 56.000000
2.192086 0.167725 0.190726 57.000000
2.192590 0.160999 0.190726 75.000000
2.190089 0.154060 0.190514 58.000000
2.191546 0.147408 0.190584 66.000000
2.198869 0.107289 0.190937 69.000000
2.198192 0.100496 0.190867 79.000000
2.195500 0.093623 0.190655 57.000000
2.195777 0.086887 0.190655 58.000000
2.193043 0.080039 0.190443 59.000000
2.194275 0.073344 0.190514 79.000000
2.190502 0.066489 0.190231 56.000000
2.187704 0.059685 0.190019 45.000000
2.189871 0.053022 0.190161 59.000000
2.190023 0.046304 0.190161 70.000000
2.195253 0.032943 0.190514 63.000000
2.196490 0.006004 0.190584 111.000000
2.196498 -0.000735 0.190584 115.000000
2.187508 -0.007448 0.189949 83.000000
2.205429 -0.014265 0.191220 144.000000
2.205375 -0.021031 0.191220 177.000000
2.201310 -0.027749 0.190937 204.000000
2.201215 -0.034503 0.190937 209.000000
2.200102 -0.041237 0.190867 183.000000
2.201959 -0.048030 0.191008 195.000000
2.200804 -0.054761 0.190937 174.000000
2.201623 -0.061540 0.191008 175.000000
2.197436 -0.068172 0.190726 270.000000
2.189241 -0.074646 0.190161 420.000000
2.189001 -0.081362 0.190161 424.000000
2.197712 -0.088434 0.190796 518.000000
2.195437 -0.095090 0.190655 461.000000
2.197128 -0.101917 0.190796 807.000000
2.196805 -0.108657 0.190796 649.000000
2.196461 -0.115396 0.190796 329.000000
2.191117 -0.121860 0.190443 248.000000
2.191728 -0.128640 0.190514 195.000000
2.195306 -0.135607 0.190796 127.000000
2.189903 -0.142021 0.190443 94.000000
2.193437 -0.149007 0.190726 103.000000
2.187995 -0.155385 0.190372 97.000000
2.185518 -0.161951 0.190231 85.000000
2.181033 -0.168350 0.189949 79.000000
2.182494 -0.175200 0.190090 75.000000
2.179959 -0.181730 0.189949 50.000000
2.182372 -0.188673 0.190161 79.000000
2.173835 -0.194660 0.189596 49.000000
2.178194 -0.201786 0.189949 65.000000
2.177564 -0.208468 0.189949 71.000000
2.177907 -0.215245 0.190019 63.000000
2.179221 -0.222127 0.190161 67.000000
2.180514 -0.229019 0.190302 61.000000
2.178809 -0.235601 0.190231 58.000000
2.181051 -0.242613 0.190443 52.000000
2.181287 -0.249416 0.190514 54.000000
2.182493 -0.256339 0.190655 55.000000
2.181696 -0.263034 0.190655 69.000000
2.179889 -0.269604 0.190584 52.000000
2.179052 -0.276290 0.190584 68.000000
2.176215 -0.282718 0.190443 59.000000
2.180282 -0.290049 0.190796 50.000000
2.181359 -0.297004 0.190937 51.000000
2.183402 -0.304107 0.191149 43.000000
2.183446 -0.310944 0.191220 45.000000
2.184456 -0.317927 0.191361 53.000000
2.179523 -0.324043 0.191079 40.000000
2.184437 -0.331623 0.191502 44.000000
2.184395 -0.338476 0.191573 51.000000
2.183346 -0.345176 0.191573 49.000000
2.184246 -0.352189 0.191714 53.000000
2.181187 -0.358566 0.191573 51.000000
2.180077 -0.365256 0.191573 43.000000
2.182879 -0.372612 0.191856 47.000000
2.176812 -0.378456 0.191502 38.000000
2.177605 -0.385479 0.191644 49.000000
2.174448 -0.391805 0.191502 40.000000
2.173236 -0.398474 0.191502 50.000000
2.176907 -0.406052 0.191856 27.000000
2.174374 -0.419401 0.191856 12.000000
2.212247 0.377514 0.165841 52.000000
2.210441 0.370230 0.165667 64.000000
2.208611 0.362962 0.165492 74.000000
2.203800 0.355232 0.165144 76.000000
2.200935 0.347847 0.164912 54.000000
2.201992 0.341093 0.164912 82.000000
2.200067 0.333887 0.164737 68.000000
2.200093 0.326989 0.164679 87.000000
2.201086 0.320237 0.164679 96.000000
2.202058 0.313483 0.164679 84.000000
2.203999 0.306863 0.164737 67.000000
2.203940 0.299966 0.164679 85.000000
2.203861 0.293071 0.164621 72.000000
2.206729 0.286565 0.164737 69.000000
2.207598 0.279794 0.164737 76.000000
2.208446 0.273020 0.164737 83.000000
2.211256 0.266481 0.164853 84.000000
2.210080 0.259464 0.164737 87.000000
2.210866 0.252682 0.164737 98.000000
2.211630 0.245898 0.164737 68.000000
2.207412 0.238576 0.164447 73.000000
2.206147 0.231595 0.164331 84.000000
2.205854 0.224724 0.164273 77.000000
2.204547 0.217760 0.164156 87.000000
2.206198 0.211090 0.164214 74.000000
2.207829 0.204413 0.164273 78.000000
2.207452 0.197549 0.164214 80.000000
2.208048 0.190776 0.164214 84.000000
2.207627 0.183918 0.164156 73.000000
2.205196 0.176905 0.163982 78.000000
2.202742 0.169909 0.163808 93.000000
2.201262 0.163003 0.163692 70.000000
2.199760 0.156108 0.163576 55.000000
2.202221 0.149494 0.163692 74.000000
2.202669 0.142737 0.163692 68.000000
2.203096 0.135978 0.163692 90.000000
2.202507 0.129160 0.163634 80.000000
2.202893 0.122403 0.163634 90.000000
2.202260 0.115592 0.163576 80.000000
2.200611 0.108736 0.163459 75.000000
2.199937 0.101938 0.163401 93.000000
2.201236 0.095232 0.163459 77.000000
2.200521 0.088438 0.163401 103.000000
2.200782 0.081686 0.163401 74.000000
2.201022 0.074934 0.163401 86.000000
2.204235 0.068273 0.163576 80.000000
2.203436 0.061483 0.163517 91.000000
2.202616 0.054698 0.163459 75.000000
2.204770 0.047983 0.163576 99.000000
2.203909 0.041200 0.163517 73.000000
2.207020 0.034485 0.163692 87.000000
2.206117 0.027701 0.163634 71.000000
2.201200 0.020886 0.163343 82.000000
2.201254 0.014133 0.163343 77.000000
2.199290 0.007373 0.163227 74.000000
2.195309 0.000626 0.162995 73.000000
2.195301 -0.006109 0.162995 88.000000
2.194273 -0.012839 0.162937 114.000000
2.193225 -0.019561 0.162878 106.000000
2.212121 -0.026521 0.163982 163.000000
2.212030 -0.033307 0.163982 183.000000
2.212915 -0.040112 0.164040 223.000000
2.209787 -0.046837 0.163866 220.000000
2.206639 -0.053543 0.163692 220.000000
2.205467 -0.060285 0.163634 216.000000
2.205271 -0.067051 0.163634 225.000000
2.198997 -0.100641 0.163343 337.000000
2.201669 -0.107534 0.163517 221.000000
2.200332 -0.114236 0.163459 153.000000
2.200968 -0.121041 0.163517 122.000000
2.199590 -0.127735 0.163459 116.000000
2.195202 -0.134238 0.163227 112.000000
2.192787 -0.140844 0.163111 102.000000
2.190353 -0.147436 0.162995 96.000000
2.188894 -0.154085 0.162937 85.000000
2.184429 -0.160506 0.162704 73.000000
2.182930 -0.167131 0.162646 68.000000
2.184849 -0.180769 0.162820 90.000000
2.188429 -0.208135 0.163169 113.000000
2.185124 -0.221358 0.163053 66.000000
2.181456 -0.227749 0.162878 56.000000
2.186702 -0.235082 0.163227 75.000000
2.187955 -0.242010 0.163343 79.000000
2.186211 -0.248608 0.163285 79.000000
2.186429 -0.255430 0.163343 81.000000
2.184644 -0.262018 0.163285 83.000000
2.183830 -0.268719 0.163285 66.000000
2.183985 -0.275543 0.163343 91.000000
2.180160 -0.281857 0.163169 79.000000
2.178295 -0.288413 0.163111 84.000000
2.180368 -0.295498 0.163285 78.000000
2.182418 -0.302597 0.163459 67.000000
2.184444 -0.309712 0.163634 75.000000
2.184472 -0.316556 0.163692 65.000000
2.183490 -0.323256 0.163692 63.000000
2.182488 -0.329954 0.163692 56.000000
2.184425 -0.337105 0.163866 58.000000
2.184367 -0.343961 0.163924 57.000000
2.185273 -0.350978 0.164040 66.000000
2.181230 -0.357196 0.163866 50.000000
2.184063 -0.364544 0.164098 47.000000
2.187855 -0.372081 0.164389 65.000000
2.186703 -0.378791 0.164389 53.000000
2.188480 -0.386019 0.164563 48.000000
2.213996 0.404057 0.139616 52.000000
2.214242 0.397086 0.139570 51.000000
2.206597 0.388727 0.139154 39.000000
2.211716 0.382638 0.139339 57.000000
2.209925 0.375348 0.139200 54.000000
2.208111 0.368072 0.139061 38.000000
2.208244 0.361134 0.139015 51.000000
2.203424 0.353405 0.138738 41.000000
2.204498 0.346644 0.138738 69.000000
2.204564 0.339726 0.138691 77.000000
2.203620 0.332662 0.138599 69.000000
2.203642 0.325753 0.138553 65.000000
2.202654 0.318703 0.138460 55.000000
2.204611 0.312085 0.138506 64.000000
2.206547 0.305457 0.138553 58.000000
2.209454 0.298955 0.138645 63.000000
2.209370 0.292044 0.138599 45.000000
2.211246 0.285392 0.138645 52.000000
2.213103 0.278733 0.138691 56.000000
2.209982 0.271452 0.138506 69.000000
2.212788 0.264909 0.138599 62.000000
2.213590 0.258119 0.138599 50.000000
2.214372 0.251327 0.138599 56.000000
2.213147 0.244312 0.138506 56.000000
2.211899 0.237307 0.138414 57.000000
2.210630 0.230312 0.138322 63.000000
2.207351 0.223124 0.138137 66.000000
2.207031 0.216253 0.138090 64.000000
2.207684 0.209481 0.138090 72.000000
2.208316 0.202707 0.138090 70.000000
2.205943 0.195665 0.137952 57.000000
2.207528 0.188982 0.137998 69.000000
2.210088 0.182374 0.138090 47.000000
2.205659 0.175195 0.137859 69.000000
2.200210 0.167967 0.137582 56.000000
2.198722 0.161069 0.137489 54.000000
2.202195 0.154534 0.137628 47.000000
2.197676 0.147441 0.137397 64.000000
2.195029 0.106718 0.137166 79.000000
2.195346 0.099984 0.137166 72.000000
2.194645 0.093205 0.137119 76.000000
2.194920 0.086471 0.137119 73.000000
2.192180 0.079627 0.136981 55.000000
2.195409 0.073002 0.137119 70.000000
2.195623 0.066266 0.137119 55.000000
2.197813 0.059585 0.137212 59.000000
2.196987 0.052818 0.137166 55.000000
2.199136 0.046120 0.137258 73.000000
2.199378 0.032625 0.137258 78.000000
2.194618 0.005618 0.137027 94.000000
2.194611 -0.007848 0.137027 62.000000
2.192579 -0.014569 0.136934 76.000000
2.192523 -0.021296 0.136934 93.000000
2.190450 -0.027998 0.136842 104.000000
2.193350 -0.034764 0.136981 91.000000
2.193233 -0.041493 0.136981 68.000000
2.199088 -0.048350 0.137258 81.000000
2.196932 -0.055047 0.137166 110.000000
2.197752 -0.061815 0.137212 108.000000
2.198550 -0.068587 0.137258 137.000000
2.192339 -0.075130 0.136981 104.000000
2.190102 -0.081782 0.136888 108.000000
2.187844 -0.088421 0.136796 119.000000
2.189559 -0.095219 0.136888 129.000000
2.194246 -0.102166 0.137119 121.000000
2.190929 -0.108750 0.136981 110.000000
2.192580 -0.115575 0.137073 104.000000
2.192215 -0.122301 0.137073 92.000000
2.192827 -0.129085 0.137119 102.000000
2.192420 -0.135812 0.137119 84.000000
2.190996 -0.142473 0.137073 70.000000
2.192542 -0.149329 0.137166 60.000000
2.192074 -0.156055 0.137166 68.000000
2.193577 -0.162926 0.137258 66.000000
2.193067 -0.169655 0.137258 66.000000
2.186562 -0.175905 0.136981 56.000000
2.186012 -0.182613 0.136981 93.000000
2.186436 -0.189404 0.137027 58.000000
2.184850 -0.196022 0.136981 75.000000
2.187222 -0.203000 0.137119 72.000000
2.184601 -0.209519 0.137027 74.000000
2.174006 -0.215242 0.136565 48.000000
2.178305 -0.222415 0.136796 62.000000
2.175625 -0.228889 0.136703 58.000000
2.172926 -0.235349 0.136611 58.000000
2.178151 -0.242675 0.136888 79.000000
2.171441 -0.248677 0.136611 65.000000
2.176621 -0.256035 0.136888 70.000000
2.177809 -0.262950 0.136981 53.000000
2.174018 -0.269263 0.136842 67.000000
2.182101 -0.277060 0.137258 73.000000
2.181241 -0.283753 0.137258 59.000000
2.178380 -0.290181 0.137166 68.000000
2.182428 -0.297535 0.137397 54.000000
2.181505 -0.304229 0.137397 47.000000
2.178583 -0.310639 0.137304 65.000000
2.180586 -0.317752 0.137443 51.000000
2.177624 -0.324147 0.137351 49.000000
2.173656 -0.330378 0.137212 49.000000
2.175594 -0.337503 0.137351 52.000000
2.168628 -0.343242 0.137073 32.000000
2.168551 -0.350052 0.137119 44.000000
2.167467 -0.356704 0.137119 33.000000
2.191979 -0.367634 0.138322 20.000000
2.212506 -0.378048 0.139339 6.000000
2.228720 0.429366 0.112525 43.000000
2.230027 0.422526 0.112525 60.000000
2.226400 0.414768 0.112356 62.000000
2.224713 0.407396 0.112254 56.000000
2.222018 0.399861 0.112119 51.000000
2.217329 0.392000 0.111916 71.000000
2.217536 0.385024 0.111882 69.000000
2.214766 0.377548 0.111746 60.000000
2.210000 0.369763 0.111543 74.000000
2.212110 0.363143 0.111577 87.000000
2.211240 0.356037 0.111509 69.000000
2.210347 0.348940 0.111442 85.000000
2.213383 0.342462 0.111509 81.000000
2.209483 0.334922 0.111340 79.000000
2.208522 0.327849 0.111272 79.000000
2.207540 0.320785 0.111205 79.000000
2.210492 0.314291 0.111272 83.000000
2.212436 0.307646 0.111306 70.000000
2.210399 0.300453 0.111205 69.000000
2.208338 0.293276 0.111103 65.000000
2.209227 0.286500 0.111103 62.000000
2.208112 0.279470 0.111035 67.000000
2.209952 0.272817 0.111069 84.000000
2.205817 0.265439 0.110900 70.000000
2.206620 0.258671 0.110900 80.000000
2.207404 0.251899 0.110900 69.000000
2.209159 0.245236 0.110934 83.000000
2.210895 0.238564 0.110968 77.000000
2.209629 0.231572 0.110900 80.000000
2.208340 0.224590 0.110832 92.000000
2.207030 0.217618 0.110765 76.000000
2.205697 0.210657 0.110697 83.000000
2.201357 0.203430 0.110528 105.000000
2.204957 0.196941 0.110629 89.000000
2.202564 0.189919 0.110528 98.000000
2.207120 0.183491 0.110663 56.000000
2.205680 0.176559 0.110595 88.000000
2.205215 0.169715 0.110561 72.000000
2.206722 0.163022 0.110595 74.000000
2.207211 0.156251 0.110595 65.000000
2.204689 0.149277 0.110494 102.000000
2.205137 0.142512 0.110494 71.000000
2.204566 0.135685 0.110460 68.000000
2.208963 0.129154 0.110595 85.000000
2.209349 0.122376 0.110595 81.000000
2.207718 0.115493 0.110528 74.000000
2.210058 0.108818 0.110595 80.000000
2.207386 0.101899 0.110494 96.000000
2.207688 0.095126 0.110494 91.000000
2.206971 0.088313 0.110460 82.000000
2.202238 0.081358 0.110291 73.000000
2.202477 0.074601 0.110291 97.000000
2.201697 0.067813 0.110257 97.000000
2.200896 0.061031 0.110223 90.000000
2.204070 0.054352 0.110324 85.000000
2.203227 0.047568 0.110291 81.000000
2.204362 0.040827 0.110324 96.000000
2.203478 0.034048 0.110291 81.000000
2.202572 0.027276 0.110257 110.000000
2.200647 0.020500 0.110189 100.000000
2.199700 0.013742 0.110155 82.000000
2.198732 0.006991 0.110121 91.000000
2.199743 0.000245 0.110155 96.000000
2.198734 -0.006501 0.110121 105.000000
2.202701 -0.013271 0.110257 93.000000
2.203649 -0.020038 0.110291 77.000000
2.203578 -0.026799 0.110291 88.000000
2.203485 -0.033559 0.110291 90.000000
2.204371 -0.040337 0.110324 87.000000
2.202238 -0.047057 0.110257 78.000000
2.200085 -0.053764 0.110189 96.000000
2.196913 -0.060431 0.110087 110.000000
2.196717 -0.067170 0.110087 76.000000
2.198423 -0.100997 0.110189 107.000000
2.199101 -0.107790 0.110223 106.000000
2.197762 -0.114484 0.110189 110.000000
2.197401 -0.121226 0.110189 81.000000
2.198016 -0.128025 0.110223 87.000000
2.196616 -0.134707 0.110189 85.000000
2.192203 -0.141188 0.110054 78.000000
2.190762 -0.147845 0.110020 94.000000
2.188304 -0.154424 0.109952 77.000000
2.191807 -0.161432 0.110087 73.000000
2.194291 -0.168385 0.110189 81.000000
2.192220 -0.181763 0.110155 85.000000
2.190820 -0.208746 0.110189 103.000000
2.187185 -0.215173 0.110087 91.000000
2.190492 -0.222286 0.110223 85.000000
2.188806 -0.228901 0.110189 74.000000
2.186106 -0.235401 0.110121 73.000000
2.187360 -0.242327 0.110189 95.000000
2.186606 -0.249037 0.110189 78.000000
2.187817 -0.255977 0.110257 80.000000
2.188014 -0.262807 0.110291 90.000000
2.205052 -0.271722 0.110900 207.000000
2.194292 -0.277231 0.110561 158.000000
2.186494 -0.283062 0.110324 62.000000
2.185615 -0.289769 0.110324 82.000000
2.183725 -0.296338 0.110291 56.000000
2.184785 -0.303312 0.110358 65.000000
2.181866 -0.309732 0.110291 67.000000
2.183872 -0.316855 0.110392 73.000000
2.183879 -0.323701 0.110426 62.000000
2.181887 -0.330249 0.110392 61.000000
2.182839 -0.337247 0.110460 49.000000
2.195615 -0.346124 0.110934 20.000000
2.204410 -0.354447 0.111272 6.000000
2.209094 -0.369120 0.111509 5.000000
2.217803 -0.377575 0.111848 6.000000
2.257514 -0.405758 0.113337 9.000000
2.208841 0.446075 0.084615 43.000000
2.210199 0.439297 0.084615 45.000000
2.208593 0.431936 0.084550 46.000000
2.208926 0.424969 0.084529 39.000000
2.209237 0.418004 0.084507 72.000000
2.210509 0.411224 0.084507 47.000000
2.207827 0.403719 0.084421 46.000000
2.207087 0.396589 0.084377 56.000000
2.206325 0.389467 0.084334 55.000000
2.204554 0.382183 0.084269 58.000000
2.205716 0.375417 0.084269 62.000000
2.207844 0.368814 0.084291 56.000000
2.206005 0.361552 0.084226 60.000000
2.209078 0.355101 0.084269 55.000000
2.211145 0.348478 0.084291 62.000000
2.214180 0.341999 0.084334 58.000000
2.211264 0.334604 0.084248 71.000000
2.210303 0.327524 0.084204 57.000000
2.206350 0.320021 0.084096 64.000000
2.209301 0.313533 0.084139 56.000000
2.207283 0.306339 0.084074 60.000000
2.208212 0.299566 0.084074 72.000000
2.206147 0.292394 0.084009 67.000000
2.211991 0.286269 0.084118 47.000000
2.210875 0.279229 0.084074 42.000000
2.211722 0.272445 0.084074 73.000000
2.209569 0.265299 0.084009 61.000000
2.207394 0.258169 0.083945 53.000000
2.205196 0.251055 0.083880 57.000000
2.203969 0.244067 0.083836 57.000000
2.201725 0.236982 0.083771 57.000000
2.203436 0.230330 0.083793 68.000000
2.203138 0.223468 0.083771 59.000000
2.202818 0.216609 0.083750 55.000000
2.206458 0.210136 0.083815 63.000000
2.207092 0.203366 0.083815 65.000000
2.208702 0.196683 0.083836 63.000000
2.212283 0.190164 0.083901 57.000000
2.211859 0.183293 0.083880 72.000000
2.214404 0.176666 0.083923 52.000000
2.215933 0.169949 0.083945 72.000000
2.213453 0.162928 0.083880 44.000000
2.218928 0.156490 0.083988 54.000000
2.217403 0.149547 0.083945 78.000000
2.210793 0.108261 0.083750 62.000000
2.208119 0.101339 0.083685 62.000000
2.208419 0.094564 0.083685 57.000000
2.204703 0.087627 0.083598 61.000000
2.199966 0.080677 0.083490 64.000000
2.198205 0.073859 0.083447 62.000000
2.197422 0.067084 0.083425 76.000000
2.197618 0.060342 0.083425 73.000000
2.202790 0.053724 0.083533 54.000000
2.199945 0.046900 0.083468 68.000000
2.204190 0.033463 0.083555 58.000000
2.194435 -0.007087 0.083339 80.000000
2.195403 -0.013825 0.083360 77.000000
2.193351 -0.020543 0.083317 56.000000
2.189279 -0.027224 0.083230 80.000000
2.191184 -0.033971 0.083274 66.000000
2.193069 -0.040729 0.083317 71.000000
2.191934 -0.047436 0.083295 84.000000
2.194777 -0.054233 0.083360 64.000000
2.192601 -0.060912 0.083317 73.000000
2.192404 -0.067638 0.083317 67.000000
2.195184 -0.074464 0.083382 55.000000
2.193946 -0.081162 0.083360 80.000000
2.195684 -0.087972 0.083404 54.000000
2.195404 -0.094708 0.083404 77.000000
2.194105 -0.101397 0.083382 67.000000
2.195780 -0.108225 0.083425 76.000000
2.195438 -0.114961 0.083425 83.000000
2.195075 -0.121696 0.083425 58.000000
2.193693 -0.128372 0.083404 86.000000
2.191293 -0.134980 0.083360 76.000000
2.187876 -0.141510 0.083295 57.000000
2.189426 -0.148356 0.083339 83.000000
2.189958 -0.155143 0.083360 62.000000
2.186481 -0.161641 0.083295 60.000000
2.185974 -0.168348 0.083295 75.000000
2.185447 -0.175054 0.083295 73.000000
2.187889 -0.182005 0.083360 63.000000
2.187321 -0.188716 0.083360 60.000000
2.183744 -0.195161 0.083295 48.000000
2.186121 -0.202134 0.083360 63.000000
2.187482 -0.209029 0.083404 52.000000
2.191805 -0.216227 0.083512 68.000000
2.191131 -0.222951 0.083512 49.000000
2.187454 -0.229361 0.083447 49.000000
2.190716 -0.236498 0.083533 55.000000
2.190974 -0.243328 0.083555 74.000000
2.202137 -0.251403 0.083815 185.000000
2.192419 -0.257114 0.083620 105.000000
2.184671 -0.263007 0.083468 51.000000
2.184846 -0.269830 0.083490 52.000000
2.190951 -0.277407 0.083642 38.000000
2.205954 -0.286177 0.083988 29.000000
2.195155 -0.291632 0.083771 51.000000
2.199203 -0.299036 0.083880 42.000000
2.198275 -0.305782 0.083880 47.000000
2.197327 -0.312525 0.083880 50.000000
2.214168 -0.321844 0.084269 27.000000
2.224626 0.470800 0.057069 52.000000
2.218229 0.462341 0.056995 56.000000
2.217678 0.455132 0.056976 54.000000
2.216123 0.447733 0.056948 58.000000
2.217486 0.440932 0.056948 50.000000
2.217847 0.433935 0.056939 57.000000
2.215240 0.426373 0.056902 72.000000
2.213590 0.419017 0.056874 72.000000
2.220764 0.413321 0.056930 70.000000
2.220054 0.406146 0.056911 81.000000
2.217353 0.398626 0.056874 80.000000
2.218565 0.391822 0.056874 74.000000
2.218772 0.384842 0.056865 76.000000
2.218956 0.377866 0.056856 84.000000
2.219119 0.370892 0.056847 60.000000
2.217286 0.363597 0.056819 65.000000
2.218391 0.356793 0.056819 103.000000
2.219475 0.349985 0.056819 85.000000
2.216585 0.342564 0.056782 85.000000
2.214660 0.335313 0.056754 58.000000
2.215678 0.328517 0.056754 79.000000
2.212717 0.321144 0.056717 101.000000
2.212702 0.314214 0.056708 91.000000
2.212665 0.307287 0.056699 94.000000
2.211615 0.300228 0.056680 81.000000
2.212526 0.293442 0.056680 84.000000
2.215399 0.286909 0.056699 69.000000
2.214285 0.279860 0.056680 85.000000
2.214141 0.272943 0.056671 63.000000
2.215961 0.266268 0.056680 79.000000
2.216767 0.259469 0.056680 102.000000
2.209604 0.251762 0.056606 63.000000
2.214342 0.245422 0.056643 101.000000
2.207130 0.237772 0.056569 70.000000
2.204866 0.230688 0.056541 87.000000
2.204568 0.223821 0.056532 92.000000
2.206240 0.217155 0.056541 68.000000
2.203909 0.210101 0.056514 78.000000
2.204543 0.203338 0.056514 94.000000
2.205157 0.196574 0.056514 77.000000
2.208739 0.190064 0.056541 61.000000
2.212301 0.183535 0.056569 77.000000
2.212853 0.176747 0.056569 66.000000
2.210394 0.169728 0.056541 88.000000
2.212899 0.163092 0.056560 75.000000
2.212392 0.156232 0.056551 85.000000
2.210865 0.149309 0.056532 76.000000
2.208319 0.142333 0.056504 89.000000
2.205751 0.135374 0.056477 80.000000
2.203161 0.128433 0.056449 76.000000
2.205542 0.121783 0.056467 85.000000
2.207902 0.115119 0.056486 79.000000
2.207246 0.108296 0.056477 75.000000
2.207568 0.101524 0.056477 88.000000
2.205871 0.094665 0.056458 93.000000
2.206151 0.087897 0.056458 87.000000
2.203412 0.081019 0.056430 96.000000
2.200653 0.074158 0.056403 79.000000
2.199870 0.067376 0.056393 91.000000
2.199067 0.060599 0.056384 90.000000
2.201242 0.053901 0.056403 89.000000
2.204396 0.047211 0.056430 105.000000
2.204531 0.040448 0.056430 78.000000
2.207644 0.033729 0.056458 98.000000
2.204737 0.026920 0.056430 84.000000
2.201810 0.020129 0.056403 80.000000
2.202861 0.013380 0.056412 90.000000
2.201892 0.006619 0.056403 73.000000
2.199902 -0.000136 0.056384 75.000000
2.200891 -0.006889 0.056393 89.000000
2.204859 -0.013666 0.056430 81.000000
2.204807 -0.020431 0.056430 84.000000
2.204734 -0.027195 0.056430 82.000000
2.204640 -0.033959 0.056430 88.000000
2.201526 -0.040667 0.056403 80.000000
2.201391 -0.047421 0.056403 86.000000
2.199236 -0.054124 0.056384 86.000000
2.194062 -0.060732 0.056338 82.000000
2.194865 -0.067494 0.056347 110.000000
2.197566 -0.101339 0.056384 101.000000
2.199243 -0.108179 0.056403 98.000000
2.200898 -0.115030 0.056421 84.000000
2.204528 -0.122004 0.056458 71.000000
2.203145 -0.128708 0.056449 83.000000
2.200744 -0.135343 0.056430 70.000000
2.200318 -0.142095 0.056430 98.000000
2.200870 -0.148912 0.056440 87.000000
2.198407 -0.155522 0.056421 100.000000
2.195925 -0.162118 0.056403 85.000000
2.193424 -0.168701 0.056384 74.000000
2.195337 -0.182405 0.056412 95.000000
2.192933 -0.209332 0.056412 101.000000
2.193597 -0.222986 0.056430 101.000000
2.195886 -0.230028 0.056458 115.000000
2.192188 -0.236441 0.056430 77.000000
2.191452 -0.243166 0.056430 60.000000
2.190696 -0.249888 0.056430 89.000000
2.190912 -0.256724 0.056440 58.000000
2.195078 -0.264043 0.056486 74.000000
2.194257 -0.270776 0.056486 74.000000
2.194408 -0.277632 0.056495 71.000000
2.201479 -0.285393 0.056569 68.000000
2.200593 -0.292146 0.056569 61.000000
2.175907 -0.295660 0.056347 22.000000
2.163105 -0.300680 0.056236 8.000000
2.217352 0.490448 0.028702 38.000000
2.215915 0.483002 0.028711 38.000000
2.219342 0.476623 0.028705 51.000000
2.213946 0.468359 0.028728 30.000000
2.214394 0.461360 0.028731 40.000000
2.212861 0.453960 0.028741 58.000000
2.211302 0.446574 0.028751 50.000000
2.212662 0.439787 0.028751 47.000000
2.214982 0.433189 0.028748 80.000000
2.213355 0.425824 0.028758 56.000000
2.213669 0.418845 0.028761 67.000000
2.221825 0.413335 0.028738 52.000000
2.219148 0.405795 0.028751 63.000000
2.214477 0.397921 0.028771 70.000000
2.215688 0.391125 0.028771 72.000000
2.219833 0.384840 0.028761 63.000000
2.219032 0.377691 0.028768 64.000000
2.222152 0.371212 0.028761 63.000000
2.218347 0.363581 0.028778 70.000000
2.218465 0.356615 0.028781 56.000000
2.222512 0.350275 0.028771 48.000000
2.218635 0.342689 0.028788 57.000000
2.219676 0.335881 0.028788 53.000000
2.225641 0.329805 0.028771 55.000000
2.222685 0.322399 0.028784 61.000000
2.221683 0.315296 0.028791 59.000000
2.222640 0.308479 0.028791 60.000000
2.221594 0.301388 0.028798 63.000000
2.218544 0.294044 0.028811 57.000000
2.212494 0.286334 0.028834 46.000000
2.212369 0.279419 0.028837 53.000000
2.212224 0.272507 0.028841 53.000000
2.211064 0.265480 0.028847 61.000000
2.210875 0.258578 0.028851 50.000000
2.208677 0.251453 0.028861 61.000000
2.208444 0.244565 0.028864 67.000000
2.207196 0.237574 0.028871 53.000000
2.203936 0.230383 0.028884 59.000000
2.201648 0.223316 0.028894 65.000000
2.204314 0.216757 0.028887 64.000000
2.200986 0.209612 0.028900 56.000000
2.202615 0.202951 0.028897 55.000000
2.200239 0.195925 0.028907 45.000000
2.205811 0.189604 0.028891 71.000000
2.208375 0.183002 0.028884 69.000000
2.207930 0.176146 0.028887 66.000000
2.204472 0.169064 0.028900 55.000000
2.204980 0.162300 0.028900 60.000000
2.205468 0.155534 0.028900 54.000000
2.204937 0.148699 0.028904 72.000000
2.205302 0.107989 0.028910 74.000000
2.205623 0.101223 0.028910 73.000000
2.204925 0.094413 0.028914 62.000000
2.202206 0.087527 0.028924 61.000000
2.205462 0.080882 0.028914 67.000000
2.206699 0.074149 0.028910 62.000000
2.204918 0.067317 0.028917 73.000000
2.205114 0.060552 0.028917 90.000000
2.207289 0.053836 0.028910 81.000000
2.210443 0.047129 0.028900 65.000000
2.209690 0.033550 0.028904 65.000000
2.202934 -0.007110 0.028927 87.000000
2.204901 -0.013880 0.028920 72.000000
2.204848 -0.020645 0.028920 81.000000
2.206774 -0.027433 0.028914 81.000000
2.202681 -0.034143 0.028927 84.000000
2.203565 -0.040919 0.028924 80.000000
2.204429 -0.047700 0.028920 73.000000
2.203273 -0.054439 0.028924 56.000000
2.198097 -0.061062 0.028940 66.000000
2.198899 -0.067835 0.028937 71.000000
2.197681 -0.074548 0.028940 83.000000
2.199440 -0.081363 0.028934 64.000000
2.199181 -0.088110 0.028934 67.000000
2.199899 -0.094899 0.028930 69.000000
2.203593 -0.101831 0.028917 63.000000
2.205268 -0.108688 0.028910 58.000000
2.201928 -0.115298 0.028920 55.000000
2.202563 -0.122108 0.028917 84.000000
2.201180 -0.128807 0.028920 61.000000
2.197780 -0.135376 0.028930 73.000000
2.197354 -0.142118 0.028930 84.000000
2.192917 -0.148591 0.028944 77.000000
2.192451 -0.155318 0.028944 61.000000
2.196950 -0.162409 0.028927 60.000000
2.195445 -0.169072 0.028930 60.000000
2.194915 -0.175807 0.028930 67.000000
2.194366 -0.182540 0.028930 55.000000
2.193795 -0.189272 0.028930 58.000000
2.192208 -0.195913 0.028934 72.000000
2.192593 -0.202729 0.028930 61.000000
2.188974 -0.209171 0.028940 59.000000
2.187326 -0.215788 0.028944 52.000000
2.187649 -0.222598 0.028940 59.000000
2.191929 -0.229828 0.028924 58.000000
2.192208 -0.236658 0.028920 45.000000
2.197435 -0.244042 0.028900 57.000000
2.196676 -0.250782 0.028900 64.000000
2.198876 -0.257868 0.028891 42.000000
2.204032 -0.265327 0.028871 50.000000
2.212140 -0.273186 0.028841 36.000000
