ply
format ascii 1.0
element vertex 1244
property float x
property float y
property float z
property float intensity
end_header
2.177629 0.152798 -0.077399 74.000000
2.175099 0.145914 -0.077242 68.000000
2.173543 0.139111 -0.077138 66.000000
2.168976 0.132136 -0.076876 59.000000
2.172362 0.125656 -0.077033 70.000000
2.169746 0.118825 -0.076876 76.000000
2.169103 0.112116 -0.076823 72.000000
2.173426 0.105657 -0.077033 71.000000
2.174738 0.099034 -0.077085 80.000000
2.182015 0.092662 -0.077452 76.000000
2.181292 0.085927 -0.077399 56.000000
2.178551 0.079124 -0.077242 72.000000
2.179782 0.072474 -0.077294 60.000000
2.177997 0.065725 -0.077190 63.000000
2.179187 0.059070 -0.077242 71.000000
2.179358 0.052384 -0.077242 77.000000
2.177511 0.045655 -0.077138 62.000000
2.182634 0.039066 -0.077399 68.000000
2.183742 0.032385 -0.077452 60.000000
2.184829 0.025698 -0.077504 74.000000
2.183899 0.018985 -0.077452 53.000000
2.185945 0.012298 -0.077556 67.000000
2.184973 0.005588 -0.077504 47.000000
2.186977 -0.001115 -0.077609 44.000000
2.188961 -0.007831 -0.077713 67.000000
2.189925 -0.014553 -0.077766 70.000000
2.191868 -0.021290 -0.077870 70.000000
2.189795 -0.027990 -0.077766 59.000000
2.192694 -0.034754 -0.077923 75.000000
2.195573 -0.041536 -0.078080 70.000000
2.195435 -0.048271 -0.078080 68.000000
2.197273 -0.055056 -0.078184 62.000000
2.200089 -0.061879 -0.078341 66.000000
2.200886 -0.068659 -0.078394 76.000000
2.200665 -0.075411 -0.078394 64.000000
2.200424 -0.082162 -0.078394 70.000000
2.202157 -0.088992 -0.078498 72.000000
2.200876 -0.095705 -0.078446 73.000000
2.199574 -0.102411 -0.078394 58.000000
2.200247 -0.109208 -0.078446 63.000000
2.201896 -0.116061 -0.078551 66.000000
2.201530 -0.122816 -0.078551 57.000000
2.205131 -0.129802 -0.078760 54.000000
2.204722 -0.136567 -0.078760 65.000000
2.204293 -0.143330 -0.078760 64.000000
2.205835 -0.150227 -0.078865 62.000000
2.207356 -0.157135 -0.078969 56.000000
2.204872 -0.163759 -0.078865 59.000000
2.212325 -0.171135 -0.079283 62.000000
2.213780 -0.178080 -0.079388 56.000000
2.214219 -0.184954 -0.079440 64.000000
2.216625 -0.192003 -0.079597 65.000000
2.220005 -0.199158 -0.079807 42.000000
2.219383 -0.205967 -0.079807 56.000000
2.221723 -0.213060 -0.079964 53.000000
2.221059 -0.219875 -0.079964 59.000000
2.219381 -0.226587 -0.079911 63.000000
2.220662 -0.233603 -0.080016 67.000000
2.219934 -0.240415 -0.080016 65.000000
2.221172 -0.247444 -0.080121 47.000000
2.220402 -0.254258 -0.080121 46.000000
2.220603 -0.261185 -0.080173 57.000000
2.221775 -0.268235 -0.080278 67.000000
2.220941 -0.275050 -0.080278 63.000000
2.220087 -0.281862 -0.080278 79.000000
2.225154 -0.289442 -0.080592 56.000000
2.220295 -0.295742 -0.080382 47.000000
2.221357 -0.302821 -0.080487 56.000000
2.220417 -0.309634 -0.080487 70.000000
2.219457 -0.316445 -0.080487 63.000000
2.220452 -0.323540 -0.080592 69.000000
2.221425 -0.330644 -0.080696 63.000000
2.221387 -0.337607 -0.080749 54.000000
2.223302 -0.344878 -0.080906 54.000000
2.230125 -0.352942 -0.081324 34.000000
2.231003 -0.360100 -0.081429 44.000000
2.226932 -0.366458 -0.081272 43.000000
2.229737 -0.373947 -0.081481 41.000000
2.227595 -0.380618 -0.081429 45.000000
2.216577 -0.385743 -0.080906 28.000000
2.206532 -0.390978 -0.080435 9.000000
2.139687 0.439913 -0.104440 45.000000
2.142982 0.433742 -0.104569 61.000000
2.146260 0.427555 -0.104699 72.000000
2.146583 0.420776 -0.104634 61.000000
2.146884 0.414000 -0.104569 65.000000
2.148144 0.407412 -0.104569 53.000000
2.148402 0.400636 -0.104504 54.000000
2.152566 0.394583 -0.104699 83.000000
2.154749 0.388154 -0.104763 81.000000
2.157895 0.381889 -0.104893 85.000000
2.159056 0.375266 -0.104893 57.000000
2.160197 0.368641 -0.104893 63.000000
2.162303 0.362176 -0.104957 77.000000
2.162419 0.355379 -0.104893 73.000000
2.163499 0.348743 -0.104893 90.000000
2.164559 0.342104 -0.104893 75.000000
2.162640 0.335004 -0.104699 70.000000
2.163657 0.328367 -0.104699 79.000000
2.164654 0.321728 -0.104699 77.000000
2.162669 0.314655 -0.104504 64.000000
2.163624 0.308018 -0.104504 85.000000
2.163570 0.301242 -0.104440 76.000000
2.167451 0.295006 -0.104634 103.000000
2.166367 0.288092 -0.104504 76.000000
2.165262 0.281187 -0.104375 69.000000
2.166114 0.274543 -0.104375 61.000000
2.168927 0.268141 -0.104504 93.000000
2.169739 0.261485 -0.104504 75.000000
2.168549 0.254595 -0.104375 84.000000
2.166346 0.247602 -0.104181 63.000000
2.166103 0.240844 -0.104116 62.000000
2.165840 0.234090 -0.104051 80.000000
2.167540 0.227549 -0.104116 79.000000
2.168228 0.220898 -0.104116 87.000000
2.165916 0.213951 -0.103922 68.000000
2.172523 0.207874 -0.104310 84.000000
2.171163 0.201024 -0.104181 76.000000
2.174752 0.194629 -0.104375 95.000000
2.177327 0.188127 -0.104504 70.000000
2.174910 0.181198 -0.104310 79.000000
2.177445 0.174684 -0.104440 83.000000
2.181951 0.168309 -0.104699 75.000000
2.182457 0.161614 -0.104699 60.000000
2.185929 0.155129 -0.104893 74.000000
2.185399 0.148355 -0.104828 67.000000
2.183852 0.141521 -0.104699 85.000000
2.184276 0.134820 -0.104699 67.000000
2.185675 0.128176 -0.104763 81.000000
2.183069 0.121305 -0.104569 77.000000
2.182434 0.114554 -0.104504 84.000000
2.182776 0.107858 -0.104504 84.000000
2.184093 0.101207 -0.104569 73.000000
2.188381 0.094678 -0.104828 64.000000
2.189659 0.088003 -0.104893 81.000000
2.190916 0.081322 -0.104957 85.000000
2.192152 0.074634 -0.105022 80.000000
2.193368 0.067939 -0.105087 86.000000
2.190574 0.061126 -0.104893 67.000000
2.193744 0.054479 -0.105087 79.000000
2.193900 0.047749 -0.105087 75.000000
2.195035 0.041036 -0.105151 94.000000
2.193154 0.034271 -0.105022 73.000000
2.193249 0.027542 -0.105022 85.000000
2.196317 0.020841 -0.105216 83.000000
2.198366 0.014115 -0.105346 74.000000
2.194408 0.007358 -0.105087 84.000000
2.197414 0.000626 -0.105281 86.000000
2.198403 -0.006119 -0.105346 70.000000
2.200370 -0.012875 -0.105475 60.000000
2.200320 -0.019626 -0.105475 78.000000
2.197256 -0.026340 -0.105281 70.000000
2.197165 -0.033081 -0.105281 70.000000
2.201044 -0.039894 -0.105540 71.000000
2.198916 -0.046604 -0.105410 89.000000
2.199760 -0.053375 -0.105475 77.000000
2.201581 -0.060178 -0.105604 98.000000
2.202384 -0.066963 -0.105669 75.000000
2.205160 -0.073820 -0.105863 100.000000
2.203926 -0.080548 -0.105799 77.000000
2.202671 -0.087270 -0.105734 78.000000
2.203390 -0.094070 -0.105799 78.000000
2.201097 -0.100738 -0.105669 87.000000
2.200778 -0.107490 -0.105669 83.000000
2.200438 -0.114241 -0.105669 80.000000
2.202070 -0.121102 -0.105799 70.000000
2.204676 -0.128031 -0.105993 72.000000
2.207261 -0.134978 -0.106187 76.000000
2.207833 -0.141813 -0.106252 75.000000
2.207387 -0.148586 -0.106252 67.000000
2.210903 -0.155638 -0.106510 91.000000
2.217381 -0.162933 -0.106963 103.000000
2.216871 -0.169736 -0.106963 81.000000
2.223303 -0.177092 -0.107416 92.000000
2.224738 -0.184077 -0.107546 87.000000
2.227145 -0.191158 -0.107740 81.000000
2.228536 -0.198167 -0.107869 89.000000
2.226924 -0.204911 -0.107804 91.000000
2.229265 -0.212027 -0.107999 92.000000
2.227611 -0.218767 -0.107934 95.000000
2.228915 -0.225802 -0.108063 91.000000
2.229205 -0.232743 -0.108128 84.000000
2.230464 -0.239795 -0.108257 96.000000
2.231702 -0.246856 -0.108387 89.000000
2.231926 -0.253815 -0.108452 69.000000
2.233119 -0.260893 -0.108581 65.000000
2.234289 -0.267981 -0.108710 70.000000
2.236428 -0.275200 -0.108904 77.000000
2.239533 -0.282561 -0.109163 66.000000
2.238656 -0.289430 -0.109163 77.000000
2.237757 -0.296297 -0.109163 68.000000
2.233871 -0.302758 -0.108969 86.000000
2.229966 -0.309198 -0.108775 74.000000
2.231972 -0.316459 -0.108969 81.000000
2.226052 -0.322589 -0.108646 86.000000
2.222091 -0.328978 -0.108452 58.000000
2.226004 -0.336540 -0.108775 82.000000
2.224961 -0.343368 -0.108775 71.000000
2.231783 -0.351436 -0.109293 40.000000
2.233650 -0.358756 -0.109487 67.000000
2.231554 -0.365446 -0.109422 57.000000
2.232391 -0.372619 -0.109552 66.000000
2.238124 -0.380639 -0.110004 74.000000
2.236946 -0.387504 -0.110004 55.000000
2.252452 -0.397314 -0.111104 12.000000
2.251222 -0.404223 -0.111104 6.000000
2.152253 0.433841 -0.131162 54.000000
2.155529 0.427625 -0.131315 53.000000
2.158789 0.421393 -0.131468 49.000000
2.156155 0.414013 -0.131162 51.000000
2.157415 0.407396 -0.131162 42.000000
2.155714 0.400228 -0.130933 48.000000
2.156932 0.393613 -0.130933 59.000000
2.161073 0.387523 -0.131162 68.000000
2.161270 0.380717 -0.131086 46.000000
2.160463 0.373744 -0.130933 54.000000
2.162582 0.367281 -0.131009 51.000000
2.163699 0.360645 -0.131009 63.000000
2.160860 0.353359 -0.130703 63.000000
2.161934 0.346728 -0.130703 68.000000
2.162987 0.340094 -0.130703 69.000000
2.165991 0.333761 -0.130856 58.000000
2.163062 0.326517 -0.130550 52.000000
2.166026 0.320172 -0.130703 78.000000
2.167984 0.313669 -0.130780 62.000000
2.173872 0.307717 -0.131162 61.000000
2.170856 0.300497 -0.130856 54.000000
2.170779 0.293702 -0.130780 58.000000
2.167717 0.286516 -0.130473 73.000000
2.165619 0.279479 -0.130244 61.000000
2.163499 0.272459 -0.130014 65.000000
2.164325 0.265820 -0.130014 59.000000
2.162160 0.258822 -0.129784 58.000000
2.163934 0.252303 -0.129861 57.000000
2.164698 0.245663 -0.129861 66.000000
2.165442 0.239021 -0.129861 68.000000
2.169139 0.232697 -0.130091 78.000000
2.171826 0.226248 -0.130244 65.000000
2.173502 0.219685 -0.130320 57.000000
2.174165 0.213016 -0.130320 64.000000
2.177786 0.206629 -0.130550 61.000000
2.177417 0.199855 -0.130473 56.000000
2.180006 0.193351 -0.130626 60.000000
2.181582 0.186747 -0.130703 57.000000
2.181152 0.179971 -0.130626 53.000000
2.177718 0.172960 -0.130320 65.000000
2.180227 0.166431 -0.130473 65.000000
2.177744 0.159522 -0.130244 69.000000
2.175239 0.152629 -0.130014 51.000000
2.179677 0.146223 -0.130320 63.000000
2.179120 0.139471 -0.130244 71.000000
2.179537 0.132785 -0.130244 73.000000
2.182921 0.126272 -0.130473 58.000000
2.183298 0.119575 -0.130473 69.000000
2.184650 0.112928 -0.130550 62.000000
2.187974 0.106372 -0.130780 56.000000
2.187294 0.099613 -0.130703 67.000000
2.187589 0.092902 -0.130703 79.000000
2.191849 0.086349 -0.131009 68.000000
2.194096 0.079697 -0.131162 59.000000
2.193334 0.072932 -0.131086 71.000000
2.194544 0.066233 -0.131162 59.000000
2.194737 0.059500 -0.131162 59.000000
2.194909 0.052766 -0.131162 60.000000
2.195061 0.046032 -0.131162 73.000000
2.192201 0.039243 -0.130933 43.000000
2.194305 0.032547 -0.131086 64.000000
2.196389 0.025840 -0.131239 59.000000
2.198452 0.019120 -0.131392 62.000000
2.199497 0.012381 -0.131468 57.000000
2.200522 0.005636 -0.131545 57.000000
2.203520 -0.001115 -0.131775 63.000000
2.202509 -0.007872 -0.131698 66.000000
2.201477 -0.014623 -0.131622 47.000000
2.203416 -0.021396 -0.131775 62.000000
2.205334 -0.028180 -0.131928 63.000000
2.205237 -0.034946 -0.131928 79.000000
2.205120 -0.041711 -0.131928 54.000000
2.208969 -0.048562 -0.132234 69.000000
2.210803 -0.055387 -0.132387 48.000000
2.210622 -0.062170 -0.132387 61.000000
2.213411 -0.069043 -0.132617 55.000000
2.215182 -0.075901 -0.132770 55.000000
2.213942 -0.082660 -0.132693 57.000000
2.215671 -0.089531 -0.132846 54.000000
2.210405 -0.096114 -0.132463 44.000000
2.211096 -0.102941 -0.132540 55.000000
2.213757 -0.109871 -0.132770 85.000000
2.209427 -0.116454 -0.132463 50.000000
2.210055 -0.123287 -0.132540 57.000000
2.212652 -0.130241 -0.132770 50.000000
2.212242 -0.137029 -0.132770 66.000000
2.211811 -0.143815 -0.132770 56.000000
2.211360 -0.150600 -0.132770 48.000000
2.210887 -0.157384 -0.132770 52.000000
2.215366 -0.164533 -0.133152 60.000000
2.218827 -0.171634 -0.133459 45.000000
2.219284 -0.178520 -0.133535 66.000000
2.223694 -0.185740 -0.133918 55.000000
2.226094 -0.192818 -0.134147 66.000000
2.227478 -0.199824 -0.134301 54.000000
2.230826 -0.207023 -0.134607 60.000000
2.231173 -0.213961 -0.134683 65.000000
2.232491 -0.221001 -0.134836 57.000000
2.228826 -0.227547 -0.134607 74.000000
2.225142 -0.234072 -0.134377 55.000000
2.218466 -0.240257 -0.133918 43.000000
2.229610 -0.248380 -0.134836 56.000000
2.225866 -0.254881 -0.134607 76.000000
2.224083 -0.261592 -0.134530 57.000000
2.224260 -0.268533 -0.134607 55.000000
2.226395 -0.275722 -0.134836 57.000000
2.218614 -0.281676 -0.134301 39.000000
2.228616 -0.289890 -0.135143 66.000000
2.229693 -0.296988 -0.135296 49.000000
2.228771 -0.303828 -0.135296 47.000000
2.230791 -0.311076 -0.135525 49.000000
2.232788 -0.318339 -0.135755 52.000000
2.232788 -0.325331 -0.135831 51.000000
2.230793 -0.332033 -0.135755 35.000000
2.235678 -0.339771 -0.136214 40.000000
2.233640 -0.346476 -0.136138 46.000000
2.239461 -0.354415 -0.136673 45.000000
2.241317 -0.361759 -0.136903 46.000000
2.242164 -0.368956 -0.137056 43.000000
2.242005 -0.375998 -0.137133 39.000000
2.241823 -0.383042 -0.137209 47.000000
2.240638 -0.389918 -0.137209 38.000000
2.201138 -0.390025 -0.134224 7.000000
2.148956 0.434175 -0.157691 44.000000
2.154186 0.428356 -0.158046 47.000000
2.155490 0.421745 -0.158046 65.000000
2.156774 0.415130 -0.158046 70.000000
2.158038 0.408511 -0.158046 70.000000
2.161239 0.402253 -0.158224 65.000000
2.160503 0.395262 -0.158046 85.000000
2.160726 0.388456 -0.157958 69.000000
2.160926 0.381652 -0.157869 75.000000
2.163068 0.375191 -0.157958 56.000000
2.161263 0.368052 -0.157691 84.000000
2.162382 0.361419 -0.157691 88.000000
2.162498 0.354622 -0.157603 44.000000
2.165543 0.348302 -0.157780 71.000000
2.166601 0.341657 -0.157780 66.000000
2.167639 0.335008 -0.157780 70.000000
2.167672 0.328208 -0.157691 74.000000
2.166698 0.321264 -0.157514 94.000000
2.167673 0.314615 -0.157514 84.000000
2.171587 0.308383 -0.157780 69.000000
2.171536 0.301582 -0.157691 77.000000
2.171464 0.294785 -0.157603 83.000000
2.174333 0.288383 -0.157780 65.000000
2.175208 0.281711 -0.157780 83.000000
2.176062 0.275036 -0.157780 86.000000
2.173930 0.267994 -0.157514 64.000000
2.174742 0.261323 -0.157514 80.000000
2.176522 0.254765 -0.157603 100.000000
2.176304 0.247974 -0.157514 78.000000
2.174084 0.240967 -0.157248 93.000000
2.174814 0.234296 -0.157248 93.000000
2.174531 0.227519 -0.157159 83.000000
2.177201 0.221048 -0.157337 87.000000
2.177869 0.214367 -0.157337 90.000000
2.178517 0.207685 -0.157337 85.000000
2.181127 0.201183 -0.157514 96.000000
2.180742 0.194402 -0.157425 78.000000
2.182321 0.187796 -0.157514 84.000000
2.181894 0.181017 -0.157425 70.000000
2.182439 0.174323 -0.157425 81.000000
2.185943 0.167854 -0.157691 82.000000
2.184461 0.161001 -0.157514 68.000000
2.186932 0.154439 -0.157691 71.000000
2.192364 0.148063 -0.158135 79.000000
2.193802 0.141400 -0.158224 74.000000
2.196214 0.134791 -0.158401 84.000000
2.197612 0.128110 -0.158490 82.000000
2.196005 0.121258 -0.158312 85.000000
2.199351 0.114675 -0.158579 83.000000
2.197703 0.107830 -0.158401 78.000000
2.197028 0.101041 -0.158312 85.000000
2.197328 0.094300 -0.158312 64.000000
2.202583 0.087756 -0.158756 96.000000
2.200851 0.080925 -0.158579 88.000000
2.201089 0.074173 -0.158579 99.000000
2.199315 0.067359 -0.158401 83.000000
2.199512 0.060611 -0.158401 76.000000
2.198691 0.053839 -0.158312 74.000000
2.195859 0.047029 -0.158046 88.000000
2.193005 0.040238 -0.157780 96.000000
2.197102 0.033570 -0.158135 84.000000
2.199186 0.026853 -0.158312 85.000000
2.199258 0.020106 -0.158312 81.000000
2.203294 0.013382 -0.158667 74.000000
2.202329 0.006620 -0.158579 69.000000
2.207319 -0.000138 -0.159022 69.000000
2.213284 -0.006930 -0.159555 57.000000
2.211261 -0.013707 -0.159377 58.000000
2.211208 -0.020491 -0.159377 73.000000
2.214123 -0.027312 -0.159643 69.000000
2.214029 -0.034105 -0.159643 69.000000
2.218893 -0.040990 -0.160087 87.000000
2.219753 -0.047819 -0.160176 57.000000
2.215612 -0.054530 -0.159821 81.000000
2.215435 -0.061328 -0.159821 80.000000
2.216232 -0.068155 -0.159909 72.000000
2.218003 -0.075022 -0.160087 55.000000
2.214777 -0.081715 -0.159821 72.000000
2.214515 -0.088510 -0.159821 65.000000
2.214233 -0.095303 -0.159821 64.000000
2.213931 -0.102096 -0.159821 80.000000
2.217587 -0.109084 -0.160176 72.000000
2.219231 -0.115992 -0.160353 48.000000
2.220853 -0.122910 -0.160530 56.000000
2.220466 -0.129723 -0.160530 56.000000
2.220057 -0.136535 -0.160530 62.000000
2.218634 -0.143281 -0.160442 74.000000
2.219178 -0.150154 -0.160530 65.000000
2.220694 -0.157103 -0.160708 85.000000
2.220201 -0.163915 -0.160708 58.000000
2.219688 -0.170726 -0.160708 76.000000
2.222132 -0.177773 -0.160974 70.000000
2.220584 -0.184507 -0.160885 66.000000
2.222985 -0.191576 -0.161151 57.000000
2.221394 -0.198307 -0.161063 69.000000
2.222759 -0.205304 -0.161240 62.000000
2.225093 -0.212407 -0.161506 64.000000
2.224431 -0.219233 -0.161506 73.000000
2.226721 -0.226359 -0.161773 53.000000
2.226016 -0.233189 -0.161773 53.000000
2.228261 -0.240339 -0.162039 61.000000
2.233453 -0.247834 -0.162571 45.000000
2.230703 -0.254459 -0.162394 75.000000
2.231890 -0.261533 -0.162571 65.000000
2.234044 -0.268737 -0.162837 70.000000
2.237163 -0.276078 -0.163192 79.000000
2.238282 -0.283191 -0.163370 73.000000
2.239378 -0.290313 -0.163547 63.000000
2.239464 -0.297313 -0.163636 46.000000
2.238542 -0.304182 -0.163636 70.000000
2.243517 -0.311872 -0.164168 55.000000
2.239591 -0.318333 -0.163902 68.000000
2.241561 -0.325633 -0.164168 61.000000
2.243507 -0.332947 -0.164434 66.000000
2.239521 -0.339380 -0.164168 72.000000
2.245360 -0.347317 -0.164789 49.000000
2.244283 -0.354204 -0.164789 44.000000
2.240236 -0.360612 -0.164523 51.000000
2.242068 -0.367968 -0.164789 81.000000
2.236999 -0.374186 -0.164434 75.000000
2.237804 -0.381383 -0.164612 60.000000
2.237605 -0.388417 -0.164700 51.000000
2.214825 -0.391462 -0.162748 11.000000
2.202830 -0.396313 -0.161773 7.000000
2.147457 0.433258 -0.185128 31.000000
2.155606 0.428028 -0.185837 48.000000
2.155933 0.421221 -0.185736 47.000000
2.163076 0.415735 -0.186343 50.000000
2.167274 0.409653 -0.186647 51.000000
2.171454 0.403548 -0.186950 52.000000
2.175618 0.397422 -0.187254 49.000000
2.173890 0.390217 -0.186950 48.000000
2.175077 0.383546 -0.186950 59.000000
2.177223 0.377041 -0.187052 61.000000
2.172486 0.369356 -0.186444 59.000000
2.172627 0.362525 -0.186343 59.000000
2.176674 0.356342 -0.186647 47.000000
2.176775 0.349504 -0.186545 56.000000
2.177837 0.342824 -0.186545 43.000000
2.174946 0.335532 -0.186141 55.000000
2.173998 0.328559 -0.185938 62.000000
2.174012 0.321742 -0.185837 46.000000
2.173020 0.314784 -0.185634 46.000000
2.174960 0.308256 -0.185736 58.000000
2.173925 0.301308 -0.185533 63.000000
2.179768 0.295307 -0.186039 47.000000
2.177705 0.288225 -0.185736 56.000000
2.179566 0.281671 -0.185837 44.000000
2.180420 0.274983 -0.185837 57.000000
2.178291 0.267926 -0.185533 50.000000
2.180090 0.261361 -0.185634 46.000000
2.184834 0.255135 -0.186039 42.000000
2.185607 0.248431 -0.186039 46.000000
2.187348 0.241834 -0.186141 50.000000
2.188079 0.235122 -0.186141 52.000000
2.190769 0.228616 -0.186343 43.000000
2.191460 0.221893 -0.186343 53.000000
2.192131 0.215169 -0.186343 41.000000
2.190800 0.208253 -0.186141 58.000000
2.189447 0.201348 -0.185938 64.000000
2.188073 0.194453 -0.185736 48.000000
2.188659 0.187739 -0.185736 45.000000
2.188233 0.180941 -0.185634 47.000000
2.192745 0.174544 -0.186039 55.000000
2.192278 0.167740 -0.185938 49.000000
2.193774 0.161087 -0.186039 52.000000
2.197235 0.154566 -0.186343 61.000000
2.199684 0.147959 -0.186545 52.000000
2.198142 0.141082 -0.186343 52.000000
2.202537 0.134582 -0.186748 47.000000
2.201946 0.127766 -0.186647 47.000000
2.205308 0.121175 -0.186950 53.000000
2.203682 0.114305 -0.186748 48.000000
2.201041 0.107396 -0.186444 47.000000
2.202355 0.100689 -0.186545 49.000000
2.200665 0.093846 -0.186343 41.000000
2.200943 0.087094 -0.186343 42.000000
2.205176 0.080488 -0.186748 51.000000
2.203424 0.073655 -0.186545 43.000000
2.209606 0.067079 -0.187153 46.000000
2.213780 0.060410 -0.187558 46.000000
2.213954 0.053618 -0.187558 46.000000
2.214109 0.046826 -0.187558 46.000000
2.211258 0.039977 -0.187254 56.000000
2.214354 0.033239 -0.187558 60.000000
2.214446 0.026446 -0.187558 49.000000
2.211532 0.019624 -0.187254 41.000000
2.210587 0.012832 -0.187153 58.000000
2.208626 0.006044 -0.186950 53.000000
2.211619 -0.000732 -0.187254 63.000000
2.217575 -0.007534 -0.187861 56.000000
2.216547 -0.014331 -0.187760 53.000000
2.216493 -0.021132 -0.187760 46.000000
2.213433 -0.027896 -0.187457 37.000000
2.218311 -0.034761 -0.187963 56.000000
2.222172 -0.041639 -0.188368 76.000000
2.226013 -0.048541 -0.188773 58.000000
2.224859 -0.055346 -0.188671 54.000000
2.227662 -0.062254 -0.188975 63.000000
2.225472 -0.069027 -0.188773 43.000000
2.230221 -0.076021 -0.189279 44.000000
2.231966 -0.082936 -0.189481 45.000000
2.236671 -0.089981 -0.189987 53.000000
2.239367 -0.096970 -0.190291 59.000000
2.244027 -0.104067 -0.190797 53.000000
2.241710 -0.110854 -0.190595 55.000000
2.249308 -0.118144 -0.191405 64.000000
2.243968 -0.124771 -0.190898 60.000000
2.243575 -0.131655 -0.190898 66.000000
2.247132 -0.138781 -0.191303 50.000000
2.242724 -0.145419 -0.190898 63.000000
2.246238 -0.152566 -0.191303 50.000000
2.242783 -0.159247 -0.191000 51.000000
2.253197 -0.166930 -0.192113 38.000000
2.240771 -0.172930 -0.190898 54.000000
2.237255 -0.179566 -0.190595 46.000000
2.253549 -0.187825 -0.192316 27.000000
2.237102 -0.193375 -0.190696 34.000000
2.222625 -0.199003 -0.189279 32.000000
2.221014 -0.205730 -0.189177 25.000000
2.225324 -0.213014 -0.189684 20.000000
2.176106 0.433103 -0.214429 44.000000
2.176449 0.426234 -0.214316 62.000000
2.174819 0.418991 -0.213977 59.000000
2.175118 0.412132 -0.213864 71.000000
2.175395 0.405275 -0.213751 67.000000
2.175652 0.398420 -0.213638 66.000000
2.176864 0.391744 -0.213638 56.000000
2.176098 0.384718 -0.213412 66.000000
2.177269 0.378040 -0.213412 66.000000
2.176459 0.371025 -0.213186 58.000000
2.176607 0.364182 -0.213073 70.000000
2.178694 0.357663 -0.213186 69.000000
2.181744 0.351293 -0.213412 61.000000
2.181830 0.344443 -0.213299 81.000000
2.185822 0.338203 -0.213638 59.000000
2.185867 0.331347 -0.213525 58.000000
2.190804 0.325222 -0.213977 67.000000
2.191792 0.318499 -0.213977 69.000000
2.188824 0.311214 -0.213525 73.000000
2.186816 0.304088 -0.213186 57.000000
2.188723 0.297511 -0.213299 52.000000
2.185686 0.290272 -0.212847 53.000000
2.186566 0.283565 -0.212847 66.000000
2.184468 0.276482 -0.212507 68.000000
2.188265 0.270143 -0.212847 64.000000
2.193029 0.263903 -0.213299 68.000000
2.193828 0.257173 -0.213299 65.000000
2.195594 0.250554 -0.213412 81.000000
2.197340 0.243926 -0.213525 61.000000
2.196103 0.236971 -0.213299 65.000000
2.196819 0.230232 -0.213299 56.000000
2.192573 0.222990 -0.212734 80.000000
2.192258 0.216164 -0.212621 60.000000
2.185987 0.208778 -0.211829 67.000000
2.187606 0.202161 -0.211942 79.000000
2.202071 0.196684 -0.213525 59.000000
2.208604 0.190438 -0.214203 49.000000
2.189374 0.182019 -0.211942 79.000000
2.191903 0.175459 -0.212168 84.000000
2.212245 0.170255 -0.214429 61.000000
2.229602 0.164709 -0.216350 55.000000
2.215230 0.156818 -0.214655 69.000000
2.215701 0.150021 -0.214655 75.000000
2.223091 0.143670 -0.215446 69.000000
2.234431 0.137518 -0.216690 67.000000
2.233850 0.130605 -0.216577 64.000000
2.238209 0.123970 -0.217029 86.000000
2.240563 0.117206 -0.217255 75.000000
2.239920 0.110283 -0.217142 57.000000
2.243225 0.103547 -0.217481 65.000000
2.245517 0.096750 -0.217707 88.000000
2.245804 0.089860 -0.217707 72.000000
2.245076 0.082933 -0.217594 73.000000
2.249292 0.076179 -0.218046 90.000000
2.252495 0.069369 -0.218385 68.000000
2.255676 0.062540 -0.218724 69.000000
2.258837 0.055692 -0.219063 59.000000
2.259991 0.048783 -0.219176 71.000000
2.254169 0.041740 -0.218498 53.000000
2.265215 0.034991 -0.219741 81.000000
2.265312 0.028042 -0.219741 91.000000
2.264394 0.021083 -0.219628 78.000000
2.262461 0.014123 -0.219402 74.000000
2.264480 0.007188 -0.219628 71.000000
2.262505 0.000241 -0.219402 52.000000
2.259514 -0.006691 -0.219063 75.000000
2.262464 -0.013642 -0.219402 56.000000
2.262411 -0.020583 -0.219402 49.000000
2.259356 -0.027487 -0.219063 39.000000
2.261249 -0.034449 -0.219289 77.000000
2.284975 -0.041827 -0.222002 169.000000
2.276889 -0.048665 -0.221098 118.000000
2.267789 -0.055431 -0.220080 92.000000
2.264628 -0.062305 -0.219741 84.000000
2.264427 -0.069253 -0.219741 87.000000
2.264204 -0.076200 -0.219741 79.000000
2.265945 -0.083219 -0.219967 103.000000
2.266672 -0.090210 -0.220080 95.000000
2.269362 -0.097292 -0.220420 90.000000
2.274016 -0.104483 -0.220985 82.000000
2.274677 -0.111508 -0.221098 90.000000
2.288215 -0.119212 -0.222680 50.000000
2.283871 -0.126012 -0.222228 87.000000
2.291409 -0.133481 -0.223132 81.000000
2.306856 -0.141487 -0.224941 62.000000
2.319301 -0.149396 -0.226410 40.000000
2.319823 -0.156578 -0.226523 41.000000
2.319331 -0.163694 -0.226523 30.000000
2.310891 -0.170224 -0.225619 12.000000
2.311349 -0.177389 -0.225732 7.000000
2.291977 0.189575 -0.252361 20.000000
2.299471 0.183097 -0.253239 31.000000
2.296065 0.175736 -0.252737 35.000000
2.296593 0.168691 -0.252737 36.000000
2.292151 0.161294 -0.252111 41.000000
2.286697 0.153858 -0.251359 54.000000
2.289138 0.146970 -0.251609 60.000000
2.286607 0.139763 -0.251233 48.000000
2.278111 0.132226 -0.250105 66.000000
2.279497 0.125291 -0.250231 50.000000
2.272936 0.117933 -0.249353 68.000000
2.275269 0.111057 -0.249604 49.000000
2.275599 0.104076 -0.249604 55.000000
2.271942 0.096923 -0.249103 52.000000
2.271238 0.089913 -0.248977 58.000000
2.272494 0.082981 -0.249103 66.000000
2.272738 0.076009 -0.249103 62.000000
2.274944 0.069097 -0.249353 70.000000
2.273162 0.062062 -0.249103 62.000000
2.273341 0.055088 -0.249103 69.000000
2.276475 0.048178 -0.249479 68.000000
2.281572 0.041285 -0.250105 65.000000
2.288632 0.034393 -0.250983 86.000000
2.286743 0.027347 -0.250732 66.000000
2.291776 0.020378 -0.251359 69.000000
2.305717 0.013435 -0.253113 106.000000
2.300787 0.006345 -0.252487 72.000000
2.307740 -0.000713 -0.253364 91.000000
2.293838 -0.007753 -0.251609 50.000000
2.295788 -0.014802 -0.251860 64.000000
2.302676 -0.021908 -0.252737 108.000000
2.303590 -0.028984 -0.252863 143.000000
2.299522 -0.035991 -0.252361 159.000000
2.258731 -0.042305 -0.247223 45.000000
2.256607 -0.049193 -0.246972 47.000000
2.256445 -0.056116 -0.246972 49.000000
2.260229 -0.063147 -0.247473 63.000000
2.257050 -0.069990 -0.247097 82.000000
2.255833 -0.076881 -0.246972 81.000000
2.255587 -0.083801 -0.246972 67.000000
2.259284 -0.090878 -0.247473 54.000000
2.259986 -0.097852 -0.247599 54.000000
2.259675 -0.104785 -0.247599 47.000000
2.266280 -0.112056 -0.248476 42.000000
2.271870 -0.119318 -0.249228 50.000000
2.280409 -0.126778 -0.250356 55.000000
2.293875 -0.134580 -0.252111 48.000000
2.303354 -0.142224 -0.253364 44.000000
2.312808 -0.149926 -0.254617 38.000000
2.323225 -0.157755 -0.255996 36.000000
2.325699 -0.165091 -0.256372 34.000000
2.294687 0.184469 -0.281069 30.000000
2.292279 0.177200 -0.280656 40.000000
2.296763 0.170459 -0.281206 34.000000
2.290359 0.162921 -0.280244 48.000000
2.291836 0.155960 -0.280381 66.000000
2.285385 0.148480 -0.279419 73.000000
2.279898 0.141102 -0.278595 76.000000
2.278342 0.133991 -0.278320 70.000000
2.270831 0.126560 -0.277220 71.000000
2.270220 0.119541 -0.277083 90.000000
2.275522 0.112820 -0.277770 72.000000
2.275857 0.105838 -0.277770 74.000000
2.279140 0.098984 -0.278182 74.000000
2.282403 0.092111 -0.278595 69.000000
2.279705 0.084998 -0.278182 74.000000
2.279955 0.078003 -0.278182 82.000000
2.282163 0.071069 -0.278457 83.000000
2.283361 0.064095 -0.278595 64.000000
2.283547 0.057090 -0.278595 62.000000
2.286682 0.050148 -0.279007 71.000000
2.290787 0.043206 -0.279557 78.000000
2.298831 0.036302 -0.280656 75.000000
2.304874 0.029324 -0.281481 74.000000
2.304954 0.022252 -0.281481 65.000000
2.310954 0.015219 -0.282306 65.000000
2.323866 0.008172 -0.284092 124.000000
2.338738 0.001047 -0.286154 267.000000
2.312977 -0.006057 -0.282581 80.000000
2.305024 -0.013106 -0.281481 90.000000
2.294077 -0.020081 -0.279969 54.000000
2.295986 -0.027143 -0.280244 67.000000
2.286978 -0.034052 -0.279007 55.000000
2.282902 -0.040997 -0.278457 76.000000
2.281775 -0.047979 -0.278320 71.000000
2.275676 -0.054835 -0.277495 68.000000
2.277477 -0.061871 -0.277770 91.000000
2.272326 -0.068707 -0.277083 79.000000
2.266165 -0.075480 -0.276258 94.000000
2.267902 -0.082504 -0.276533 78.000000
2.264669 -0.089344 -0.276121 80.000000
2.266364 -0.096376 -0.276396 85.000000
2.266057 -0.103328 -0.276396 68.000000
2.263751 -0.110184 -0.276121 68.000000
2.270327 -0.117488 -0.277083 69.000000
2.275890 -0.124779 -0.277907 53.000000
2.283407 -0.132220 -0.279007 56.000000
2.291888 -0.139769 -0.280244 57.000000
2.297379 -0.147180 -0.281069 39.000000
2.329530 -0.156423 -0.285604 26.000000
2.329040 -0.163569 -0.285604 27.000000
2.311605 0.183666 -0.311313 27.000000
2.297369 0.175436 -0.309075 37.000000
2.299869 0.168533 -0.309373 48.000000
2.298403 0.161337 -0.309075 34.000000
2.294940 0.154018 -0.308478 60.000000
2.293429 0.146849 -0.308180 50.000000
2.284986 0.139266 -0.306837 55.000000
2.280467 0.131967 -0.306091 63.000000
2.276912 0.124752 -0.305494 55.000000
2.273334 0.117559 -0.304898 47.000000
2.276647 0.110730 -0.305345 63.000000
2.276976 0.103745 -0.305345 68.000000
2.276295 0.096716 -0.305196 52.000000
2.281521 0.089929 -0.305942 57.000000
2.278822 0.082820 -0.305494 64.000000
2.283019 0.075962 -0.306091 72.000000
2.285218 0.069018 -0.306390 68.000000
2.284430 0.061979 -0.306240 71.000000
2.287575 0.055043 -0.306688 79.000000
2.291687 0.048110 -0.307285 70.000000
2.295779 0.041152 -0.307882 60.000000
2.301826 0.034199 -0.308777 63.000000
2.307853 0.027210 -0.309672 44.000000
2.308914 0.020139 -0.309821 75.000000
2.313909 0.013086 -0.310567 73.000000
2.325804 0.006023 -0.312357 69.000000
2.327789 -0.001112 -0.312656 160.000000
2.333708 -0.008272 -0.313551 198.000000
2.318840 -0.015341 -0.311313 58.000000
2.308894 -0.022364 -0.309821 59.000000
2.289040 -0.029205 -0.306837 39.000000
2.285973 -0.036183 -0.306390 53.000000
2.273988 -0.042977 -0.304599 44.000000
2.272857 -0.049933 -0.304450 51.000000
2.267750 -0.056784 -0.303704 52.000000
2.265589 -0.063687 -0.303406 57.000000
2.264394 -0.070607 -0.303257 65.000000
2.268120 -0.077687 -0.303853 66.000000
2.266883 -0.084609 -0.303704 72.000000
2.261672 -0.091366 -0.302958 45.000000
2.263357 -0.098389 -0.303257 56.000000
2.261069 -0.105242 -0.302958 43.000000
2.263698 -0.112323 -0.303406 45.000000
2.268280 -0.119525 -0.304152 59.000000
2.269878 -0.126593 -0.304450 58.000000
2.283298 -0.134362 -0.306539 49.000000
2.286823 -0.141609 -0.307136 46.000000
2.306113 -0.149897 -0.310119 30.000000
2.298737 -0.156505 -0.309075 39.000000
2.309095 -0.164323 -0.310716 9.000000
2.293494 0.169817 -0.336607 41.000000
2.294004 0.162780 -0.336607 46.000000
2.286616 0.155208 -0.335318 63.000000
2.290035 0.148383 -0.335801 73.000000
2.284570 0.140993 -0.334835 60.000000
2.287947 0.134156 -0.335318 56.000000
2.285392 0.126972 -0.334835 55.000000
2.280843 0.119702 -0.334029 58.000000
2.283170 0.112801 -0.334352 60.000000
2.288435 0.106024 -0.335157 78.000000
2.285792 0.098875 -0.334674 87.000000
2.289043 0.091980 -0.335157 75.000000
2.287342 0.084884 -0.334835 60.000000
2.295482 0.078133 -0.336123 75.000000
2.298671 0.071182 -0.336607 62.000000
2.301838 0.064211 -0.337090 71.000000
2.303011 0.057173 -0.337251 66.000000
2.308109 0.050214 -0.338057 85.000000
2.315159 0.043261 -0.339184 63.000000
2.323176 0.036280 -0.340473 68.000000
2.326237 0.029189 -0.340956 63.000000
2.332237 0.022107 -0.341923 62.000000
2.337228 0.014982 -0.342728 63.000000
2.341211 0.007824 -0.343372 69.000000
2.345172 0.000642 -0.344017 113.000000
2.355032 -0.006582 -0.345628 193.000000
2.324406 -0.013623 -0.340634 74.000000
2.322380 -0.020736 -0.340312 80.000000
2.311450 -0.027729 -0.338540 82.000000
2.305433 -0.034730 -0.337573 53.000000
2.295447 -0.041622 -0.335962 54.000000
2.292349 -0.048601 -0.335479 53.000000
2.291202 -0.055609 -0.335318 56.000000
2.285101 -0.062476 -0.334352 74.000000
2.283912 -0.069456 -0.334190 78.000000
2.284675 -0.076496 -0.334352 61.000000
2.282457 -0.083432 -0.334029 83.000000
2.287121 -0.090630 -0.334835 83.000000
2.275986 -0.097182 -0.333063 59.000000
2.276663 -0.104209 -0.333224 45.000000
2.276332 -0.111194 -0.333224 67.000000
2.278937 -0.118331 -0.333707 60.000000
2.284476 -0.125648 -0.334674 65.000000
2.285065 -0.132713 -0.334835 55.000000
2.301394 -0.140750 -0.337573 44.000000
2.324589 -0.149333 -0.341439 28.000000
2.322150 -0.156331 -0.341117 19.000000
2.295341 0.161120 -0.365122 39.000000
2.304669 0.154675 -0.366679 28.000000
2.293338 0.146843 -0.364603 34.000000
2.294761 0.139867 -0.364776 36.000000
2.299112 0.133055 -0.365468 43.000000
2.293609 0.125675 -0.364430 61.000000
2.291033 0.118484 -0.363911 57.000000
2.292369 0.111503 -0.364084 51.000000
2.295652 0.104605 -0.364603 38.000000
2.288090 0.097223 -0.363220 45.000000
2.287394 0.090164 -0.363047 55.000000
2.282738 0.082964 -0.362182 42.000000
2.283967 0.075994 -0.362355 42.000000
2.295018 0.069319 -0.364257 53.000000
2.299158 0.062386 -0.364949 59.000000
2.306231 0.055502 -0.366160 74.000000
2.317222 0.048659 -0.368063 78.000000
2.322284 0.041640 -0.368927 58.000000
2.333234 0.034682 -0.370830 60.000000
2.339239 0.027596 -0.371868 66.000000
2.342267 0.020447 -0.372387 73.000000
2.351183 0.013315 -0.373943 50.000000
2.350228 0.006099 -0.373770 83.000000
2.354175 -0.001112 -0.374462 214.000000
2.341357 -0.008295 -0.372214 69.000000
2.334426 -0.015436 -0.371003 65.000000
2.320579 -0.022471 -0.368581 51.000000
2.320499 -0.029591 -0.368581 41.000000
2.310549 -0.036559 -0.366852 56.000000
2.303533 -0.043521 -0.365641 46.000000
2.297480 -0.050461 -0.364603 43.000000
2.294361 -0.057437 -0.364084 42.000000
2.292205 -0.064421 -0.363739 48.000000
2.290027 -0.071393 -0.363393 59.000000
2.287829 -0.078352 -0.363047 68.000000
2.290530 -0.085479 -0.363566 56.000000
2.293210 -0.092624 -0.364084 55.000000
2.293899 -0.099701 -0.364257 52.000000
2.289647 -0.106557 -0.363566 70.000000
2.289309 -0.113581 -0.363566 57.000000
2.292884 -0.120809 -0.364257 58.000000
2.290536 -0.127734 -0.363911 51.000000
2.303899 -0.135564 -0.366333 41.000000
2.308388 -0.142934 -0.367198 28.000000
2.307938 -0.150015 -0.367198 16.000000
2.319887 0.163804 -0.397351 24.000000
2.320379 0.156686 -0.397351 38.000000
2.324772 0.149818 -0.398089 33.000000
2.318354 0.142265 -0.396797 37.000000
2.307986 0.134525 -0.394768 52.000000
2.301518 0.127065 -0.393477 53.000000
2.303861 0.120106 -0.393846 70.000000
2.302255 0.112941 -0.393477 73.000000
2.306518 0.106057 -0.394215 83.000000
2.306832 0.098980 -0.394215 59.000000
2.308107 0.091941 -0.394399 56.000000
2.303468 0.084680 -0.393477 50.000000
2.302734 0.077580 -0.393293 43.000000
2.306891 0.070634 -0.394030 43.000000
2.305132 0.063503 -0.393662 67.000000
2.310229 0.056550 -0.394584 52.000000
2.320217 0.049671 -0.396429 66.000000
2.329203 0.042713 -0.398089 60.000000
2.343081 0.035775 -0.400671 68.000000
2.355956 0.028740 -0.403069 59.000000
2.357999 0.021529 -0.403438 59.000000
2.370830 0.014370 -0.405836 86.000000
2.371846 0.007099 -0.406021 81.000000
2.367925 -0.000177 -0.405283 215.000000
2.361034 -0.007419 -0.403992 77.000000
2.346258 -0.014568 -0.401225 57.000000
2.334408 -0.021655 -0.399011 45.000000
2.331383 -0.028780 -0.398458 51.000000
2.320473 -0.035764 -0.396429 52.000000
2.317405 -0.042828 -0.395875 50.000000
2.310384 -0.049788 -0.394584 63.000000
2.304326 -0.056730 -0.393477 61.000000
2.308071 -0.063908 -0.394215 66.000000
2.308846 -0.071019 -0.394399 42.000000
2.300759 -0.077835 -0.392924 67.000000
2.304438 -0.085039 -0.393662 72.000000
2.302202 -0.092030 -0.393293 75.000000
2.302891 -0.099135 -0.393477 65.000000
2.302576 -0.106200 -0.393477 58.000000
2.296350 -0.112973 -0.392370 67.000000
2.301881 -0.120326 -0.393477 66.000000
2.306408 -0.127660 -0.394399 55.000000
2.304043 -0.134620 -0.394030 56.000000
2.309505 -0.142051 -0.395137 43.000000
2.316904 -0.149644 -0.396613 12.000000
2.337119 0.164074 -0.429244 24.000000
2.332720 0.156572 -0.428264 25.000000
2.330253 0.149225 -0.427675 35.000000
2.336572 0.142436 -0.428852 32.000000
2.318399 0.134181 -0.425126 44.000000
2.308030 0.126472 -0.422969 54.000000
2.300573 0.118982 -0.421400 60.000000
2.302886 0.112019 -0.421792 50.000000
2.306158 0.105089 -0.422380 64.000000
2.301571 0.097803 -0.421400 46.000000
2.306759 0.090937 -0.422380 52.000000
2.306047 0.083823 -0.422184 52.000000
2.303354 0.076649 -0.421596 46.000000
2.310438 0.069792 -0.422969 39.000000
2.310642 0.062704 -0.422969 68.000000
2.312784 0.055663 -0.423361 61.000000
2.319806 0.048714 -0.424734 80.000000
2.331710 0.041814 -0.427087 47.000000
2.340651 0.034796 -0.428852 49.000000
2.346630 0.027687 -0.430029 38.000000
2.346704 0.020487 -0.430029 35.000000
2.361464 0.013378 -0.432971 51.000000
2.366397 0.006149 -0.433951 79.000000
2.374249 -0.001111 -0.435520 236.000000
2.355604 -0.008339 -0.431794 50.000000
2.346742 -0.015512 -0.430029 45.000000
2.342762 -0.022675 -0.429244 48.000000
2.330915 -0.029718 -0.426891 38.000000
2.330813 -0.036869 -0.426891 55.000000
2.322845 -0.043876 -0.425322 49.000000
2.317798 -0.050897 -0.424341 55.000000
2.310769 -0.057839 -0.422969 58.000000
2.307640 -0.064847 -0.422380 57.000000
2.303510 -0.071806 -0.421596 55.000000
2.302299 -0.078840 -0.421400 52.000000
2.302046 -0.085903 -0.421400 48.000000
2.305691 -0.093121 -0.422184 51.000000
2.300495 -0.099984 -0.421204 52.000000
2.298219 -0.106952 -0.420811 49.000000
2.296901 -0.113954 -0.420615 53.000000
2.295561 -0.120949 -0.420419 38.000000
2.302033 -0.128370 -0.421792 41.000000
2.295754 -0.135089 -0.420615 36.000000
2.320776 -0.143695 -0.425714 20.000000
2.338439 -0.159188 -0.429441 13.000000
2.360159 0.160187 -0.462854 30.000000
2.352830 0.152441 -0.461192 29.000000
2.339618 0.144381 -0.458284 37.000000
2.333214 0.136802 -0.456830 38.000000
2.322880 0.129049 -0.454544 48.000000
2.314473 0.121462 -0.452675 61.000000
2.313858 0.114312 -0.452467 49.000000
2.315174 0.107258 -0.452675 56.000000
2.317447 0.100239 -0.453090 66.000000
2.322631 0.093324 -0.454129 57.000000
2.326816 0.086342 -0.454960 57.000000
2.325115 0.079137 -0.454544 54.000000
2.332191 0.072214 -0.455999 53.000000
2.334357 0.065113 -0.456414 49.000000
2.340413 0.058096 -0.457661 62.000000
2.348404 0.051084 -0.459323 69.000000
2.353440 0.043970 -0.460361 45.000000
2.358454 0.036825 -0.461400 54.000000
2.364424 0.029661 -0.462646 43.000000
2.368417 0.022444 -0.463477 48.000000
2.375322 0.015220 -0.464932 65.000000
2.372423 0.007923 -0.464308 58.000000
2.379283 0.000646 -0.465763 160.000000
2.361667 -0.006602 -0.462023 64.000000
2.355766 -0.013812 -0.460777 42.000000
2.343975 -0.020932 -0.458284 35.000000
2.344878 -0.028135 -0.458492 60.000000
2.337934 -0.035225 -0.457037 46.000000
2.336837 -0.042380 -0.456830 39.000000
2.325939 -0.049319 -0.454544 60.000000
2.321865 -0.056359 -0.453714 50.000000
2.319726 -0.063428 -0.453298 74.000000
2.317564 -0.070485 -0.452883 74.000000
2.313426 -0.077463 -0.452052 54.000000
2.310246 -0.084453 -0.451428 50.000000
2.308021 -0.091462 -0.451013 59.000000
2.309684 -0.098626 -0.451428 56.000000
2.309370 -0.105712 -0.451428 52.000000
2.307081 -0.112701 -0.451013 43.000000
2.311609 -0.120033 -0.452052 41.000000
2.317090 -0.127447 -0.453298 25.000000
2.312782 -0.134328 -0.452467 45.000000
2.319193 -0.141842 -0.453921 29.000000
2.291415 -0.147196 -0.448105 13.000000
2.340051 0.135038 -0.486790 36.000000
2.334609 0.127536 -0.485475 45.000000
2.324271 0.119815 -0.483065 51.000000
2.326577 0.112779 -0.483503 41.000000
2.323988 0.105507 -0.482845 58.000000
2.326250 0.098460 -0.483284 38.000000
2.325566 0.091284 -0.483065 49.000000
2.327785 0.084220 -0.483503 47.000000
2.329008 0.077111 -0.483722 53.000000
2.331184 0.070025 -0.484160 78.000000
2.335289 0.062980 -0.485037 57.000000
2.349127 0.056148 -0.488105 50.000000
2.358068 0.049128 -0.490078 49.000000
2.364060 0.042000 -0.491393 62.000000
2.372958 0.034881 -0.493365 60.000000
2.380859 0.027695 -0.495119 36.000000
2.380933 0.020390 -0.495119 58.000000
2.387814 0.013127 -0.496653 38.000000
2.383940 0.005789 -0.495776 44.000000
2.396631 -0.001526 -0.498625 107.000000
2.373198 -0.008804 -0.493365 46.000000
2.370233 -0.016066 -0.492708 45.000000
2.367246 -0.023310 -0.492050 37.000000
2.364236 -0.030537 -0.491393 33.000000
2.355351 -0.037654 -0.489420 45.000000
2.351322 -0.044807 -0.488544 51.000000
2.340444 -0.051789 -0.486133 41.000000
2.332471 -0.058776 -0.484380 41.000000
2.328378 -0.065823 -0.483503 36.000000
2.317438 -0.072636 -0.481092 42.000000
2.306478 -0.079381 -0.478681 56.000000
2.304274 -0.086385 -0.478243 53.000000
2.296198 -0.093142 -0.476490 56.000000
2.297851 -0.100270 -0.476928 41.000000
2.294609 -0.107184 -0.476270 56.000000
2.314734 -0.115232 -0.480873 35.000000
2.320215 -0.122639 -0.482188 32.000000
2.321777 -0.129864 -0.482626 26.000000
2.329159 -0.137443 -0.484380 31.000000
2.329701 -0.144648 -0.484599 10.000000
2.333141 -0.152047 -0.485475 7.000000
2.348174 0.137677 -0.517845 20.000000
2.357329 0.130957 -0.519922 21.000000
2.342173 0.122911 -0.516230 37.000000
2.339623 0.115581 -0.515538 41.000000
2.340939 0.108447 -0.515769 49.000000
2.341260 0.101265 -0.515769 52.000000
2.340588 0.094043 -0.515538 49.000000
2.345727 0.087041 -0.516692 55.000000
2.347928 0.079910 -0.517153 65.000000
2.351080 0.072796 -0.517845 57.000000
2.353237 0.065637 -0.518307 42.000000
2.360237 0.058584 -0.519922 52.000000
2.370133 0.051553 -0.522229 43.000000
2.378063 0.044426 -0.524075 68.000000
2.386944 0.037265 -0.526152 58.000000
2.392885 0.030014 -0.527536 43.000000
2.398804 0.022727 -0.528920 54.000000
2.402754 0.015392 -0.529843 42.000000
2.395979 0.007998 -0.528228 30.000000
2.403776 0.000648 -0.530074 73.000000
2.397929 -0.006709 -0.528690 71.000000
2.370653 -0.013902 -0.522229 21.000000
2.373518 -0.021201 -0.522921 37.000000
2.370523 -0.028447 -0.522229 41.000000
2.362641 -0.035601 -0.520383 34.000000
2.353765 -0.042689 -0.518307 46.000000
2.352650 -0.049890 -0.518076 56.000000
2.347623 -0.056988 -0.516922 49.000000
2.338683 -0.063950 -0.514846 41.000000
2.331668 -0.070916 -0.513231 47.000000
2.324632 -0.077840 -0.511616 48.000000
2.326327 -0.085043 -0.512077 52.000000
2.322166 -0.092025 -0.511154 45.000000
2.320901 -0.099107 -0.510923 55.000000
2.323502 -0.106361 -0.511616 38.000000
2.341630 -0.114394 -0.515999 25.000000
2.343211 -0.121679 -0.516461 27.000000
2.347685 -0.129135 -0.517615 26.000000
2.356991 -0.136903 -0.519922 17.000000
2.384063 0.123342 -0.555538 19.000000
2.363110 0.114979 -0.550212 38.000000
2.354729 0.107327 -0.548033 34.000000
2.334690 0.099227 -0.542949 60.000000
2.340801 0.092296 -0.544402 40.000000
2.337194 0.084971 -0.543433 43.000000
2.343262 0.077997 -0.544886 40.000000
2.346400 0.070897 -0.545612 42.000000
2.349516 0.063778 -0.546338 40.000000
2.356491 0.056737 -0.548033 44.000000
2.367324 0.049736 -0.550696 49.000000
2.377166 0.042652 -0.553117 67.000000
2.383106 0.035448 -0.554570 70.000000
2.382234 0.028125 -0.554327 75.000000
2.392981 0.020914 -0.556990 50.000000
2.392064 0.013567 -0.556748 36.000000
2.438666 0.006372 -0.568369 10.000000
2.419269 -0.001110 -0.563527 18.000000
2.406641 -0.008494 -0.560380 25.000000
2.385258 -0.015747 -0.555054 40.000000
2.380348 -0.023020 -0.553843 51.000000
2.376385 -0.030275 -0.552875 50.000000
2.369490 -0.037462 -0.551180 57.000000
2.366454 -0.044678 -0.550454 31.000000
2.363396 -0.051875 -0.549728 26.000000
2.344796 -0.058674 -0.545128 41.000000
2.335876 -0.065626 -0.542949 52.000000
2.328875 -0.072584 -0.541255 31.000000
2.320884 -0.079467 -0.539318 43.000000
2.322569 -0.086658 -0.539802 36.000000
2.323261 -0.093822 -0.540044 41.000000
2.329748 -0.101241 -0.541739 32.000000
2.342026 -0.108968 -0.544886 26.000000
2.343619 -0.116248 -0.545370 18.000000
2.339376 -0.123235 -0.544402 24.000000
2.343831 -0.130679 -0.545612 7.000000
2.407006 0.141536 -0.591338 32.000000
2.402599 0.133882 -0.590071 38.000000
2.390440 0.125851 -0.586776 33.000000
2.382119 0.118087 -0.584495 37.000000
2.370875 0.110241 -0.581454 33.000000
2.353806 0.102214 -0.576893 32.000000
2.353141 0.094954 -0.576639 41.000000
2.351488 0.087662 -0.576133 48.000000
2.358514 0.080678 -0.577907 67.000000
2.375187 0.073951 -0.582215 99.000000
2.366700 0.066420 -0.579934 74.000000
2.372695 0.059303 -0.581454 78.000000
2.378669 0.052150 -0.582975 49.000000
2.385588 0.044979 -0.584749 61.000000
2.399256 0.037871 -0.588297 41.000000
2.394524 0.030449 -0.587030 59.000000
2.407182 0.023222 -0.590324 32.000000
2.408209 0.015843 -0.590578 11.000000
2.410103 -0.021116 -0.591084 34.000000
2.391649 -0.028290 -0.586269 46.000000
2.385747 -0.035540 -0.584749 47.000000
2.375955 -0.042683 -0.582215 56.000000
2.364207 -0.049727 -0.579174 53.000000
2.352439 -0.056698 -0.576133 69.000000
2.352254 -0.063915 -0.576133 88.000000
2.345278 -0.070925 -0.574359 70.000000
2.340215 -0.077959 -0.573092 53.000000
2.341899 -0.085208 -0.573598 45.000000
2.341626 -0.092393 -0.573598 45.000000
2.345198 -0.099742 -0.574612 30.000000
2.351645 -0.107246 -0.576386 26.000000
2.354203 -0.114601 -0.577146 30.000000
2.356739 -0.121974 -0.577907 26.000000
2.364081 -0.129629 -0.579934 31.000000
2.357877 -0.136545 -0.578413 17.000000
2.328481 -0.142006 -0.570811 7.000000
2.392636 0.131567 -0.615941 21.000000
2.389176 0.124024 -0.614884 31.000000
2.384728 0.116456 -0.613563 35.000000
2.391819 0.109451 -0.615412 46.000000
2.379617 0.101572 -0.611978 49.000000
2.378953 0.094232 -0.611714 49.000000
2.385978 0.087183 -0.613563 62.000000
2.385270 0.079830 -0.613299 47.000000
2.389360 0.072631 -0.614356 61.000000
2.391500 0.065354 -0.614884 52.000000
2.388797 0.057945 -0.614091 47.000000
2.392820 0.050699 -0.615148 58.000000
2.402607 0.043537 -0.617790 36.000000
2.402730 0.036166 -0.617790 38.000000
2.402829 0.028795 -0.617790 52.000000
2.396155 0.021359 -0.615941 30.000000
2.376921 0.013886 -0.610657 20.000000
2.406751 -0.022845 -0.618847 10.000000
2.399919 -0.030148 -0.616998 23.000000
2.393065 -0.037408 -0.615148 35.000000
2.400653 -0.044890 -0.617262 27.000000
2.383148 -0.051886 -0.612506 27.000000
2.373336 -0.058962 -0.609864 44.000000
2.368323 -0.066111 -0.608543 55.000000
2.364253 -0.073259 -0.607486 64.000000
2.360162 -0.080383 -0.606429 68.000000
2.360868 -0.087658 -0.606694 69.000000
2.355769 -0.094710 -0.605372 57.000000
2.352576 -0.101813 -0.604580 37.000000
2.359961 -0.109383 -0.606694 36.000000
2.366357 -0.116953 -0.608543 34.000000
2.374656 -0.124663 -0.610921 25.000000
2.382929 -0.132425 -0.613299 28.000000
2.397917 -0.140632 -0.617526 14.000000
2.393581 0.132965 -0.645796 24.000000
2.393978 0.125621 -0.645796 33.000000
2.380909 0.117614 -0.641942 47.000000
2.382219 0.110353 -0.642217 50.000000
2.376783 0.102795 -0.640565 48.000000
2.388615 0.095964 -0.643869 79.000000
2.391780 0.088742 -0.644695 67.000000
2.389159 0.081306 -0.643869 63.000000
2.396123 0.074183 -0.645796 64.000000
2.398262 0.066885 -0.646347 51.000000
2.402300 0.059622 -0.647448 70.000000
2.401510 0.052230 -0.647173 47.000000
2.404543 0.044916 -0.647998 47.000000
2.409475 0.037613 -0.649375 52.000000
2.413424 0.030268 -0.650476 51.000000
2.412545 0.022855 -0.650201 47.000000
2.420294 0.015501 -0.652403 38.000000
2.429944 0.008106 -0.655156 20.000000
2.401982 -0.021460 -0.647173 51.000000
2.399021 -0.028794 -0.646347 50.000000
2.395077 -0.036095 -0.645245 53.000000
2.390148 -0.043355 -0.643869 54.000000
2.392888 -0.050750 -0.644695 47.000000
2.386954 -0.057950 -0.643043 52.000000
2.384843 -0.065220 -0.642492 37.000000
2.375984 -0.072271 -0.640015 43.000000
2.371908 -0.079431 -0.638913 39.000000
2.370692 -0.086672 -0.638638 49.000000
2.367533 -0.093830 -0.637812 44.000000
2.370116 -0.101217 -0.638638 50.000000
2.373635 -0.108664 -0.639739 40.000000
2.377131 -0.116134 -0.640841 30.000000
2.386365 -0.123927 -0.643594 34.000000
2.390773 -0.131512 -0.644970 37.000000
2.395157 -0.139126 -0.646347 18.000000
2.388001 -0.146062 -0.644419 8.000000
2.409805 0.132101 -0.679505 22.000000
2.399673 0.124157 -0.676358 29.000000
2.398128 0.116700 -0.675786 32.000000
2.394646 0.109166 -0.674642 20.000000
2.378695 0.101119 -0.669780 33.000000
