ply
format ascii 1.0
element vertex 1241
property float x
property float y
property float z
property float intensity
end_header
2.585545 -0.023129 0.185707 46.000000
2.585463 -0.031062 0.185707 70.000000
2.586353 -0.039009 0.185765 67.000000
2.586221 -0.046943 0.185765 72.000000
2.588061 -0.054920 0.185881 75.000000
2.589877 -0.062909 0.185997 54.000000
2.590669 -0.070882 0.186055 51.000000
2.590440 -0.078829 0.186055 67.000000
2.587193 -0.086676 0.185881 63.000000
2.587912 -0.094649 0.185939 46.000000
2.587609 -0.102588 0.185939 53.000000
2.582295 -0.110313 0.185648 87.000000
2.576958 -0.118006 0.185358 55.000000
2.572596 -0.125716 0.185126 56.000000
2.569207 -0.133452 0.184951 86.000000
2.566792 -0.141223 0.184835 68.000000
2.567343 -0.149156 0.184893 48.000000
2.562888 -0.156787 0.184661 89.000000
2.565383 -0.164842 0.184835 73.000000
2.563870 -0.172644 0.184777 62.000000
2.563328 -0.180509 0.184777 73.000000
2.564754 -0.188519 0.184893 75.000000
2.562172 -0.196234 0.184777 73.000000
2.562553 -0.204173 0.184835 81.000000
2.561915 -0.212034 0.184835 76.000000
2.561252 -0.219893 0.184835 55.000000
2.560565 -0.227750 0.184835 94.000000
2.559855 -0.235604 0.184835 61.000000
2.559120 -0.243457 0.184835 84.000000
2.561341 -0.251600 0.185010 76.000000
2.558571 -0.259255 0.184893 65.000000
2.559749 -0.267311 0.185010 72.000000
2.557925 -0.275056 0.184951 64.000000
2.556077 -0.282793 0.184893 76.000000
2.557181 -0.290859 0.185010 60.000000
2.554293 -0.298471 0.184893 68.000000
2.553366 -0.306306 0.184893 82.000000
2.554396 -0.314383 0.185010 61.000000
2.553419 -0.322218 0.185010 73.000000
2.549448 -0.329666 0.184835 68.000000
2.547435 -0.337355 0.184777 69.000000
2.543421 -0.344766 0.184603 64.000000
2.543340 -0.352704 0.184661 66.000000
2.540269 -0.360225 0.184545 56.000000
2.536188 -0.367587 0.184371 71.000000
2.537023 -0.375659 0.184487 66.000000
2.539807 -0.384038 0.184719 75.000000
2.539603 -0.391981 0.184777 59.000000
2.541347 -0.400236 0.184951 64.000000
2.544050 -0.408665 0.185184 84.000000
2.542784 -0.416468 0.185184 62.000000
2.542479 -0.424432 0.185242 63.000000
2.543133 -0.432565 0.185358 46.000000
2.541795 -0.440366 0.185358 61.000000
2.533550 -0.446947 0.184951 64.000000
2.530201 -0.454364 0.184835 67.000000
2.528795 -0.462124 0.184835 71.000000
2.523440 -0.469150 0.184603 74.000000
2.524932 -0.477447 0.184777 75.000000
2.522475 -0.485002 0.184719 81.000000
2.517056 -0.491972 0.184487 73.000000
2.520430 -0.500665 0.184777 67.000000
2.520839 -0.508791 0.184893 72.000000
2.518289 -0.516321 0.184835 57.000000
2.512784 -0.523230 0.184603 72.000000
2.510190 -0.530730 0.184545 79.000000
2.509526 -0.538639 0.184603 56.000000
2.510787 -0.546973 0.184777 59.000000
2.512997 -0.555536 0.185010 68.000000
2.511281 -0.563243 0.185010 63.000000
2.512461 -0.571610 0.185184 60.000000
2.516532 -0.580663 0.185532 68.000000
2.512794 -0.587926 0.185416 64.000000
2.512922 -0.596093 0.185532 57.000000
2.512052 -0.604034 0.185590 59.000000
2.507277 -0.611028 0.185416 72.000000
2.507329 -0.619196 0.185532 77.000000
2.508322 -0.627613 0.185707 68.000000
2.504450 -0.634815 0.185590 83.000000
2.506358 -0.643489 0.185823 58.000000
2.505338 -0.651427 0.185881 62.000000
2.504293 -0.659364 0.185939 57.000000
2.503223 -0.667302 0.185997 51.000000
2.501164 -0.674978 0.185997 52.000000
2.496193 -0.681859 0.185823 54.000000
2.497938 -0.690578 0.186055 45.000000
2.492923 -0.697431 0.185881 62.000000
2.491732 -0.705348 0.185939 44.000000
2.488597 -0.712715 0.185881 43.000000
2.485440 -0.720068 0.185823 57.000000
2.481303 -0.727128 0.185707 78.000000
2.480975 -0.735305 0.185823 54.000000
2.476795 -0.742340 0.185707 49.000000
2.478327 -0.751094 0.185939 55.000000
2.478874 -0.759571 0.186113 50.000000
2.475579 -0.766877 0.186055 42.000000
2.471309 -0.773872 0.185939 35.000000
2.439420 -0.772107 0.184138 9.000000
2.573802 0.046276 0.154596 34.000000
2.569937 0.038318 0.154411 35.000000
2.569044 0.030421 0.154365 63.000000
2.572121 0.022567 0.154504 55.000000
2.571180 0.014670 0.154457 44.000000
2.577206 0.006800 0.154735 40.000000
2.576216 -0.001107 0.154689 48.000000
2.577199 -0.009014 0.154735 45.000000
2.578159 -0.016926 0.154781 43.000000
2.580092 -0.024854 0.154874 72.000000
2.578006 -0.032745 0.154781 48.000000
2.577893 -0.040654 0.154781 54.000000
2.575759 -0.048526 0.154689 65.000000
2.577596 -0.056471 0.154781 64.000000
2.577410 -0.064379 0.154781 48.000000
2.583192 -0.072451 0.155058 55.000000
2.578964 -0.080254 0.154874 57.000000
2.578705 -0.088166 0.154874 45.000000
2.576426 -0.096003 0.154781 54.000000
2.573125 -0.103787 0.154642 47.000000
2.571797 -0.111638 0.154596 47.000000
2.569446 -0.119436 0.154504 61.000000
2.564079 -0.127074 0.154272 64.000000
2.564675 -0.134991 0.154319 64.000000
2.562253 -0.142749 0.154226 62.000000
2.564795 -0.150784 0.154365 60.000000
2.562326 -0.158529 0.154272 55.000000
2.562825 -0.166454 0.154319 59.000000
2.563299 -0.174383 0.154365 51.000000
2.562752 -0.182246 0.154365 55.000000
2.565169 -0.190328 0.154504 68.000000
2.561585 -0.197968 0.154365 51.000000
2.557979 -0.205587 0.154226 57.000000
2.557336 -0.213434 0.154226 48.000000
2.553683 -0.221021 0.154088 47.000000
2.556973 -0.229210 0.154272 46.000000
2.553274 -0.236778 0.154134 67.000000
2.550546 -0.244421 0.154041 62.000000
2.552767 -0.252538 0.154180 62.000000
2.550987 -0.260268 0.154134 54.000000
2.551169 -0.268197 0.154180 57.000000
2.551328 -0.276129 0.154226 39.000000
2.547490 -0.283625 0.154088 70.000000
2.549585 -0.291779 0.154226 54.000000
2.545702 -0.299251 0.154088 58.000000
2.541796 -0.306702 0.153949 57.000000
2.535886 -0.313887 0.153718 52.000000
2.540858 -0.322418 0.153995 42.000000
2.535894 -0.329698 0.153810 40.000000
2.533880 -0.337345 0.153764 43.000000
2.530854 -0.344849 0.153671 44.000000
2.530773 -0.352749 0.153718 63.000000
2.534624 -0.361214 0.153949 47.000000
2.533504 -0.368989 0.153949 73.000000
2.529396 -0.376320 0.153810 56.000000
2.531192 -0.384527 0.153949 54.000000
2.528026 -0.391985 0.153856 56.000000
2.530759 -0.400362 0.154041 57.000000
2.530505 -0.408283 0.154088 48.000000
2.531212 -0.416368 0.154180 54.000000
2.530908 -0.424296 0.154226 55.000000
2.526640 -0.431556 0.154088 47.000000
2.525304 -0.439306 0.154088 60.000000
2.523944 -0.447051 0.154088 55.000000
2.522561 -0.454792 0.154088 64.000000
2.520171 -0.462349 0.154041 51.000000
2.515795 -0.469531 0.153903 60.000000
2.516305 -0.477618 0.153995 70.000000
2.507962 -0.484014 0.153671 45.000000
2.506465 -0.491706 0.153671 41.000000
2.514742 -0.501342 0.154134 69.000000
2.513192 -0.509055 0.154134 58.000000
2.510640 -0.516562 0.154088 62.000000
2.505132 -0.523447 0.153903 45.000000
2.507423 -0.531957 0.154088 61.000000
2.506756 -0.539857 0.154134 50.000000
2.504112 -0.547333 0.154088 62.000000
2.502421 -0.555012 0.154088 42.000000
2.498757 -0.562249 0.153995 46.000000
2.502864 -0.571244 0.154272 44.000000
2.505966 -0.580044 0.154504 62.000000
2.503203 -0.587502 0.154457 62.000000
2.500417 -0.594948 0.154411 52.000000
2.497608 -0.602382 0.154365 46.000000
2.498660 -0.610752 0.154504 49.000000
2.496774 -0.618415 0.154504 48.000000
2.494865 -0.626072 0.154504 48.000000
2.492933 -0.633724 0.154504 44.000000
2.496782 -0.642861 0.154781 52.000000
2.497698 -0.651272 0.154920 52.000000
2.497620 -0.659441 0.155012 56.000000
2.496550 -0.667358 0.155058 38.000000
2.495456 -0.675275 0.155105 47.000000
2.491445 -0.682401 0.155012 36.000000
2.489339 -0.690041 0.155012 40.000000
2.484325 -0.696867 0.154874 41.000000
2.487942 -0.706120 0.155151 31.000000
2.483843 -0.713199 0.155058 41.000000
2.487400 -0.722485 0.155336 36.000000
2.480379 -0.728707 0.155105 43.000000
2.490582 -0.740006 0.155706 30.000000
2.523701 -0.758264 0.157416 9.000000
2.557427 0.023760 0.122275 17.000000
2.591468 0.016121 0.123426 36.000000
2.582510 0.008143 0.123121 54.000000
2.585521 0.000220 0.123222 43.000000
2.584511 -0.007709 0.123189 61.000000
2.579478 -0.015608 0.123019 37.000000
2.582416 -0.023549 0.123121 43.000000
2.579334 -0.031435 0.123019 40.000000
2.581223 -0.039379 0.123087 52.000000
2.582090 -0.047316 0.123121 73.000000
2.580933 -0.055216 0.123087 69.000000
2.578753 -0.063085 0.123019 49.000000
2.580546 -0.071051 0.123087 46.000000
2.580316 -0.078968 0.123087 57.000000
2.579062 -0.086850 0.123053 59.000000
2.580781 -0.094836 0.123121 62.000000
2.576483 -0.102593 0.122985 70.000000
2.575158 -0.110454 0.122952 53.000000
2.576804 -0.118446 0.123019 66.000000
2.572436 -0.126155 0.122884 67.000000
2.568044 -0.133838 0.122748 62.000000
2.563630 -0.141495 0.122613 62.000000
2.557198 -0.149010 0.122410 63.000000
2.558723 -0.156977 0.122478 65.000000
2.556235 -0.164698 0.122410 74.000000
2.549735 -0.172134 0.122207 74.000000
2.550192 -0.180027 0.122241 64.000000
2.553614 -0.188144 0.122376 77.000000
2.555018 -0.196131 0.122444 61.000000
2.553408 -0.203889 0.122410 77.000000
2.549783 -0.211473 0.122308 44.000000
2.549122 -0.219295 0.122308 63.000000
2.551423 -0.227381 0.122410 70.000000
2.551709 -0.235300 0.122444 64.000000
2.549980 -0.243032 0.122410 83.000000
2.552206 -0.251148 0.122512 58.000000
2.554407 -0.259280 0.122613 65.000000
2.551611 -0.266908 0.122545 92.000000
2.551774 -0.274842 0.122579 66.000000
2.546945 -0.282228 0.122444 66.000000
2.547060 -0.290154 0.122478 63.000000
2.548144 -0.298200 0.122545 78.000000
2.540271 -0.305180 0.122308 54.000000
2.535355 -0.312483 0.122173 83.000000
2.536368 -0.320511 0.122241 67.000000
2.531408 -0.327777 0.122105 59.000000
2.533362 -0.335936 0.122207 76.000000
2.527368 -0.343034 0.122038 54.000000
2.523334 -0.350373 0.121936 77.000000
2.527195 -0.358816 0.122105 54.000000
2.529049 -0.366999 0.122207 52.000000
2.527911 -0.374756 0.122207 53.000000
2.526750 -0.382510 0.122207 59.000000
2.526552 -0.390413 0.122241 78.000000
2.530278 -0.398941 0.122410 68.000000
2.528056 -0.406543 0.122376 67.000000
2.526797 -0.414297 0.122376 65.000000
2.525514 -0.422048 0.122376 73.000000
2.522237 -0.429458 0.122308 68.000000
2.527800 -0.438391 0.122545 61.000000
2.527427 -0.446318 0.122579 62.000000
2.527030 -0.454247 0.122613 67.000000
2.522675 -0.461457 0.122512 76.000000
2.521247 -0.469195 0.122512 65.000000
2.520778 -0.477113 0.122545 62.000000
2.519302 -0.484845 0.122545 60.000000
2.516822 -0.492380 0.122512 67.000000
2.516280 -0.500294 0.122545 62.000000
2.509835 -0.507021 0.122376 51.000000
2.512184 -0.515523 0.122512 47.000000
2.511569 -0.523432 0.122545 72.000000
2.507996 -0.530721 0.122478 67.000000
2.506356 -0.538413 0.122478 42.000000
2.506645 -0.546526 0.122545 63.000000
2.501053 -0.553349 0.122410 49.000000
2.499344 -0.561020 0.122410 69.000000
2.498585 -0.568907 0.122444 62.000000
2.498776 -0.577020 0.122512 70.000000
2.497967 -0.584911 0.122545 68.000000
2.495188 -0.592341 0.122512 57.000000
2.491416 -0.599526 0.122444 55.000000
2.494420 -0.608351 0.122613 68.000000
2.495452 -0.616721 0.122715 48.000000
2.493548 -0.624374 0.122715 82.000000
2.489684 -0.631529 0.122647 60.000000
2.487734 -0.639164 0.122647 52.000000
2.487696 -0.647297 0.122715 62.000000
2.485698 -0.654926 0.122715 58.000000
2.487540 -0.663580 0.122850 62.000000
2.485492 -0.671209 0.122850 48.000000
2.480530 -0.678040 0.122748 35.000000
2.485180 -0.687513 0.122985 51.000000
2.480172 -0.694326 0.122884 35.000000
2.481876 -0.703022 0.123019 29.000000
2.486433 -0.712561 0.123256 6.000000
2.591341 -0.008158 0.091930 34.000000
2.588304 -0.016090 0.091865 33.000000
2.586243 -0.024014 0.091822 37.000000
2.585158 -0.031936 0.091800 50.000000
2.583049 -0.039837 0.091757 45.000000
2.579915 -0.047707 0.091692 32.000000
2.577758 -0.055580 0.091649 49.000000
2.574577 -0.063416 0.091584 51.000000
2.577368 -0.071396 0.091649 59.000000
2.570142 -0.079091 0.091497 67.000000
2.565890 -0.086842 0.091410 58.000000
2.568609 -0.094823 0.091475 48.000000
2.565309 -0.102584 0.091410 50.000000
2.568978 -0.110624 0.091497 66.000000
2.571623 -0.118642 0.091562 71.000000
2.566253 -0.126288 0.091454 57.000000
2.565854 -0.134160 0.091454 63.000000
2.576411 -0.142635 0.091692 41.000000
2.561988 -0.149728 0.091389 73.000000
2.557525 -0.157344 0.091302 63.000000
2.551044 -0.164805 0.091172 49.000000
2.545539 -0.172296 0.091064 69.000000
2.544998 -0.180105 0.091064 55.000000
2.543437 -0.187838 0.091043 55.000000
2.548830 -0.196098 0.091172 42.000000
2.543233 -0.203520 0.091064 45.000000
2.547578 -0.211734 0.091172 41.000000
2.538948 -0.218865 0.090999 64.000000
2.544240 -0.227185 0.091129 74.000000
2.543530 -0.234989 0.091129 67.000000
2.544788 -0.242981 0.091172 52.000000
2.540051 -0.250396 0.091086 63.000000
2.542254 -0.258490 0.091151 66.000000
2.538466 -0.265977 0.091086 51.000000
2.536645 -0.273657 0.091064 61.000000
2.529831 -0.280779 0.090934 53.000000
2.530944 -0.288765 0.090978 72.000000
2.534019 -0.296992 0.091064 63.000000
2.536073 -0.305122 0.091129 56.000000
2.529171 -0.312169 0.090999 59.000000
2.531178 -0.320302 0.091064 63.000000
2.530183 -0.328066 0.091064 73.000000
2.529165 -0.335827 0.091064 65.000000
2.529113 -0.343719 0.091086 52.000000
2.524086 -0.350927 0.090999 47.000000
2.522007 -0.358529 0.090978 72.000000
2.517927 -0.365835 0.090913 56.000000
2.518770 -0.373851 0.090956 48.000000
2.511681 -0.380681 0.090826 57.000000
2.512477 -0.388689 0.090869 59.000000
2.507322 -0.395774 0.090783 46.000000
2.507083 -0.403623 0.090805 51.000000
2.505833 -0.411313 0.090805 51.000000
2.513435 -0.420479 0.090999 54.000000
2.513119 -0.428356 0.091021 57.000000
2.512778 -0.436234 0.091043 48.000000
2.510443 -0.443768 0.091021 63.000000
2.511038 -0.451821 0.091064 58.000000
2.509640 -0.459522 0.091064 57.000000
2.515099 -0.468498 0.091216 47.000000
2.509720 -0.475470 0.091129 47.000000
2.507268 -0.482978 0.091108 56.000000
2.508718 -0.491243 0.091172 51.000000
2.499354 -0.497380 0.090999 48.000000
2.494876 -0.504453 0.090934 39.000000
2.496255 -0.512707 0.090999 41.000000
2.494670 -0.520363 0.090999 58.000000
2.496975 -0.528841 0.091086 71.000000
2.499251 -0.537337 0.091172 50.000000
2.496614 -0.544790 0.091151 47.000000
2.501764 -0.553957 0.091302 52.000000
2.497126 -0.560973 0.091237 40.000000
2.490519 -0.567523 0.091129 43.000000
2.494611 -0.576509 0.091259 59.000000
2.491857 -0.583932 0.091237 55.000000
2.484217 -0.590191 0.091108 43.000000
2.484339 -0.598277 0.091151 51.000000
2.477635 -0.604713 0.091043 39.000000
2.485475 -0.614707 0.091259 44.000000
2.485517 -0.622815 0.091302 55.000000
2.481656 -0.629946 0.091259 43.000000
2.482617 -0.638302 0.091324 54.000000
2.482582 -0.646419 0.091367 56.000000
2.480587 -0.654032 0.091367 44.000000
2.485332 -0.663441 0.091519 23.000000
2.562581 -0.039536 0.059742 52.000000
2.561448 -0.047379 0.059733 53.000000
2.566289 -0.055346 0.059779 68.000000
2.565108 -0.063194 0.059770 53.000000
2.562903 -0.071008 0.059751 65.000000
2.560674 -0.078808 0.059733 63.000000
2.564417 -0.086800 0.059770 58.000000
2.561141 -0.094556 0.059742 49.000000
2.559840 -0.102373 0.059733 67.000000
2.555518 -0.110053 0.059696 72.000000
2.554169 -0.117847 0.059686 90.000000
2.555793 -0.125781 0.059705 63.000000
2.555395 -0.133621 0.059705 79.000000
2.553975 -0.141405 0.059696 80.000000
2.555526 -0.149357 0.059714 70.000000
2.550065 -0.156889 0.059668 85.000000
2.549572 -0.164711 0.059668 81.000000
2.544066 -0.172194 0.059622 72.000000
2.543526 -0.179998 0.059622 80.000000
2.541964 -0.187727 0.059612 78.000000
2.541376 -0.195525 0.059612 76.000000
2.543755 -0.203561 0.059640 73.000000
2.547104 -0.211696 0.059677 77.000000
2.543454 -0.219251 0.059649 63.000000
2.547749 -0.227499 0.059696 64.000000
2.546044 -0.235222 0.059686 77.000000
2.545310 -0.243032 0.059686 84.000000
2.544553 -0.250840 0.059686 60.000000
2.541781 -0.258442 0.059668 81.000000
2.540977 -0.266239 0.059668 74.000000
2.543130 -0.274356 0.059696 79.000000
2.541283 -0.282046 0.059686 62.000000
2.540406 -0.289841 0.059686 69.000000
2.538511 -0.297517 0.059677 61.000000
2.538579 -0.305424 0.059686 83.000000
2.535645 -0.312965 0.059668 55.000000
2.534673 -0.320743 0.059668 85.000000
2.533677 -0.328518 0.059668 60.000000
2.532658 -0.336289 0.059668 75.000000
2.533596 -0.344328 0.059686 64.000000
2.533518 -0.352237 0.059696 66.000000
2.531435 -0.359867 0.059686 68.000000
2.530319 -0.367631 0.059686 81.000000
2.526212 -0.374952 0.059659 86.000000
2.521095 -0.382100 0.059622 88.000000
2.520899 -0.389986 0.059631 76.000000
2.515740 -0.397094 0.059594 66.000000
2.512536 -0.404492 0.059575 73.000000
2.512270 -0.412361 0.059585 69.000000
2.515924 -0.420892 0.059631 84.000000
2.513635 -0.428441 0.059622 78.000000
2.511324 -0.435979 0.059612 78.000000
2.510959 -0.443856 0.059622 88.000000
2.510570 -0.451735 0.059631 77.000000
2.513106 -0.460156 0.059668 87.000000
2.510700 -0.467681 0.059659 90.000000
2.509253 -0.475381 0.059659 64.000000
2.505819 -0.482699 0.059640 70.000000
2.509233 -0.491346 0.059686 77.000000
2.507714 -0.499041 0.059686 70.000000
2.504210 -0.506336 0.059668 81.000000
2.502645 -0.514016 0.059668 78.000000
2.502035 -0.521896 0.059677 73.000000
2.500422 -0.529570 0.059677 82.000000
2.498786 -0.537239 0.059677 73.000000
2.496149 -0.544689 0.059668 77.000000
2.495442 -0.552561 0.059677 49.000000
2.489833 -0.559337 0.059640 59.000000
2.485180 -0.566306 0.059612 48.000000
2.484406 -0.574153 0.059622 70.000000
2.478738 -0.580859 0.059585 57.000000
2.479863 -0.589155 0.059612 74.000000
2.479016 -0.596995 0.059622 69.000000
2.475230 -0.604123 0.059603 67.000000
2.480160 -0.613395 0.059668 55.000000
2.485056 -0.622704 0.059733 60.000000
2.461811 -0.624909 0.059529 15.000000
2.547640 -0.039307 0.027783 33.000000
2.552506 -0.047213 0.027766 45.000000
2.554349 -0.055086 0.027760 49.000000
2.557167 -0.062995 0.027750 48.000000
2.561960 -0.070976 0.027733 52.000000
2.564729 -0.078927 0.027723 47.000000
2.570471 -0.086995 0.027703 55.000000
2.570192 -0.094881 0.027703 48.000000
2.563894 -0.102528 0.027723 83.000000
2.560570 -0.110266 0.027733 76.000000
2.559221 -0.118076 0.027737 39.000000
2.553852 -0.125683 0.027753 58.000000
2.550458 -0.133363 0.027763 59.000000
2.549039 -0.141132 0.027766 63.000000
2.547596 -0.148894 0.027770 55.000000
2.558107 -0.157379 0.027733 43.000000
2.550626 -0.164779 0.027756 55.000000
2.546118 -0.172335 0.027770 56.000000
2.543582 -0.180005 0.027776 58.000000
2.539028 -0.187515 0.027790 68.000000
2.539438 -0.195380 0.027786 59.000000
2.537830 -0.203091 0.027790 58.000000
2.535202 -0.210711 0.027796 55.000000
2.534543 -0.218488 0.027796 64.000000
2.533861 -0.226263 0.027796 66.000000
2.539130 -0.234585 0.027776 50.000000
2.540389 -0.242563 0.027770 60.000000
2.536647 -0.250062 0.027780 69.000000
2.539848 -0.258246 0.027766 60.000000
2.538049 -0.265933 0.027770 57.000000
2.539210 -0.273932 0.027763 61.000000
2.541339 -0.282051 0.027753 74.000000
2.539468 -0.289733 0.027756 54.000000
2.546514 -0.298451 0.027730 35.000000
2.537643 -0.305310 0.027756 63.000000
2.534709 -0.312850 0.027763 55.000000
2.532745 -0.320499 0.027766 67.000000
2.534725 -0.328653 0.027756 55.000000
2.529740 -0.335903 0.027770 61.000000
2.531670 -0.344065 0.027760 45.000000
2.524659 -0.351007 0.027780 62.000000
2.523571 -0.358751 0.027780 60.000000
2.525427 -0.366921 0.027770 69.000000
2.520333 -0.374082 0.027783 57.000000
2.518185 -0.381663 0.027786 53.000000
2.518978 -0.389692 0.027780 68.000000
2.522710 -0.398196 0.027763 50.000000
2.517527 -0.405299 0.027776 55.000000
2.515285 -0.412859 0.027780 71.000000
2.511047 -0.420081 0.027790 56.000000
2.511718 -0.428118 0.027783 58.000000
2.513349 -0.436333 0.027773 61.000000
2.511999 -0.444042 0.027773 47.000000
2.506687 -0.451040 0.027786 67.000000
2.507259 -0.459088 0.027780 46.000000
2.500923 -0.465864 0.027796 50.000000
2.505378 -0.474649 0.027776 58.000000
2.499982 -0.481578 0.027790 53.000000
2.498492 -0.489246 0.027790 66.000000
2.501884 -0.497883 0.027773 47.000000
2.504266 -0.506347 0.027760 60.000000
2.500741 -0.513626 0.027766 32.000000
2.501112 -0.521703 0.027760 53.000000
2.501456 -0.529788 0.027753 47.000000
2.502752 -0.538089 0.027743 46.000000
2.501090 -0.545764 0.027743 49.000000
2.499403 -0.553435 0.027743 53.000000
2.496718 -0.560882 0.027746 52.000000
2.494010 -0.568317 0.027750 45.000000
2.494204 -0.576416 0.027743 52.000000
2.489503 -0.583382 0.027753 45.000000
2.458510 -0.584096 0.027853 9.000000
2.446012 -0.589065 0.027889 7.000000
2.554929 -0.062055 -0.003720 32.000000
2.562722 -0.070113 -0.003845 47.000000
2.561496 -0.077944 -0.003830 58.000000
2.561244 -0.085803 -0.003830 50.000000
2.572959 -0.094100 -0.004018 40.000000
2.557672 -0.101397 -0.003782 96.000000
2.559347 -0.109329 -0.003814 82.000000
2.566990 -0.117548 -0.003940 57.000000
2.562623 -0.125227 -0.003877 57.000000
2.560230 -0.132984 -0.003845 72.000000
2.560808 -0.140893 -0.003861 53.000000
2.557369 -0.148575 -0.003814 82.000000
2.554905 -0.156297 -0.003782 81.000000
2.554414 -0.164135 -0.003782 84.000000
2.549907 -0.171702 -0.003720 81.000000
2.548371 -0.179454 -0.003704 76.000000
2.549803 -0.187418 -0.003735 80.000000
2.547222 -0.195087 -0.003704 88.000000
2.548605 -0.203060 -0.003735 101.000000
2.546974 -0.210795 -0.003720 98.000000
2.541334 -0.218180 -0.003641 84.000000
2.541649 -0.226064 -0.003657 88.000000
2.538952 -0.233677 -0.003625 82.000000
2.541209 -0.241750 -0.003673 98.000000
2.536475 -0.249154 -0.003610 83.000000
2.533710 -0.256732 -0.003578 71.000000
2.533904 -0.264608 -0.003594 92.000000
2.535069 -0.272595 -0.003625 77.000000
2.532233 -0.280151 -0.003594 88.000000
2.531362 -0.287919 -0.003594 89.000000
2.528480 -0.295451 -0.003563 80.000000
2.530540 -0.303565 -0.003610 61.000000
2.529597 -0.311327 -0.003610 88.000000
2.527638 -0.318961 -0.003594 77.000000
2.524664 -0.326457 -0.003563 93.000000
2.525633 -0.334464 -0.003594 74.000000
2.522614 -0.341942 -0.003563 74.000000
2.517591 -0.349130 -0.003500 102.000000
2.520468 -0.357414 -0.003563 79.000000
2.519359 -0.365145 -0.003563 92.000000
2.521195 -0.373312 -0.003610 64.000000
2.522015 -0.381345 -0.003641 79.000000
2.519845 -0.388928 -0.003625 93.000000
2.523578 -0.397435 -0.003704 86.000000
2.522347 -0.405176 -0.003704 73.000000
2.521092 -0.412912 -0.003704 67.000000
2.529675 -0.422293 -0.003861 44.000000
2.510625 -0.427031 -0.003578 71.000000
2.509303 -0.434732 -0.003578 76.000000
2.505989 -0.442080 -0.003547 75.000000
2.503636 -0.449590 -0.003531 82.000000
2.502245 -0.457268 -0.003531 83.000000
2.499847 -0.464760 -0.003515 75.000000
2.498410 -0.472427 -0.003515 69.000000
2.498913 -0.480468 -0.003547 84.000000
2.501352 -0.488900 -0.003610 73.000000
2.499840 -0.496572 -0.003610 72.000000
2.500265 -0.504635 -0.003641 55.000000
2.507520 -0.514112 -0.003782 65.000000
2.508868 -0.522414 -0.003830 52.000000
2.524861 -0.533835 -0.004112 52.000000
2.514413 -0.539689 -0.003971 68.000000
2.518607 -0.548678 -0.004065 67.000000
2.566702 -0.567417 -0.004866 47.000000
2.690802 -0.603536 -0.006893 34.000000
2.718186 -0.618447 -0.007364 22.000000
2.571589 -0.110736 -0.034830 17.000000
2.553262 -0.117804 -0.034331 58.000000
2.550892 -0.125539 -0.034275 51.000000
2.547500 -0.133209 -0.034192 35.000000
2.550074 -0.141189 -0.034275 42.000000
2.554618 -0.149301 -0.034414 44.000000
2.546166 -0.156650 -0.034192 39.000000
2.545674 -0.164461 -0.034192 52.000000
2.546154 -0.172337 -0.034220 54.000000
2.547608 -0.180288 -0.034275 48.000000
2.543055 -0.187810 -0.034164 60.000000
2.542467 -0.195612 -0.034164 66.000000
2.536873 -0.203014 -0.034026 68.000000
2.524283 -0.209808 -0.033693 41.000000
2.531595 -0.218235 -0.033915 63.000000
2.525935 -0.225559 -0.033776 58.000000
2.528218 -0.233581 -0.033859 62.000000
2.530475 -0.241620 -0.033942 63.000000
2.526737 -0.249090 -0.033859 63.000000
2.531928 -0.257445 -0.034026 53.000000
2.534109 -0.265522 -0.034109 58.000000
2.535270 -0.273509 -0.034164 64.000000
2.533426 -0.281176 -0.034137 66.000000
2.529572 -0.288609 -0.034053 49.000000
2.532646 -0.296832 -0.034164 64.000000
2.533708 -0.304838 -0.034220 81.000000
2.531769 -0.312488 -0.034192 67.000000
2.528815 -0.320004 -0.034137 63.000000
2.529804 -0.328017 -0.034192 52.000000
2.522839 -0.334990 -0.034026 58.000000
2.517838 -0.342192 -0.033915 64.000000
2.511825 -0.349229 -0.033776 65.000000
2.509752 -0.356793 -0.033748 60.000000
2.504689 -0.363918 -0.033637 51.000000
2.507516 -0.372186 -0.033748 56.000000
2.506362 -0.379877 -0.033748 74.000000
2.507161 -0.387869 -0.033804 60.000000
2.504972 -0.395404 -0.033776 69.000000
2.532369 -0.407682 -0.034581 35.000000
2.511376 -0.412220 -0.034026 50.000000
2.507142 -0.419429 -0.033942 66.000000
2.502887 -0.426617 -0.033859 66.000000
2.502552 -0.434464 -0.033887 56.000000
2.500222 -0.441966 -0.033859 51.000000
2.503774 -0.450517 -0.033998 46.000000
2.510247 -0.459633 -0.034220 38.000000
2.501945 -0.466054 -0.034026 46.000000
2.495593 -0.472800 -0.033887 46.000000
2.508855 -0.483283 -0.034303 44.000000
2.520114 -0.493470 -0.034664 45.000000
2.542120 -0.505871 -0.035330 34.000000
2.559174 -0.517423 -0.035857 41.000000
2.597724 -0.533499 -0.036995 35.000000
2.692961 -0.561629 -0.039742 25.000000
2.729369 -0.577949 -0.040824 18.000000
2.755927 -0.592400 -0.041628 28.000000
2.746283 -0.599151 -0.041406 32.000000
2.765905 -0.612318 -0.042017 27.000000
2.765964 -0.621238 -0.042072 24.000000
2.757222 -0.628170 -0.041878 12.000000
2.725086 -0.629662 -0.041018 5.000000
2.551072 -0.140356 -0.066246 50.000000
2.548635 -0.148066 -0.066165 63.000000
2.546173 -0.155762 -0.066085 59.000000
2.544687 -0.163509 -0.066044 74.000000
2.544173 -0.171315 -0.066044 82.000000
2.548619 -0.179471 -0.066246 62.000000
2.539088 -0.186629 -0.065883 56.000000
2.533522 -0.194035 -0.065682 63.000000
2.530923 -0.201648 -0.065601 74.000000
2.529297 -0.209329 -0.065561 83.000000
2.528643 -0.217088 -0.065561 88.000000
2.527965 -0.224845 -0.065561 66.000000
2.524278 -0.232324 -0.065440 89.000000
2.526538 -0.240352 -0.065561 90.000000
2.526783 -0.248200 -0.065601 102.000000
2.525015 -0.255850 -0.065561 100.000000
2.525212 -0.263699 -0.065601 100.000000
2.525385 -0.271552 -0.065641 92.000000
2.521560 -0.278969 -0.065520 95.000000
2.520692 -0.286703 -0.065520 80.000000
2.518809 -0.294319 -0.065480 86.000000
2.518886 -0.302165 -0.065520 83.000000
2.518939 -0.310013 -0.065561 86.000000
2.517976 -0.317740 -0.065561 91.000000
2.516989 -0.325463 -0.065561 98.000000
2.517960 -0.333447 -0.065641 89.000000
2.517915 -0.341304 -0.065682 92.000000
2.515866 -0.348890 -0.065641 92.000000
2.516762 -0.356888 -0.065722 76.000000
2.517633 -0.364895 -0.065802 63.000000
2.516502 -0.372617 -0.065802 83.000000
2.517323 -0.380635 -0.065883 91.000000
2.516143 -0.388356 -0.065883 86.000000
2.516914 -0.396385 -0.065964 75.000000
2.518646 -0.404581 -0.066085 64.000000
2.514435 -0.411821 -0.065964 57.000000
2.512174 -0.419368 -0.065923 56.000000
2.506935 -0.426403 -0.065762 50.000000
2.509553 -0.434775 -0.065923 74.000000
2.513127 -0.443341 -0.066125 54.000000
2.516673 -0.451933 -0.066326 69.000000
2.513309 -0.459292 -0.066246 80.000000
2.530552 -0.470473 -0.067012 70.000000
2.554622 -0.483066 -0.068060 49.000000
2.599244 -0.499775 -0.069954 45.000000
2.647709 -0.517529 -0.072010 45.000000
2.683349 -0.533053 -0.073541 59.000000
2.713042 -0.547614 -0.074831 41.000000
2.723095 -0.558345 -0.075315 35.000000
2.743867 -0.571385 -0.076242 40.000000
2.756765 -0.582903 -0.076846 33.000000
2.766686 -0.593876 -0.077330 47.000000
2.774614 -0.604489 -0.077733 48.000000
2.771770 -0.612783 -0.077693 31.000000
2.784502 -0.624566 -0.078297 8.000000
2.538140 -0.164862 -0.096292 47.000000
2.533637 -0.172379 -0.096083 39.000000
2.544053 -0.180925 -0.096659 37.000000
2.528548 -0.187628 -0.095874 39.000000
2.526965 -0.195308 -0.095821 52.000000
2.525358 -0.202980 -0.095769 63.000000
2.528704 -0.211057 -0.095978 51.000000
2.530035 -0.218985 -0.096083 47.000000
2.529351 -0.226746 -0.096083 56.000000
2.525660 -0.234230 -0.095926 52.000000
2.525923 -0.242072 -0.095978 60.000000
2.527157 -0.250016 -0.096083 57.000000
2.526378 -0.257768 -0.096083 62.000000
2.522596 -0.265206 -0.095926 73.000000
2.518791 -0.272623 -0.095769 57.000000
2.520921 -0.280679 -0.095926 73.000000
2.520048 -0.288412 -0.095926 84.000000
2.518159 -0.296026 -0.095874 79.000000
2.515256 -0.303512 -0.095769 81.000000
2.514313 -0.311227 -0.095769 82.000000
2.513346 -0.318940 -0.095769 90.000000
2.512356 -0.326649 -0.095769 83.000000
2.508372 -0.333961 -0.095612 86.000000
2.504367 -0.341252 -0.095455 91.000000
2.503309 -0.348934 -0.095455 78.000000
2.500249 -0.356331 -0.095350 74.000000
2.491238 -0.362852 -0.094932 50.000000
2.499991 -0.371959 -0.095455 59.000000
2.498838 -0.379627 -0.095455 66.000000
2.497662 -0.387291 -0.095455 40.000000
2.505340 -0.396353 -0.095926 58.000000
2.511014 -0.405147 -0.096292 43.000000
2.522570 -0.414951 -0.096973 44.000000
2.524240 -0.423182 -0.097130 41.000000
2.518008 -0.430086 -0.096868 78.000000
2.532419 -0.440540 -0.097706 55.000000
2.568425 -0.454909 -0.099694 36.000000
2.661372 -0.479753 -0.104719 15.000000
2.650064 -0.486119 -0.104195 24.000000
2.683904 -0.500826 -0.106079 30.000000
2.698054 -0.512030 -0.106917 47.000000
2.712160 -0.523326 -0.107754 35.000000
2.720343 -0.533562 -0.108277 30.000000
2.735343 -0.545217 -0.109167 32.000000
2.737573 -0.554398 -0.109376 30.000000
2.741729 -0.563999 -0.109690 47.000000
2.748784 -0.574242 -0.110161 41.000000
2.756779 -0.584741 -0.110685 35.000000
2.763759 -0.595084 -0.111156 45.000000
2.766799 -0.604624 -0.111418 27.000000
2.767856 -0.613757 -0.111575 37.000000
2.784473 -0.626403 -0.112569 17.000000
2.771828 -0.632503 -0.111993 8.000000
2.545214 -0.194933 -0.128316 50.000000
2.541620 -0.202502 -0.128122 72.000000
2.539992 -0.210216 -0.128058 53.000000
2.540329 -0.218093 -0.128122 57.000000
2.535672 -0.225532 -0.127863 62.000000
2.525031 -0.232394 -0.127216 58.000000
2.527287 -0.240423 -0.127411 71.000000
2.527530 -0.248274 -0.127475 85.000000
2.527750 -0.256128 -0.127540 71.000000
2.526952 -0.263881 -0.127540 77.000000
2.525139 -0.271526 -0.127475 89.000000
2.525285 -0.279381 -0.127540 81.000000
2.527391 -0.287466 -0.127734 79.000000
2.519559 -0.294407 -0.127281 102.000000
2.516662 -0.301898 -0.127152 104.000000
2.512753 -0.309251 -0.126958 110.000000
2.512782 -0.317084 -0.127022 85.000000
2.508829 -0.324407 -0.126828 92.000000
2.513757 -0.332889 -0.127216 64.000000
2.504814 -0.339526 -0.126699 67.000000
2.509691 -0.348033 -0.127087 63.000000
2.509599 -0.355871 -0.127152 53.000000
2.508495 -0.363569 -0.127152 60.000000
2.518226 -0.372873 -0.127863 51.000000
2.522004 -0.381343 -0.128187 66.000000
2.537588 -0.391669 -0.129287 53.000000
2.541303 -0.400230 -0.129611 63.000000
2.548930 -0.409450 -0.130193 66.000000
2.625458 -0.430022 -0.135305 48.000000
2.660544 -0.444160 -0.137699 44.000000
2.678844 -0.455669 -0.138993 54.000000
2.692182 -0.466443 -0.139964 72.000000
2.699582 -0.476262 -0.140546 62.000000
2.704983 -0.485778 -0.140999 53.000000
2.711334 -0.495511 -0.141517 65.000000
2.716668 -0.505105 -0.141969 58.000000
2.720008 -0.514365 -0.142293 52.000000
2.732136 -0.525347 -0.143199 68.000000
2.733449 -0.534301 -0.143393 62.000000
2.734734 -0.543269 -0.143587 55.000000
2.739901 -0.553039 -0.144040 62.000000
2.741124 -0.562044 -0.144234 59.000000
2.746225 -0.571876 -0.144687 48.000000
2.751292 -0.581745 -0.145140 39.000000
2.752421 -0.590812 -0.145334 49.000000
2.754496 -0.600103 -0.145593 49.000000
2.756539 -0.609413 -0.145852 37.000000
2.778999 -0.623331 -0.147470 23.000000
2.779019 -0.632297 -0.147599 24.000000
2.835405 -0.654290 -0.151481 6.000000
2.545966 -0.220357 -0.158795 40.000000
2.543292 -0.227990 -0.158642 48.000000
2.536623 -0.235242 -0.158183 48.000000
2.529934 -0.242455 -0.157723 42.000000
2.528186 -0.250118 -0.157647 43.000000
2.522447 -0.257369 -0.157264 46.000000
2.524621 -0.265418 -0.157494 53.000000
2.521812 -0.272949 -0.157341 54.000000
2.515016 -0.280025 -0.156881 105.000000
2.515136 -0.287852 -0.156958 119.000000
2.514241 -0.295567 -0.156958 58.000000
2.517282 -0.303755 -0.157264 61.000000
2.513370 -0.311111 -0.157034 48.000000
2.516361 -0.319321 -0.157341 62.000000
2.514380 -0.326911 -0.157264 53.000000
2.522261 -0.335804 -0.157953 49.000000
2.529123 -0.344614 -0.158565 56.000000
2.547805 -0.355115 -0.160096 39.000000
2.558550 -0.364613 -0.161015 46.000000
2.560379 -0.372890 -0.161244 67.000000
2.638125 -0.392446 -0.167368 37.000000
2.667470 -0.405166 -0.169741 47.000000
2.684936 -0.416242 -0.171195 43.000000
2.699404 -0.426963 -0.172420 58.000000
2.705957 -0.436510 -0.173032 53.000000
2.713460 -0.446262 -0.173721 77.000000
2.717979 -0.455571 -0.174181 56.000000
2.715586 -0.463740 -0.174104 48.000000
2.714150 -0.472069 -0.174104 50.000000
2.718580 -0.481435 -0.174563 42.000000
2.716109 -0.489596 -0.174487 47.000000
2.716556 -0.498286 -0.174640 49.000000
2.715014 -0.506618 -0.174640 44.000000
2.719325 -0.516058 -0.175099 50.000000
2.722624 -0.525341 -0.175482 61.000000
2.730785 -0.535606 -0.176247 63.000000
2.739886 -0.546121 -0.177089 58.000000
2.745039 -0.555907 -0.177625 43.000000
2.751134 -0.565930 -0.178237 41.000000
2.755241 -0.575588 -0.178697 35.000000
2.750536 -0.583419 -0.178467 51.000000
2.769204 -0.596254 -0.180074 34.000000
2.762491 -0.603685 -0.179692 42.000000
2.762573 -0.612588 -0.179845 48.000000
2.786948 -0.626958 -0.181912 29.000000
2.775289 -0.633291 -0.181146 18.000000
2.772362 -0.641578 -0.181070 7.000000
2.597909 -0.248062 -0.194865 33.000000
2.528741 -0.249278 -0.188744 70.000000
2.532919 -0.257540 -0.189187 63.000000
2.529145 -0.264998 -0.188921 72.000000
2.525349 -0.272435 -0.188655 72.000000
2.522521 -0.279961 -0.188477 53.000000
2.519671 -0.287473 -0.188300 67.000000
2.515810 -0.294853 -0.188034 75.000000
2.520827 -0.303285 -0.188566 56.000000
2.525816 -0.311750 -0.189098 63.000000
2.524848 -0.319498 -0.189098 73.000000
2.542623 -0.329679 -0.190784 70.000000
2.577145 -0.342203 -0.193978 51.000000
2.662936 -0.361926 -0.201785 70.000000
2.680557 -0.372703 -0.203471 60.000000
2.689262 -0.382328 -0.204358 83.000000
2.704833 -0.393014 -0.205867 75.000000
2.712482 -0.402628 -0.206665 48.000000
2.713203 -0.411247 -0.206843 72.000000
2.720788 -0.420941 -0.207641 62.000000
2.723419 -0.429908 -0.207996 60.000000
2.723071 -0.438419 -0.208085 72.000000
2.725645 -0.447418 -0.208439 82.000000
2.724259 -0.455778 -0.208439 64.000000
2.719902 -0.463631 -0.208173 54.000000
2.715523 -0.471462 -0.207907 77.000000
2.712102 -0.479443 -0.207730 69.000000
2.706697 -0.487056 -0.207375 46.000000
2.713028 -0.496794 -0.208085 66.000000
2.712470 -0.505298 -0.208173 69.000000
2.715801 -0.514545 -0.208617 81.000000
2.715187 -0.523063 -0.208706 56.000000
2.722367 -0.533114 -0.209504 103.000000
2.717788 -0.540880 -0.209238 123.000000
2.720021 -0.550006 -0.209593 63.000000
2.717345 -0.558148 -0.209504 72.000000
2.721470 -0.567703 -0.210036 65.000000
2.725562 -0.577289 -0.210569 49.000000
2.729620 -0.586905 -0.211101 35.000000
2.732673 -0.596339 -0.211545 51.000000
2.733748 -0.605367 -0.211811 54.000000
2.755201 -0.618994 -0.213940 36.000000
2.779509 -0.633423 -0.216336 23.000000
2.777553 -0.641948 -0.216336 23.000000
2.810482 -0.658653 -0.219530 5.000000
2.777959 -0.265623 -0.246170 30.000000
2.781091 -0.274534 -0.246575 24.000000
2.745594 -0.279552 -0.243032 29.000000
2.710091 -0.284356 -0.239489 32.000000
2.639965 -0.285219 -0.232403 37.000000
2.614357 -0.290580 -0.229872 50.000000
2.598626 -0.296912 -0.228353 46.000000
2.603632 -0.305576 -0.228961 56.000000
2.670839 -0.321743 -0.235946 49.000000
2.689587 -0.332367 -0.237970 37.000000
2.715204 -0.343982 -0.240703 47.000000
2.724003 -0.353587 -0.241716 49.000000
2.729809 -0.362857 -0.242424 54.000000
2.734598 -0.372033 -0.243032 64.000000
2.736400 -0.380831 -0.243335 50.000000
2.734234 -0.389084 -0.243234 56.000000
2.730073 -0.397043 -0.242931 54.000000
2.727858 -0.405271 -0.242829 45.000000
2.724634 -0.413340 -0.242627 48.000000
2.729253 -0.422608 -0.243234 52.000000
2.733840 -0.431908 -0.243842 54.000000
2.732502 -0.440294 -0.243842 47.000000
2.736047 -0.449479 -0.244348 43.000000
2.738580 -0.458527 -0.244753 41.000000
2.740103 -0.467427 -0.245056 41.000000
2.738656 -0.475831 -0.245056 68.000000
2.732285 -0.483367 -0.244550 74.000000
2.732748 -0.492099 -0.244753 101.000000
2.723396 -0.499049 -0.243943 75.000000
2.717939 -0.506674 -0.243538 48.000000
2.717350 -0.515195 -0.243639 61.000000
2.712825 -0.522966 -0.243335 44.000000
2.712185 -0.531477 -0.243437 50.000000
2.708590 -0.539408 -0.243234 73.000000
2.709848 -0.548306 -0.243538 57.000000
2.711076 -0.557217 -0.243842 58.000000
2.712276 -0.566140 -0.244145 47.000000
2.724153 -0.577340 -0.245563 39.000000
2.720424 -0.585278 -0.245360 33.000000
2.727364 -0.595527 -0.246271 51.000000
2.739123 -0.606899 -0.247688 35.000000
2.737248 -0.615300 -0.247688 41.000000
2.755719 -0.628331 -0.249814 25.000000
2.759595 -0.638125 -0.250422 22.000000
2.801251 -0.267018 -0.282134 24.000000
2.807340 -0.276294 -0.282925 20.000000
2.776824 -0.281890 -0.279534 33.000000
2.771993 -0.289994 -0.279082 53.000000
2.756273 -0.296899 -0.277387 78.000000
2.756336 -0.305463 -0.277500 76.000000
2.752424 -0.313580 -0.277161 68.000000
2.748489 -0.321676 -0.276821 71.000000
2.744530 -0.329751 -0.276482 55.000000
2.744491 -0.338291 -0.276595 63.000000
2.742455 -0.346585 -0.276482 55.000000
2.739408 -0.354741 -0.276256 63.000000
2.740277 -0.363406 -0.276482 56.000000
2.742103 -0.372212 -0.276821 52.000000
2.743900 -0.381034 -0.277161 65.000000
2.747637 -0.390149 -0.277726 59.000000
2.746427 -0.398577 -0.277726 60.000000
2.750105 -0.407730 -0.278291 55.000000
2.755718 -0.417208 -0.279082 52.000000
2.757370 -0.426116 -0.279421 51.000000
2.766846 -0.436277 -0.280664 53.000000
2.763533 -0.444448 -0.280438 49.000000
2.770981 -0.454372 -0.281456 45.000000
2.773493 -0.463527 -0.281908 62.000000
2.773038 -0.472201 -0.282021 118.000000
2.760808 -0.478837 -0.280777 61.000000
2.761282 -0.487651 -0.281004 91.000000
2.741193 -0.492777 -0.278856 75.000000
2.736737 -0.500648 -0.278517 71.000000
2.728350 -0.507768 -0.277726 51.000000
2.720922 -0.515027 -0.277048 73.000000
2.718354 -0.523184 -0.276934 70.000000
2.718686 -0.531903 -0.277161 62.000000
2.715092 -0.539854 -0.276934 61.000000
2.721214 -0.549756 -0.277839 58.000000
2.719515 -0.558102 -0.277839 66.000000
2.718762 -0.566646 -0.277952 66.000000
2.724788 -0.576631 -0.278856 64.000000
2.730777 -0.586658 -0.279760 43.000000
2.733818 -0.596092 -0.280325 36.000000
2.740707 -0.606410 -0.281343 39.000000
2.738834 -0.614815 -0.281343 40.000000
2.739841 -0.623877 -0.281682 39.000000
2.739850 -0.632728 -0.281908 20.000000
2.793044 -0.267059 -0.316281 16.000000
2.781350 -0.274559 -0.314903 31.000000
2.775560 -0.282591 -0.314276 40.000000
2.776653 -0.291311 -0.314527 44.000000
2.773774 -0.299616 -0.314276 42.000000
2.767911 -0.307578 -0.313649 54.000000
2.767940 -0.316181 -0.313775 44.000000
2.765971 -0.324556 -0.313649 57.000000
2.760037 -0.332449 -0.313023 51.000000
2.754081 -0.340309 -0.312396 43.000000
2.747118 -0.348011 -0.311644 47.000000
2.744070 -0.356183 -0.311393 50.000000
2.744931 -0.364861 -0.311644 52.000000
2.740849 -0.372880 -0.311268 54.000000
2.739692 -0.381288 -0.311268 63.000000
2.742439 -0.390248 -0.311769 60.000000
2.743192 -0.398945 -0.312020 38.000000
2.753733 -0.409104 -0.313524 48.000000
2.762274 -0.419034 -0.314777 55.000000
2.764898 -0.428112 -0.315279 50.000000
2.776311 -0.438600 -0.316908 46.000000
2.785728 -0.448847 -0.318287 52.000000
2.790212 -0.458354 -0.319039 43.000000
2.789771 -0.467075 -0.319164 77.000000
2.795171 -0.476797 -0.320041 108.000000
2.768279 -0.480965 -0.316783 48.000000
2.762883 -0.488766 -0.316281 29.000000
2.755511 -0.496188 -0.315529 32.000000
2.749096 -0.503747 -0.314903 34.000000
2.743636 -0.511454 -0.314401 36.000000
2.735230 -0.518578 -0.313524 31.000000
2.720961 -0.524531 -0.311895 44.000000
2.723234 -0.533638 -0.312396 43.000000
2.712826 -0.540250 -0.311268 49.000000
2.708239 -0.547981 -0.310892 59.000000
2.706545 -0.556287 -0.310892 47.000000
2.706768 -0.564993 -0.311143 43.000000
2.711816 -0.574731 -0.312020 58.000000
2.716830 -0.584506 -0.312897 47.000000
2.723748 -0.594740 -0.314025 31.000000
2.723848 -0.603522 -0.314276 38.000000
2.724888 -0.612527 -0.314652 33.000000
2.725899 -0.621544 -0.315028 26.000000
2.723012 -0.629681 -0.314903 9.000000
2.815534 -0.276114 -0.354189 28.000000
2.812702 -0.284551 -0.353914 29.000000
2.798024 -0.291739 -0.351990 32.000000
2.779389 -0.298416 -0.349516 63.000000
2.771569 -0.306180 -0.348554 62.000000
2.764711 -0.314010 -0.347729 51.000000
2.757832 -0.321801 -0.346905 62.000000
2.754865 -0.330024 -0.346630 65.000000
2.748924 -0.337870 -0.345942 67.000000
2.756719 -0.347418 -0.347179 45.000000
2.755640 -0.355873 -0.347179 75.000000
2.759445 -0.364976 -0.347867 54.000000
2.762239 -0.373972 -0.348416 59.000000
2.764021 -0.382853 -0.348829 54.000000
2.769699 -0.392304 -0.349791 55.000000
2.779265 -0.402362 -0.351303 51.000000
2.781937 -0.411467 -0.351853 58.000000
2.788496 -0.421185 -0.352952 47.000000
2.796001 -0.431098 -0.354189 53.000000
2.805429 -0.441368 -0.355701 38.000000
2.816775 -0.452015 -0.357488 35.000000
2.818308 -0.461135 -0.357900 27.000000
2.793432 -0.465865 -0.354601 85.000000
2.806637 -0.476924 -0.356663 70.000000
2.797353 -0.484180 -0.355564 41.000000
2.788050 -0.491384 -0.354464 41.000000
2.777755 -0.498360 -0.353227 44.000000
2.769393 -0.505633 -0.352265 40.000000
2.762959 -0.513222 -0.351578 47.000000
2.752612 -0.520040 -0.350341 52.000000
2.746140 -0.527547 -0.349653 46.000000
2.741593 -0.535400 -0.349241 34.000000
2.737022 -0.543230 -0.348829 59.000000
2.735343 -0.551624 -0.348829 49.000000
2.729756 -0.559218 -0.348279 64.000000
2.728998 -0.567792 -0.348416 45.000000
2.729181 -0.576572 -0.348691 60.000000
2.725462 -0.584526 -0.348416 42.000000
2.727528 -0.593728 -0.348966 48.000000
2.730529 -0.603162 -0.349653 41.000000
2.727699 -0.611320 -0.349516 34.000000
2.735469 -0.621883 -0.350890 18.000000
2.785004 -0.284037 -0.383819 48.000000
2.791987 -0.293403 -0.385013 27.000000
2.780260 -0.300802 -0.383372 38.000000
2.776376 -0.309003 -0.382924 27.000000
2.765590 -0.316400 -0.381432 54.000000
2.759696 -0.324308 -0.380686 52.000000
2.760651 -0.333009 -0.380985 46.000000
2.756673 -0.341114 -0.380537 52.000000
2.755613 -0.349570 -0.380537 65.000000
2.762373 -0.359039 -0.381731 48.000000
2.766159 -0.368162 -0.382477 59.000000
2.771875 -0.377578 -0.383521 43.000000
2.776580 -0.386897 -0.384416 35.000000
2.783212 -0.396526 -0.385610 60.000000
2.788832 -0.406057 -0.386654 57.000000
2.793442 -0.415482 -0.387549 51.000000
2.798020 -0.424938 -0.388444 44.000000
2.800612 -0.434125 -0.389041 31.000000
2.802197 -0.443177 -0.389489 28.000000
2.816445 -0.454285 -0.391876 33.000000
2.798450 -0.460203 -0.389339 9.000000
2.814579 -0.471721 -0.392025 30.000000
2.819942 -0.481516 -0.393069 38.000000
2.808709 -0.488475 -0.391577 32.000000
2.806224 -0.496917 -0.391428 33.000000
2.795927 -0.503949 -0.390085 39.000000
2.785614 -0.510923 -0.388743 43.000000
2.782089 -0.519105 -0.388444 41.000000
2.772711 -0.526166 -0.387251 46.000000
2.763316 -0.533175 -0.386057 54.000000
2.762638 -0.541840 -0.386206 47.000000
2.752234 -0.548577 -0.384864 44.000000
2.747630 -0.556430 -0.384416 44.000000
2.743005 -0.564261 -0.383969 41.000000
2.736421 -0.571665 -0.383223 37.000000
2.738523 -0.580876 -0.383819 55.000000
2.736728 -0.589275 -0.383819 37.000000
2.733942 -0.597458 -0.383670 47.000000
2.765886 -0.613321 -0.388892 23.000000
2.737942 -0.615955 -0.384864 35.000000
2.860411 -0.652679 -0.404109 9.000000
2.858395 -0.661451 -0.404109 6.000000
2.809448 -0.284714 -0.422144 31.000000
2.802672 -0.292716 -0.421177 45.000000
2.793910 -0.300468 -0.419889 36.000000
2.786108 -0.308277 -0.418761 60.000000
2.787111 -0.317047 -0.419083 45.000000
2.780244 -0.324908 -0.418117 52.000000
2.774334 -0.332848 -0.417311 81.000000
2.774280 -0.341478 -0.417472 63.000000
2.774198 -0.350112 -0.417634 45.000000
2.780941 -0.359635 -0.418922 51.000000
2.784717 -0.368814 -0.419728 48.000000
2.790418 -0.378284 -0.420855 52.000000
2.790222 -0.386979 -0.421016 38.000000
2.801724 -0.397341 -0.423111 58.000000
2.811236 -0.407494 -0.424882 48.000000
2.815830 -0.416985 -0.425849 44.000000
2.816489 -0.425917 -0.426171 55.000000
2.822972 -0.435761 -0.427460 41.000000
2.813823 -0.443191 -0.426171 36.000000
2.831523 -0.481662 -0.430037 29.000000
2.822252 -0.488998 -0.428749 42.000000
2.808104 -0.495424 -0.426654 49.000000
2.810456 -0.504735 -0.427299 34.000000
2.795303 -0.510869 -0.425044 49.000000
2.788871 -0.518539 -0.424238 56.000000
2.779509 -0.525625 -0.422949 46.000000
2.767223 -0.532099 -0.421177 46.000000
2.766546 -0.540775 -0.421339 62.000000
2.767778 -0.549838 -0.421822 50.000000
2.760273 -0.557154 -0.420855 53.000000
2.753717 -0.564628 -0.420050 46.000000
2.752938 -0.573275 -0.420211 58.000000
2.758891 -0.583353 -0.421500 51.000000
2.763843 -0.593265 -0.422627 49.000000
2.771652 -0.603844 -0.424238 30.000000
2.765932 -0.611491 -0.423594 46.000000
2.767895 -0.620839 -0.424238 30.000000
2.829992 -0.288606 -0.460596 30.000000
2.814399 -0.295749 -0.458002 32.000000
2.799769 -0.302904 -0.455581 47.000000
2.796869 -0.311275 -0.455235 32.000000
2.787093 -0.318851 -0.453678 33.000000
2.782189 -0.326942 -0.452986 46.000000
2.772372 -0.334418 -0.451430 54.000000
2.772310 -0.343042 -0.451602 46.000000
2.775153 -0.352040 -0.452294 42.000000
2.776014 -0.360806 -0.452640 40.000000
2.780752 -0.370098 -0.453678 29.000000
2.781556 -0.378892 -0.454024 45.000000
2.788184 -0.388509 -0.455408 41.000000
2.795756 -0.398307 -0.456964 61.000000
2.810116 -0.409147 -0.459732 54.000000
2.823462 -0.419934 -0.462326 39.000000
2.830925 -0.429921 -0.463883 42.000000
2.823752 -0.437702 -0.462845 34.000000
2.745537 -0.434240 -0.449181 6.000000
2.848211 -0.495328 -0.468726 23.000000
2.830190 -0.501151 -0.465785 33.000000
2.818945 -0.508089 -0.464056 34.000000
2.798965 -0.513366 -0.460769 50.000000
2.799314 -0.522311 -0.461115 34.000000
2.784150 -0.528332 -0.458694 37.000000
2.770910 -0.534636 -0.456618 37.000000
2.769256 -0.543135 -0.456618 51.000000
2.766611 -0.551436 -0.456445 38.000000
2.767802 -0.560507 -0.456964 35.000000
2.764140 -0.568600 -0.456618 46.000000
2.761419 -0.576876 -0.456445 52.000000
2.769272 -0.587385 -0.458175 46.000000
2.773234 -0.597120 -0.459213 36.000000
2.785824 -0.608773 -0.461807 22.000000
2.769518 -0.614125 -0.459213 32.000000
2.777222 -0.633731 -0.461288 8.000000
2.826233 -0.304941 -0.494380 19.000000
2.817470 -0.312742 -0.492904 31.000000
2.808685 -0.320492 -0.491429 29.000000
2.794999 -0.327618 -0.489030 45.000000
2.784223 -0.335016 -0.487186 60.000000
2.779280 -0.343074 -0.486448 57.000000
2.780164 -0.351846 -0.486817 48.000000
2.778097 -0.360247 -0.486632 54.000000
2.783799 -0.369675 -0.487924 41.000000
2.794338 -0.379804 -0.490137 36.000000
2.804841 -0.390001 -0.492351 46.000000
2.815308 -0.400266 -0.494564 45.000000
2.826710 -0.410741 -0.496962 44.000000
2.829326 -0.419989 -0.497700 38.000000
2.838713 -0.430289 -0.499729 47.000000
2.831552 -0.438093 -0.498623 24.000000
2.781654 -0.439109 -0.489399 10.000000
2.858836 -0.496364 -0.505448 22.000000
2.848590 -0.503592 -0.503788 47.000000
2.832522 -0.509716 -0.501021 45.000000
2.825145 -0.517340 -0.499914 44.000000
2.814848 -0.524384 -0.498254 58.000000
2.802604 -0.531004 -0.496225 47.000000
2.791311 -0.537739 -0.494380 53.000000
2.783861 -0.545166 -0.493273 38.000000
2.779284 -0.553128 -0.492720 38.000000
2.781427 -0.562432 -0.493458 47.000000
2.774875 -0.569973 -0.492535 62.000000
2.775038 -0.578885 -0.492904 40.000000
2.775172 -0.587804 -0.493273 49.000000
2.784885 -0.598796 -0.495487 35.000000
2.790717 -0.609015 -0.496962 19.000000
2.786916 -0.617148 -0.496594 33.000000
2.807065 -0.630654 -0.500836 11.000000
2.816725 -0.304732 -0.527303 27.000000
2.809929 -0.312723 -0.526126 28.000000
2.800188 -0.320343 -0.524361 28.000000
2.796271 -0.328591 -0.523773 44.000000
2.786487 -0.336115 -0.522008 51.000000
2.786416 -0.344782 -0.522204 50.000000
2.793128 -0.354313 -0.523773 53.000000
2.793973 -0.363132 -0.524165 43.000000
2.806454 -0.373508 -0.526911 26.000000
2.813068 -0.383172 -0.528480 30.000000
2.820621 -0.393015 -0.530245 30.000000
