ply
format ascii 1.0
element vertex 1268
property float x
property float y
property float z
property float intensity
end_header
2.936395 0.372552 0.279784 50.000000
2.940491 0.363908 0.280031 51.000000
2.944562 0.355243 0.280279 54.000000
2.948608 0.346556 0.280526 54.000000
2.948667 0.337395 0.280444 67.000000
2.951669 0.328567 0.280608 56.000000
2.956627 0.319938 0.280938 48.000000
2.960568 0.311178 0.281186 61.000000
2.962500 0.302195 0.281268 75.000000
2.965397 0.293301 0.281433 52.000000
2.969259 0.284486 0.281680 49.000000
2.969125 0.275283 0.281598 47.000000
2.971941 0.266351 0.281763 63.000000
2.969766 0.256974 0.281516 56.000000
2.973520 0.248110 0.281763 52.000000
2.980227 0.239465 0.282258 57.000000
2.981941 0.230397 0.282340 51.000000
2.985616 0.221468 0.282587 64.000000
2.992246 0.212731 0.283082 59.000000
2.994873 0.203685 0.283247 54.000000
3.000457 0.194818 0.283659 55.000000
3.005019 0.185857 0.283989 76.000000
3.006570 0.176695 0.284072 70.000000
3.009088 0.167581 0.284237 66.000000
3.012573 0.158505 0.284484 70.000000
3.013046 0.149262 0.284484 65.000000
3.012494 0.139971 0.284402 66.000000
3.013905 0.130771 0.284484 70.000000
3.014292 0.121524 0.284484 37.000000
3.015646 0.112313 0.284567 50.000000
3.018965 0.103162 0.284814 51.000000
3.023251 0.094023 0.285144 36.000000
3.025518 0.084803 0.285309 58.000000
3.029749 0.075620 0.285639 44.000000
3.033952 0.066411 0.285968 58.000000
3.040120 0.057214 0.286463 61.000000
3.045264 0.047965 0.286875 54.000000
3.046393 0.038634 0.286958 52.000000
3.053473 0.029354 0.287535 42.000000
3.056539 0.020005 0.287782 45.000000
3.060572 0.010641 0.288112 45.000000
3.066570 0.001253 0.288607 67.000000
3.067556 -0.008158 0.288690 53.000000
3.069510 -0.017580 0.288854 52.000000
3.072431 -0.027024 0.289102 46.000000
3.072333 -0.036450 0.289102 49.000000
3.080179 -0.045996 0.289762 47.000000
3.084009 -0.055518 0.290091 55.000000
3.085817 -0.065021 0.290256 53.000000
3.090584 -0.074609 0.290669 38.000000
3.092334 -0.084145 0.290834 45.000000
3.098037 -0.093813 0.291328 36.000000
3.105703 -0.103584 0.291988 29.000000
3.097404 -0.112821 0.291328 39.000000
3.098039 -0.122362 0.291411 32.000000
3.097649 -0.131866 0.291411 28.000000
3.097229 -0.141369 0.291411 34.000000
3.078864 -0.149996 0.289926 10.000000
2.902926 0.475630 0.243343 33.000000
2.911265 0.467832 0.243837 49.000000
2.907760 0.458120 0.243484 36.000000
2.904223 0.448434 0.243131 27.000000
2.915447 0.441018 0.243837 40.000000
2.917773 0.432218 0.243908 35.000000
2.920073 0.423408 0.243978 43.000000
2.918396 0.414025 0.243766 49.000000
2.916688 0.404658 0.243555 52.000000
2.920881 0.396111 0.243766 54.000000
2.924060 0.387410 0.243908 28.000000
2.926224 0.378566 0.243978 42.000000
2.931330 0.370088 0.244261 43.000000
2.935422 0.361460 0.244473 42.000000
2.939488 0.352810 0.244685 56.000000
2.946501 0.344488 0.245108 43.000000
2.947543 0.335447 0.245108 56.000000
2.950541 0.326622 0.245250 43.000000
2.952522 0.317676 0.245320 50.000000
2.954474 0.308720 0.245391 47.000000
2.956400 0.299755 0.245461 40.000000
2.962269 0.291174 0.245815 54.000000
2.965134 0.282274 0.245956 60.000000
2.964993 0.273084 0.245885 64.000000
2.968797 0.264253 0.246097 55.000000
2.968601 0.255058 0.246026 63.000000
2.971357 0.246114 0.246168 49.000000
2.977070 0.237396 0.246521 62.000000
2.979774 0.228414 0.246662 43.000000
2.982450 0.219418 0.246803 47.000000
2.988084 0.210620 0.247157 66.000000
2.989711 0.201519 0.247227 67.000000
2.993302 0.192539 0.247439 45.000000
2.996865 0.183539 0.247651 37.000000
2.993431 0.174111 0.247368 53.000000
2.995943 0.165037 0.247510 53.000000
2.997431 0.155897 0.247580 45.000000
3.000884 0.146847 0.247792 43.000000
3.005306 0.137824 0.248075 59.000000
3.007708 0.128690 0.248216 56.000000
3.011079 0.119581 0.248428 53.000000
3.014422 0.110454 0.248640 51.000000
3.017738 0.101307 0.248852 48.000000
3.019031 0.092079 0.248922 47.000000
3.018302 0.082788 0.248852 48.000000
3.018542 0.073528 0.248852 45.000000
3.021745 0.064332 0.249063 52.000000
3.023923 0.055098 0.249205 57.000000
3.029065 0.045898 0.249558 36.000000
3.030189 0.036617 0.249628 51.000000
3.038267 0.027395 0.250193 49.000000
3.041329 0.018093 0.250405 49.000000
3.049350 0.008788 0.250970 46.000000
3.053353 -0.000566 0.251253 45.000000
3.055331 -0.009940 0.251394 49.000000
3.062269 -0.019355 0.251889 39.000000
3.063193 -0.028758 0.251959 45.000000
3.069075 -0.038228 0.252383 36.000000
3.068943 -0.047644 0.252383 42.000000
3.069780 -0.057077 0.252454 43.000000
3.070587 -0.066516 0.252524 41.000000
3.066380 -0.075839 0.252242 56.000000
3.068127 -0.085301 0.252383 50.000000
3.064860 -0.094622 0.252171 42.000000
3.069540 -0.104192 0.252524 60.000000
3.077180 -0.113901 0.253089 34.000000
3.077813 -0.123381 0.253160 48.000000
3.086390 -0.133206 0.253795 31.000000
3.086963 -0.142720 0.253866 32.000000
3.092488 -0.152483 0.254290 29.000000
3.091010 -0.161918 0.254219 36.000000
3.094483 -0.171620 0.254502 11.000000
2.902458 0.449472 0.206153 43.000000
2.906785 0.441014 0.206327 36.000000
2.912074 0.432680 0.206560 45.000000
2.908448 0.423026 0.206269 30.000000
2.908744 0.413961 0.206211 39.000000
2.908023 0.404760 0.206095 45.000000
2.912218 0.396240 0.206269 47.000000
2.915400 0.387566 0.206385 53.000000
2.916575 0.378620 0.206385 60.000000
2.924656 0.370548 0.206792 67.000000
2.933705 0.362552 0.207257 68.000000
2.940750 0.354265 0.207605 59.000000
2.945790 0.345707 0.207838 54.000000
2.949812 0.337007 0.208012 59.000000
2.953809 0.328286 0.208186 44.000000
2.954802 0.319222 0.208186 50.000000
2.951796 0.309739 0.207954 52.000000
2.952732 0.300682 0.207954 79.000000
2.956621 0.291915 0.208128 76.000000
2.959490 0.283033 0.208244 62.000000
2.959351 0.273860 0.208186 72.000000
2.962166 0.264958 0.208302 62.000000
2.965949 0.256126 0.208477 68.000000
2.970700 0.247356 0.208709 58.000000
2.976421 0.238639 0.208999 61.000000
2.980125 0.229736 0.209174 52.000000
2.985793 0.220960 0.209464 53.000000
2.992432 0.212222 0.209813 60.000000
2.994066 0.203107 0.209871 61.000000
2.994674 0.193921 0.209871 80.000000
2.998244 0.184916 0.210045 57.000000
2.997801 0.175659 0.209987 64.000000
2.999323 0.166516 0.210045 71.000000
3.000816 0.157366 0.210103 54.000000
3.003279 0.148257 0.210219 52.000000
3.010701 0.139364 0.210626 70.000000
3.013109 0.130213 0.210742 69.000000
3.017484 0.121128 0.210974 41.000000
3.015846 0.111796 0.210858 42.000000
3.021164 0.102712 0.211149 49.000000
3.020467 0.093412 0.211090 56.000000
3.021737 0.084173 0.211149 49.000000
3.023977 0.074951 0.211265 66.000000
3.029183 0.065781 0.211555 46.000000
3.029371 0.056487 0.211555 49.000000
3.035519 0.047285 0.211904 57.000000
3.039643 0.038022 0.212136 68.000000
3.045735 0.028752 0.212485 51.000000
3.047805 0.019420 0.212601 47.000000
3.051844 0.010082 0.212833 47.000000
3.051860 0.000719 0.212833 49.000000
3.057838 -0.008662 0.213182 45.000000
3.065783 -0.018091 0.213646 51.000000
3.067710 -0.027515 0.213762 53.000000
3.074599 -0.037011 0.214169 45.000000
3.075469 -0.046459 0.214227 56.000000
3.078306 -0.055949 0.214401 47.000000
3.086105 -0.065563 0.214866 43.000000
3.083893 -0.074982 0.214750 56.000000
3.083649 -0.084443 0.214750 55.000000
3.083375 -0.093903 0.214750 51.000000
3.090057 -0.103598 0.215157 45.000000
3.093715 -0.113224 0.215389 35.000000
3.096346 -0.122834 0.215563 44.000000
3.098946 -0.132461 0.215737 47.000000
3.101517 -0.142105 0.215912 38.000000
3.107049 -0.151913 0.216260 41.000000
3.112550 -0.161756 0.216609 36.000000
3.115030 -0.171470 0.216783 32.000000
3.112496 -0.180910 0.216667 35.000000
3.132851 -0.191741 0.217887 12.000000
2.898288 0.428809 0.171056 29.000000
2.901567 0.420202 0.171148 29.000000
2.903831 0.411439 0.171194 34.000000
2.903101 0.402253 0.171102 35.000000
2.906301 0.393614 0.171194 26.000000
2.902544 0.384038 0.170963 33.000000
2.902718 0.375003 0.170917 40.000000
2.910792 0.366974 0.171241 52.000000
2.913887 0.358286 0.171333 34.000000
2.916956 0.349583 0.171426 53.000000
2.925952 0.341562 0.171795 46.000000
2.931949 0.333150 0.172027 37.000000
2.942885 0.325255 0.172489 38.000000
2.949828 0.316867 0.172766 49.000000
2.949793 0.307711 0.172720 54.000000
2.954698 0.299064 0.172905 39.000000
2.953614 0.289802 0.172813 47.000000
2.953495 0.280644 0.172766 49.000000
2.952353 0.271398 0.172674 52.000000
2.952176 0.262250 0.172628 58.000000
2.953962 0.253278 0.172674 55.000000
2.953730 0.244131 0.172628 35.000000
2.960439 0.235546 0.172905 54.000000
2.961148 0.226462 0.172905 44.000000
2.966810 0.217744 0.173136 59.000000
2.971450 0.208923 0.173321 61.000000
2.977060 0.200142 0.173552 49.000000
2.979654 0.191137 0.173645 68.000000
2.982220 0.182117 0.173737 58.000000
2.983762 0.173025 0.173784 52.000000
2.987271 0.164035 0.173922 51.000000
2.990753 0.155026 0.174061 48.000000
2.998199 0.146193 0.174385 48.000000
3.005618 0.137316 0.174708 37.000000
3.006025 0.128094 0.174708 53.000000
3.014389 0.119190 0.175078 53.000000
3.014741 0.109941 0.175078 49.000000
3.016062 0.100726 0.175124 48.000000
3.020351 0.091595 0.175309 47.000000
3.019619 0.082300 0.175263 49.000000
3.021855 0.073085 0.175356 54.000000
3.026059 0.063900 0.175540 55.000000
3.023245 0.054560 0.175402 40.000000
3.024397 0.045300 0.175448 52.000000
3.028517 0.036070 0.175633 42.000000
3.028613 0.026779 0.175633 50.000000
3.026684 0.017475 0.175540 43.000000
3.027722 0.008192 0.175587 41.000000
3.036723 -0.001097 0.176003 41.000000
3.047694 -0.010447 0.176511 34.000000
3.058635 -0.019864 0.177020 35.000000
3.065552 -0.029312 0.177344 49.000000
3.076435 -0.038851 0.177852 33.000000
3.078299 -0.048320 0.177945 51.000000
3.087125 -0.057929 0.178361 33.000000
3.079942 -0.067250 0.178037 44.000000
3.082717 -0.076773 0.178176 36.000000
3.082467 -0.086230 0.178176 49.000000
3.078194 -0.095564 0.177991 52.000000
3.077887 -0.105007 0.177991 47.000000
3.083539 -0.114670 0.178268 42.000000
3.086168 -0.124249 0.178407 43.000000
3.089764 -0.133888 0.178592 45.000000
3.088341 -0.143321 0.178546 46.000000
3.088884 -0.152844 0.178592 33.000000
3.099374 -0.162893 0.179101 35.000000
3.096865 -0.172290 0.179008 23.000000
3.097319 -0.181849 0.179054 27.000000
3.097744 -0.191412 0.179101 41.000000
3.099135 -0.201043 0.179193 38.000000
3.117440 -0.211830 0.180071 20.000000
2.918974 0.414899 0.135511 37.000000
2.920233 0.405941 0.135511 36.000000
2.920475 0.396846 0.135477 31.000000
2.918706 0.387490 0.135376 56.000000
2.919881 0.378534 0.135376 41.000000
2.919046 0.369323 0.135308 66.000000
2.922149 0.360610 0.135376 52.000000
2.926219 0.352001 0.135477 55.000000
2.925299 0.342790 0.135409 53.000000
2.925344 0.333700 0.135376 49.000000
2.928341 0.324944 0.135443 61.000000
2.930318 0.316066 0.135477 58.000000
2.933262 0.307282 0.135545 51.000000
2.932202 0.298080 0.135477 60.000000
2.939070 0.289670 0.135680 66.000000
2.943925 0.281031 0.135816 69.000000
2.951740 0.272640 0.136053 44.000000
2.958535 0.264116 0.136256 59.000000
2.962319 0.255295 0.136357 50.000000
2.964084 0.246288 0.136391 47.000000
2.966818 0.237352 0.136459 59.000000
2.969526 0.228402 0.136527 68.000000
2.972206 0.219437 0.136594 42.000000
2.970871 0.210177 0.136527 57.000000
2.973496 0.201196 0.136594 49.000000
2.975097 0.192137 0.136628 48.000000
2.979662 0.183253 0.136764 57.000000
2.983204 0.174286 0.136865 53.000000
2.984722 0.165188 0.136899 62.000000
2.988209 0.156186 0.137001 61.000000
2.992667 0.147213 0.137136 64.000000
2.998097 0.138261 0.137305 85.000000
2.996510 0.128976 0.137238 49.000000
2.999887 0.119902 0.137339 42.000000
3.004236 0.110845 0.137474 58.000000
3.005561 0.101661 0.137508 56.000000
3.006857 0.092470 0.137542 62.000000
3.013121 0.083410 0.137745 76.000000
3.012364 0.074141 0.137711 60.000000
3.016574 0.064985 0.137847 55.000000
3.020756 0.055803 0.137982 57.000000
3.020913 0.046535 0.137982 58.000000
3.022041 0.037279 0.138016 70.000000
3.025140 0.028035 0.138118 42.000000
3.026211 0.018760 0.138152 63.000000
3.026254 0.009475 0.138152 49.000000
3.030267 0.000191 0.138287 46.000000
3.031252 -0.009109 0.138321 46.000000
3.037206 -0.018446 0.138524 50.000000
3.041133 -0.027801 0.138659 45.000000
3.046030 -0.037193 0.138829 56.000000
3.054895 -0.046676 0.139133 33.000000
3.056736 -0.056085 0.139201 62.000000
3.062545 -0.065592 0.139404 64.000000
3.068324 -0.075135 0.139607 53.000000
3.072075 -0.084659 0.139743 46.000000
3.077795 -0.094268 0.139946 51.000000
3.078490 -0.103744 0.139980 43.000000
3.085149 -0.113446 0.140217 46.000000
3.086783 -0.122990 0.140284 60.000000
3.085393 -0.132417 0.140250 39.000000
3.088966 -0.142066 0.140386 46.000000
3.089513 -0.151591 0.140420 54.000000
3.093026 -0.161278 0.140555 44.000000
3.095510 -0.170932 0.140657 45.000000
3.093974 -0.180370 0.140623 39.000000
3.095401 -0.189984 0.140691 44.000000
3.104777 -0.200124 0.141029 40.000000
3.105146 -0.209715 0.141063 34.000000
3.109472 -0.219594 0.141232 31.000000
3.096823 -0.228249 0.140826 27.000000
3.015393 -0.231541 0.138084 5.000000
2.938299 0.398999 0.100023 26.000000
2.931581 0.388928 0.099850 29.000000
2.928795 0.379417 0.099764 27.000000
2.917052 0.368794 0.099482 35.000000
2.916185 0.359598 0.099439 40.000000
2.915289 0.350410 0.099396 35.000000
2.912379 0.340998 0.099309 53.000000
2.913411 0.332061 0.099309 52.000000
2.912429 0.322900 0.099266 30.000000
2.915394 0.314178 0.099309 39.000000
2.917338 0.305337 0.099331 33.000000
2.924229 0.296994 0.099461 39.000000
2.932091 0.288709 0.099612 53.000000
2.940924 0.280475 0.099785 45.000000
2.945753 0.271820 0.099872 64.000000
2.952548 0.263317 0.100002 41.000000
2.955334 0.254429 0.100045 40.000000
2.959090 0.245611 0.100110 54.000000
2.960826 0.236611 0.100132 51.000000
2.963531 0.227680 0.100175 44.000000
2.963219 0.218513 0.100153 45.000000
2.967864 0.209705 0.100240 37.000000
2.974478 0.201005 0.100370 55.000000
2.975081 0.191879 0.100370 51.000000
2.979647 0.182997 0.100456 46.000000
2.981193 0.173913 0.100478 57.000000
2.982711 0.164822 0.100499 44.000000
2.986197 0.155828 0.100564 48.000000
2.987660 0.146715 0.100586 53.000000
2.988096 0.137548 0.100586 41.000000
2.989503 0.128424 0.100608 38.000000
2.991880 0.119332 0.100651 42.000000
2.991233 0.110115 0.100629 34.000000
2.988559 0.100835 0.100564 32.000000
2.997848 0.091945 0.100759 42.000000
2.998116 0.082748 0.100759 37.000000
2.999356 0.073574 0.100781 57.000000
3.003565 0.064459 0.100867 50.000000
3.013745 0.055432 0.101084 34.000000
3.011901 0.046154 0.101040 43.000000
3.014028 0.036939 0.101084 46.000000
3.019126 0.027740 0.101192 46.000000
3.023196 0.018503 0.101278 46.000000
3.025238 0.009235 0.101322 48.000000
3.029251 -0.000045 0.101408 40.000000
3.026237 -0.009331 0.101343 45.000000
3.033193 -0.018655 0.101495 47.000000
3.039120 -0.028014 0.101625 46.000000
3.043018 -0.037385 0.101711 44.000000
3.048887 -0.046811 0.101841 46.000000
3.052727 -0.056236 0.101928 44.000000
3.055539 -0.065665 0.101993 49.000000
3.060321 -0.075160 0.102101 52.000000
3.064074 -0.084657 0.102187 37.000000
3.066797 -0.094148 0.102252 51.000000
3.066494 -0.103557 0.102252 40.000000
3.074155 -0.113256 0.102425 43.000000
3.079787 -0.122923 0.102555 42.000000
3.082392 -0.132499 0.102620 39.000000
3.087963 -0.142229 0.102750 32.000000
3.086514 -0.151653 0.102728 40.000000
3.088031 -0.161225 0.102772 49.000000
3.084527 -0.170534 0.102707 47.000000
3.084987 -0.180054 0.102728 46.000000
3.091405 -0.189945 0.102880 39.000000
3.094799 -0.199684 0.102966 33.000000
3.110132 -0.210251 0.103313 21.000000
3.106481 -0.219581 0.103248 28.000000
3.109780 -0.229403 0.103334 34.000000
3.120028 -0.239781 0.103572 33.000000
3.135223 -0.250621 0.103919 27.000000
2.906762 0.367258 0.063137 39.000000
2.914822 0.359194 0.063201 53.000000
2.911939 0.349773 0.063164 40.000000
2.914984 0.341070 0.063183 42.000000
2.918998 0.332464 0.063211 34.000000
2.917023 0.323177 0.063183 64.000000
2.918995 0.314333 0.063192 50.000000
2.923923 0.305792 0.063229 57.000000
2.927832 0.297123 0.063257 77.000000
2.932711 0.288530 0.063294 52.000000
2.940550 0.280194 0.063359 59.000000
2.946375 0.271630 0.063405 62.000000
2.949187 0.262766 0.063423 59.000000
2.952968 0.253974 0.063451 65.000000
2.956722 0.245160 0.063479 53.000000
2.958457 0.236167 0.063488 55.000000
2.958171 0.227014 0.063479 56.000000
2.957856 0.217864 0.063470 52.000000
2.961503 0.208999 0.063497 79.000000
2.963128 0.199979 0.063507 56.000000
2.963728 0.190888 0.063507 66.000000
2.965298 0.181855 0.063516 80.000000
2.966840 0.172815 0.063525 65.000000
2.971350 0.163932 0.063562 71.000000
2.975833 0.155023 0.063599 56.000000
2.979291 0.146039 0.063627 58.000000
2.986717 0.137218 0.063692 69.000000
2.991120 0.128225 0.063729 48.000000
2.997495 0.119286 0.063784 57.000000
3.007839 0.110454 0.063877 61.000000
3.008164 0.101226 0.063877 53.000000
3.013458 0.092149 0.063923 74.000000
3.018725 0.083040 0.063969 64.000000
3.016966 0.073730 0.063951 46.000000
3.020177 0.064537 0.063978 60.000000
3.021361 0.055289 0.063988 56.000000
3.018517 0.045974 0.063960 67.000000
3.022643 0.036762 0.063997 58.000000
3.023741 0.027497 0.064006 59.000000
3.023812 0.018220 0.064006 46.000000
3.024853 0.008946 0.064015 51.000000
3.030866 -0.000336 0.064071 67.000000
3.035851 -0.009651 0.064117 68.000000
3.043806 -0.019016 0.064191 52.000000
3.044734 -0.028363 0.064200 62.000000
3.048632 -0.037754 0.064237 59.000000
3.049501 -0.047123 0.064247 53.000000
3.051342 -0.056516 0.064265 64.000000
3.050154 -0.065855 0.064256 49.000000
3.049938 -0.075212 0.064256 55.000000
3.052692 -0.084653 0.064284 54.000000
3.057415 -0.094172 0.064330 52.000000
3.061109 -0.103688 0.064367 37.000000
3.068771 -0.113375 0.064441 41.000000
3.073404 -0.122990 0.064487 42.000000
3.077008 -0.132591 0.064524 51.000000
3.084578 -0.142401 0.064598 41.000000
3.086125 -0.151962 0.064617 45.000000
3.088639 -0.161586 0.064644 49.000000
3.091125 -0.171228 0.064672 45.000000
3.093580 -0.180886 0.064700 55.000000
3.098000 -0.190684 0.064746 40.000000
3.103388 -0.200575 0.064802 49.000000
3.102758 -0.210095 0.064802 44.000000
3.105091 -0.219826 0.064829 52.000000
3.108391 -0.229646 0.064866 30.000000
3.116645 -0.239873 0.064950 28.000000
3.109914 -0.248954 0.064894 40.000000
3.111128 -0.258660 0.064913 33.000000
3.116298 -0.268720 0.064968 25.000000
3.120438 -0.278725 0.065014 14.000000
3.095485 0.381780 0.025889 19.000000
2.959635 0.355758 0.026347 36.000000
2.958727 0.346443 0.026354 37.000000
2.941893 0.335319 0.026413 39.000000
2.925018 0.324301 0.026473 50.000000
2.920034 0.314680 0.026493 31.000000
2.920985 0.305720 0.026493 34.000000
2.925889 0.297163 0.026480 49.000000
2.932758 0.288775 0.026460 40.000000
2.936616 0.280063 0.026450 33.000000
2.943436 0.271605 0.026430 50.000000
2.945251 0.262663 0.026427 47.000000
2.947040 0.253712 0.026423 33.000000
2.946808 0.244586 0.026427 36.000000
2.951532 0.235865 0.026413 37.000000
2.952241 0.226808 0.026413 38.000000
2.950929 0.217602 0.026420 40.000000
2.953578 0.208690 0.026413 38.000000
2.960190 0.200034 0.026393 55.000000
2.961787 0.191016 0.026390 53.000000
2.967350 0.182237 0.026374 45.000000
2.970890 0.173308 0.026364 43.000000
2.971408 0.164193 0.026364 40.000000
2.975892 0.155286 0.026350 47.000000
2.976354 0.146155 0.026350 46.000000
2.976789 0.137023 0.026350 42.000000
2.979193 0.127977 0.026344 36.000000
2.980571 0.118876 0.026340 57.000000
2.985918 0.109917 0.026324 41.000000
2.988240 0.100824 0.026317 44.000000
2.995532 0.091873 0.026294 43.000000
2.996799 0.082711 0.026291 42.000000
2.999038 0.073566 0.026284 47.000000
3.002249 0.064431 0.026274 57.000000
3.002433 0.055219 0.026274 43.000000
3.002588 0.046008 0.026274 44.000000
3.006715 0.036846 0.026261 38.000000
3.009814 0.027650 0.026251 51.000000
3.016884 0.018462 0.026228 43.000000
3.020926 0.009220 0.026214 50.000000
3.023941 -0.000047 0.026204 40.000000
3.033926 -0.009351 0.026171 54.000000
3.036883 -0.018677 0.026161 54.000000
3.037811 -0.028002 0.026158 44.000000
3.037711 -0.037322 0.026158 50.000000
3.039582 -0.046671 0.026151 52.000000
3.039425 -0.055996 0.026151 44.000000
3.041238 -0.065363 0.026145 44.000000
3.041023 -0.074693 0.026145 55.000000
3.044778 -0.084132 0.026132 52.000000
3.046504 -0.093533 0.026125 55.000000
3.054199 -0.103146 0.026098 53.000000
3.054867 -0.112552 0.026095 58.000000
3.057505 -0.122042 0.026085 43.000000
3.063111 -0.131678 0.026065 39.000000
3.071683 -0.141485 0.026035 55.000000
3.073232 -0.151006 0.026029 35.000000
3.080744 -0.160848 0.026002 41.000000
3.087225 -0.170682 0.025979 38.000000
3.095672 -0.180674 0.025949 29.000000
3.096102 -0.190231 0.025946 44.000000
3.100493 -0.200049 0.025929 30.000000
3.093878 -0.209158 0.025949 20.000000
3.091227 -0.218509 0.025956 38.000000
3.098520 -0.228577 0.025929 31.000000
3.102790 -0.238463 0.025913 27.000000
3.116996 -0.249171 0.025863 8.000000
3.197282 0.395090 -0.014181 29.000000
3.166712 0.381457 -0.013678 35.000000
3.145026 0.369062 -0.013317 43.000000
3.021965 0.345241 -0.011353 35.000000
2.972328 0.330342 -0.010552 50.000000
2.952451 0.318969 -0.010222 50.000000
2.942477 0.308763 -0.010050 44.000000
2.937442 0.299127 -0.009955 57.000000
2.935361 0.289819 -0.009908 52.000000
2.938227 0.281002 -0.009940 59.000000
2.936088 0.271711 -0.009893 65.000000
2.930932 0.262168 -0.009798 71.000000
2.932719 0.253261 -0.009814 59.000000
2.932486 0.244179 -0.009798 50.000000
2.932224 0.235101 -0.009783 67.000000
2.937916 0.226488 -0.009861 66.000000
2.943583 0.217842 -0.009940 55.000000
2.954212 0.209516 -0.010097 69.000000
2.961823 0.200924 -0.010207 73.000000
2.968413 0.192224 -0.010301 80.000000
2.971983 0.183300 -0.010348 70.000000
2.975525 0.174356 -0.010395 64.000000
2.976046 0.165227 -0.010395 70.000000
2.974542 0.155991 -0.010364 61.000000
2.972011 0.146717 -0.010317 75.000000
2.972447 0.137598 -0.010317 72.000000
2.974853 0.128565 -0.010348 78.000000
2.978231 0.119557 -0.010395 63.000000
2.982580 0.110567 -0.010458 63.000000
2.985904 0.101518 -0.010505 59.000000
2.992197 0.092541 -0.010599 58.000000
2.994466 0.083416 -0.010631 64.000000
2.995707 0.074254 -0.010647 88.000000
2.995921 0.065063 -0.010647 69.000000
2.997106 0.055890 -0.010662 66.000000
3.002262 0.046772 -0.010741 58.000000
3.007391 0.037622 -0.010819 46.000000
3.013491 0.028452 -0.010914 66.000000
3.014564 0.019212 -0.010929 56.000000
3.020608 0.009983 -0.011024 66.000000
3.029623 0.000717 -0.011165 68.000000
3.026612 -0.008569 -0.011118 58.000000
3.032570 -0.017891 -0.011212 70.000000
3.032501 -0.027195 -0.011212 67.000000
3.032403 -0.036498 -0.011212 70.000000
3.035277 -0.045847 -0.011259 66.000000
3.035121 -0.055159 -0.011259 61.000000
3.037937 -0.064534 -0.011306 67.000000
3.043722 -0.074001 -0.011401 61.000000
3.050477 -0.083531 -0.011510 59.000000
3.059201 -0.093164 -0.011652 43.000000
3.060900 -0.102617 -0.011683 41.000000
3.063568 -0.112117 -0.011730 59.000000
3.071203 -0.121833 -0.011856 39.000000
3.075809 -0.131469 -0.011935 36.000000
3.076390 -0.140951 -0.011950 38.000000
3.076942 -0.150437 -0.011966 38.000000
3.079462 -0.160033 -0.012013 39.000000
3.088939 -0.170030 -0.012170 40.000000
3.108367 -0.180669 -0.012484 28.000000
3.106800 -0.190143 -0.012469 9.000000
3.238907 0.409615 -0.054004 25.000000
3.239156 0.399554 -0.053976 37.000000
3.226473 0.387939 -0.053587 43.000000
3.207792 0.375706 -0.053033 38.000000
3.188074 0.363477 -0.052450 38.000000
3.175265 0.352147 -0.052061 58.000000
3.034214 0.327031 -0.048094 27.000000
2.963625 0.310200 -0.046096 32.000000
2.938707 0.298470 -0.045374 31.000000
2.933640 0.288863 -0.045208 43.000000
2.928542 0.279289 -0.045041 31.000000
2.928390 0.270211 -0.045014 34.000000
2.927214 0.261047 -0.044958 42.000000
2.930989 0.252324 -0.045041 62.000000
2.934738 0.243580 -0.045125 52.000000
2.935471 0.234575 -0.045125 55.000000
2.933187 0.225337 -0.045041 41.000000
2.934862 0.216411 -0.045069 42.000000
2.943489 0.207973 -0.045291 56.000000
2.948102 0.199212 -0.045402 48.000000
2.944709 0.189908 -0.045291 46.000000
2.951264 0.181243 -0.045458 49.000000
2.956796 0.172481 -0.045596 61.000000
2.958309 0.163464 -0.045624 41.000000
2.964786 0.154702 -0.045791 40.000000
2.962251 0.145457 -0.045707 46.000000
2.962684 0.136369 -0.045707 55.000000
2.966084 0.127408 -0.045791 43.000000
2.972454 0.118549 -0.045957 53.000000
2.974802 0.109504 -0.046013 47.000000
2.979120 0.100513 -0.046124 48.000000
2.985409 0.091559 -0.046290 50.000000
2.990672 0.082539 -0.046429 50.000000
2.991910 0.073389 -0.046456 57.000000
2.995119 0.064275 -0.046540 43.000000
2.993304 0.055048 -0.046484 46.000000
2.995458 0.045896 -0.046540 44.000000
2.996584 0.036718 -0.046567 37.000000
2.997682 0.027534 -0.046595 51.000000
2.990755 0.018292 -0.046401 37.000000
2.993796 0.009127 -0.046484 32.000000
2.999808 -0.000056 -0.046651 29.000000
3.003792 -0.009270 -0.046762 44.000000
3.010746 -0.018526 -0.046956 44.000000
3.013674 -0.027789 -0.047039 54.000000
3.016573 -0.037071 -0.047122 40.000000
3.023442 -0.046430 -0.047317 32.000000
3.031281 -0.055850 -0.047539 42.000000
3.030096 -0.065128 -0.047511 37.000000
3.039875 -0.074666 -0.047788 59.000000
3.040631 -0.084019 -0.047816 50.000000
3.046354 -0.093529 -0.047983 46.000000
3.048051 -0.102941 -0.048038 57.000000
3.053714 -0.112510 -0.048205 46.000000
3.058349 -0.122076 -0.048343 43.000000
3.061955 -0.131628 -0.048454 30.000000
3.064532 -0.141158 -0.048538 41.000000
3.081058 -0.151387 -0.049009 18.000000
3.236958 0.389910 -0.094702 23.000000
3.212337 0.376952 -0.093654 52.000000
3.215463 0.367322 -0.093735 35.000000
3.200686 0.355691 -0.093090 49.000000
3.191828 0.344798 -0.092687 59.000000
3.139208 0.329380 -0.090510 28.000000
3.058691 0.311458 -0.087205 26.000000
2.986049 0.294817 -0.084222 49.000000
2.964063 0.283470 -0.083295 52.000000
2.948999 0.272904 -0.082650 49.000000
2.938875 0.262877 -0.082207 48.000000
2.935686 0.253516 -0.082046 47.000000
2.934458 0.244343 -0.081965 62.000000
2.936190 0.235419 -0.082006 50.000000
2.931917 0.226026 -0.081804 50.000000
2.934590 0.217177 -0.081885 64.000000
2.938232 0.208385 -0.082006 60.000000
2.942845 0.199640 -0.082167 58.000000
2.944441 0.190674 -0.082207 61.000000
2.947007 0.181763 -0.082288 56.000000
2.948548 0.172779 -0.082328 62.000000
2.954052 0.164009 -0.082530 65.000000
2.962524 0.155362 -0.082852 44.000000
2.964983 0.146371 -0.082933 74.000000
2.967414 0.137366 -0.083013 47.000000
2.973811 0.128520 -0.083255 57.000000
2.977187 0.119515 -0.083376 45.000000
2.977540 0.110381 -0.083376 64.000000
2.980860 0.101347 -0.083497 60.000000
2.979159 0.092140 -0.083416 62.000000
2.983423 0.083110 -0.083577 57.000000
2.988659 0.074080 -0.083779 51.000000
2.992868 0.064997 -0.083940 63.000000
2.998048 0.055907 -0.084142 56.000000
3.005199 0.046817 -0.084424 52.000000
3.009325 0.037646 -0.084585 71.000000
3.015421 0.028470 -0.084827 57.000000
3.019491 0.019243 -0.084988 42.000000
3.022533 0.009989 -0.085109 34.000000
3.024548 0.000716 -0.085190 53.000000
3.022538 -0.008557 -0.085109 48.000000
3.022497 -0.017830 -0.085109 60.000000
3.018432 -0.027067 -0.084948 53.000000
3.018335 -0.036327 -0.084948 36.000000
3.029199 -0.045754 -0.085391 51.000000
3.016057 -0.054810 -0.084867 22.000000
3.008882 -0.063913 -0.084585 11.000000
3.045630 -0.074047 -0.086076 26.000000
3.047386 -0.083446 -0.086157 25.000000
3.053109 -0.092978 -0.086399 14.000000
3.062795 -0.102680 -0.086802 11.000000
3.249002 0.399626 -0.134550 21.000000
3.242281 0.388703 -0.134131 28.000000
3.221637 0.376198 -0.132980 43.000000
3.212854 0.365181 -0.132457 38.000000
3.198079 0.353561 -0.131619 60.000000
3.187234 0.342463 -0.130991 54.000000
3.178338 0.331643 -0.130468 48.000000
3.155496 0.319468 -0.129212 51.000000
3.126647 0.306848 -0.127642 44.000000
3.079856 0.292701 -0.125130 39.000000
3.012125 0.276916 -0.121518 38.000000
2.984116 0.265100 -0.120001 29.000000
2.955066 0.253373 -0.118431 42.000000
2.937916 0.242818 -0.117489 48.000000
2.925706 0.232768 -0.116808 44.000000
2.927402 0.223868 -0.116860 43.000000
2.927079 0.214812 -0.116808 48.000000
2.931709 0.206113 -0.117017 38.000000
2.935317 0.197320 -0.117174 46.000000
2.938898 0.188506 -0.117332 42.000000
2.944447 0.179795 -0.117593 46.000000
2.949969 0.171052 -0.117855 46.000000
2.957459 0.162387 -0.118221 39.000000
2.958941 0.153365 -0.118274 52.000000
2.959398 0.144286 -0.118274 49.000000
2.962819 0.135344 -0.118431 40.000000
2.965216 0.126339 -0.118535 45.000000
2.968583 0.117361 -0.118692 44.000000
2.972921 0.108400 -0.118902 47.000000
2.971243 0.099211 -0.118797 52.000000
2.973530 0.090157 -0.118902 39.000000
2.978784 0.081172 -0.119163 58.000000
2.982014 0.072106 -0.119320 40.000000
2.983219 0.062978 -0.119373 38.000000
2.987392 0.053899 -0.119582 52.000000
2.991538 0.044795 -0.119791 38.000000
2.998651 0.035703 -0.120158 43.000000
3.010729 0.026614 -0.120786 32.000000
3.009798 0.017371 -0.120733 44.000000
3.001848 0.008112 -0.120315 22.000000
2.937947 -0.001099 -0.116965 7.000000
3.214531 0.407236 -0.172899 26.000000
3.199919 0.395416 -0.171864 40.000000
3.201117 0.385597 -0.171864 37.000000
3.193365 0.374728 -0.171282 64.000000
3.188551 0.364251 -0.170893 41.000000
3.184694 0.353916 -0.170570 63.000000
3.180804 0.343609 -0.170246 58.000000
3.174896 0.333120 -0.169793 49.000000
3.171932 0.322975 -0.169534 40.000000
3.158012 0.311773 -0.168564 54.000000
3.148026 0.301039 -0.167852 62.000000
3.139992 0.290553 -0.167270 72.000000
3.086201 0.276036 -0.163711 57.000000
3.030364 0.261680 -0.160023 54.000000
2.983418 0.248413 -0.156917 38.000000
2.957308 0.237109 -0.155170 50.000000
2.947077 0.227193 -0.154458 41.000000
2.937808 0.217415 -0.153811 43.000000
2.933484 0.208049 -0.153487 64.000000
2.933113 0.198981 -0.153423 54.000000
2.933709 0.189981 -0.153423 54.000000
2.937267 0.181163 -0.153617 78.000000
2.944782 0.172559 -0.154070 70.000000
2.945297 0.163524 -0.154070 43.000000
2.950768 0.154748 -0.154393 62.000000
2.951229 0.145694 -0.154393 59.000000
2.957643 0.136915 -0.154781 45.000000
2.964031 0.128098 -0.155170 61.000000
2.972387 0.119323 -0.155687 51.000000
2.984706 0.110646 -0.156464 43.000000
2.990018 0.101657 -0.156787 44.000000
3.002285 0.092852 -0.157564 59.000000
3.010536 0.083862 -0.158081 57.000000
3.037714 0.075290 -0.159828 46.000000
3.077838 0.066831 -0.162417 30.000000
3.171815 0.059125 -0.168499 26.000000
3.135064 0.048823 -0.166105 32.000000
3.191002 0.412363 -0.209621 14.000000
3.174447 0.400320 -0.208243 22.000000
3.170712 0.389968 -0.207860 33.000000
3.171894 0.380239 -0.207860 35.000000
3.168094 0.369926 -0.207478 22.000000
3.160298 0.359188 -0.206789 44.000000
3.158412 0.349161 -0.206559 45.000000
3.153521 0.338828 -0.206100 44.000000
3.155537 0.329255 -0.206176 43.000000
3.153557 0.319270 -0.205947 52.000000
3.146583 0.308812 -0.205334 37.000000
3.146523 0.299062 -0.205258 44.000000
3.142462 0.288949 -0.204875 46.000000
3.130423 0.278155 -0.203880 63.000000
3.114373 0.267095 -0.202579 52.000000
3.084375 0.254981 -0.200206 44.000000
3.022528 0.240510 -0.195384 36.000000
2.987463 0.228485 -0.192628 37.000000
2.969257 0.217924 -0.191174 28.000000
2.956982 0.207900 -0.190178 32.000000
2.951637 0.198423 -0.189719 27.000000
2.953227 0.189431 -0.189796 54.000000
2.955784 0.180492 -0.189949 37.000000
2.966278 0.172004 -0.190714 31.000000
2.968783 0.163013 -0.190867 29.000000
2.972256 0.154060 -0.191097 30.000000
2.990640 0.145822 -0.192475 55.000000
3.006014 0.137334 -0.193623 41.000000
3.027340 0.129011 -0.195230 34.000000
3.079528 0.121791 -0.199211 38.000000
3.114760 0.113628 -0.201890 40.000000
3.146982 0.105148 -0.204339 42.000000
3.169216 0.096166 -0.206023 37.000000
3.186439 0.086911 -0.207325 37.000000
3.199649 0.077453 -0.208320 37.000000
3.220805 0.068087 -0.209927 29.000000
3.220999 0.058205 -0.209927 38.000000
3.306900 0.049640 -0.216510 11.000000
3.189708 0.412915 -0.248896 22.000000
3.185031 0.402378 -0.248364 26.000000
3.180319 0.391875 -0.247831 33.000000
3.174584 0.381285 -0.247210 42.000000
3.175739 0.371544 -0.247210 44.000000
3.167956 0.360786 -0.246412 48.000000
3.164098 0.350517 -0.245968 53.000000
3.161197 0.340382 -0.245613 57.000000
3.161236 0.330579 -0.245525 50.000000
3.155298 0.320176 -0.244904 59.000000
3.148336 0.309715 -0.244194 56.000000
3.146297 0.299771 -0.243928 52.000000
3.146209 0.290026 -0.243839 49.000000
3.148077 0.280460 -0.243928 43.000000
3.143960 0.270375 -0.243484 37.000000
3.137826 0.260153 -0.242863 45.000000
3.124709 0.249417 -0.241621 44.000000
3.113542 0.238916 -0.240556 56.000000
3.084459 0.227172 -0.237895 40.000000
3.039436 0.214488 -0.233814 50.000000
3.032129 0.204627 -0.233104 45.000000
3.050635 0.196474 -0.234701 35.000000
3.084032 0.189121 -0.237629 45.000000
3.093547 0.180179 -0.238427 39.000000
3.084140 0.170140 -0.237540 31.000000
3.163229 0.164760 -0.244549 69.000000
3.171679 0.155444 -0.245258 148.000000
3.178111 0.145986 -0.245791 68.000000
3.172573 0.135980 -0.245258 54.000000
3.176956 0.126404 -0.245613 78.000000
3.184297 0.116911 -0.246234 63.000000
3.184641 0.107142 -0.246234 58.000000
3.191924 0.097583 -0.246855 48.000000
3.198182 0.087953 -0.247388 36.000000
3.202420 0.078238 -0.247743 57.000000
3.208620 0.068539 -0.248275 40.000000
3.213794 0.058786 -0.248719 39.000000
3.210972 0.048881 -0.248452 30.000000
3.163299 0.038454 -0.244194 8.000000
3.156430 0.028686 -0.243573 7.000000
3.206304 0.424919 -0.291318 23.000000
3.189834 0.412775 -0.289496 30.000000
3.188125 0.402612 -0.289193 27.000000
3.184408 0.392219 -0.288686 44.000000
3.181645 0.381972 -0.288282 36.000000
3.176874 0.371514 -0.287674 42.000000
3.173057 0.361201 -0.287168 59.000000
3.169206 0.350915 -0.286662 41.000000
3.166311 0.340763 -0.286257 45.000000
3.163384 0.330632 -0.285852 53.000000
3.161414 0.320624 -0.285548 45.000000
3.162383 0.310923 -0.285548 38.000000
3.166293 0.301503 -0.285852 48.000000
3.170175 0.292063 -0.286156 50.000000
3.176011 0.282779 -0.286662 42.000000
3.180828 0.273376 -0.287067 42.000000
3.191566 0.264441 -0.288079 44.000000
3.197321 0.255045 -0.288585 41.000000
3.198088 0.245235 -0.288585 41.000000
3.204778 0.235862 -0.289193 65.000000
3.205487 0.226029 -0.289193 54.000000
3.222047 0.217270 -0.290812 85.000000
3.199864 0.205907 -0.288484 33.000000
3.204452 0.196333 -0.288889 45.000000
3.200074 0.186211 -0.288383 55.000000
3.198643 0.176282 -0.288180 83.000000
3.198176 0.166416 -0.288079 53.000000
3.191716 0.156260 -0.287371 44.000000
3.185224 0.146145 -0.286662 47.000000
3.186651 0.136415 -0.286763 47.000000
3.184072 0.126519 -0.286459 59.000000
3.187428 0.116860 -0.286763 59.000000
3.190754 0.107182 -0.287067 50.000000
3.194051 0.097484 -0.287371 26.000000
3.196324 0.087740 -0.287573 44.000000
3.203540 0.078106 -0.288282 32.000000
3.218684 0.068600 -0.289800 19.000000
3.215896 0.058670 -0.289496 40.000000
3.220039 0.048865 -0.289901 22.000000
3.192621 0.413855 -0.328250 29.000000
3.186975 0.403186 -0.327459 41.000000
3.180309 0.392434 -0.326555 53.000000
3.177552 0.382201 -0.326102 48.000000
3.169828 0.371411 -0.325085 69.000000
3.165029 0.361010 -0.324407 58.000000
3.164147 0.351079 -0.324181 45.000000
3.159282 0.340731 -0.323503 54.000000
3.164265 0.331451 -0.323955 49.000000
3.169221 0.322143 -0.324407 44.000000
3.172172 0.312613 -0.324633 55.000000
3.180040 0.303539 -0.325424 50.000000
3.186893 0.294329 -0.326102 66.000000
3.194708 0.285168 -0.326894 56.000000
3.203487 0.276047 -0.327798 52.000000
3.213231 0.266957 -0.328815 46.000000
3.225920 0.258047 -0.330172 63.000000
3.233631 0.248681 -0.330963 43.000000
3.245279 0.239563 -0.332206 56.000000
3.249963 0.229885 -0.332658 60.000000
3.240740 0.219244 -0.331528 147.000000
3.246355 0.209620 -0.332093 49.000000
3.237065 0.199051 -0.330963 55.000000
3.222782 0.188251 -0.329267 66.000000
3.218384 0.178089 -0.328702 45.000000
3.209985 0.167749 -0.327685 62.000000
3.200561 0.157413 -0.326555 55.000000
3.197058 0.147410 -0.326102 52.000000
3.194517 0.137473 -0.325763 60.000000
3.194925 0.127672 -0.325763 64.000000
3.196294 0.117906 -0.325876 58.000000
3.197634 0.108133 -0.325989 53.000000
3.199937 0.098383 -0.326215 58.000000
3.199230 0.088538 -0.326102 37.000000
3.198493 0.078698 -0.325989 51.000000
3.220574 0.069353 -0.328476 40.000000
3.229712 0.059636 -0.329493 33.000000
3.274586 0.050410 -0.334580 18.000000
3.320427 0.040921 -0.339779 10.000000
3.180082 0.411510 -0.366916 10.000000
3.177392 0.401253 -0.366415 22.000000
3.168762 0.390286 -0.365161 40.000000
3.169945 0.380563 -0.365161 28.000000
3.170112 0.370720 -0.365036 37.000000
3.166306 0.360430 -0.364409 47.000000
3.164439 0.350386 -0.364033 46.000000
3.166485 0.340782 -0.364159 35.000000
3.170475 0.331376 -0.364535 51.000000
3.173452 0.321849 -0.364785 35.000000
3.176399 0.312306 -0.365036 45.000000
3.183267 0.303126 -0.365788 45.000000
3.193073 0.294181 -0.366916 48.000000
3.198902 0.284825 -0.367543 46.000000
3.211622 0.276033 -0.369047 46.000000
3.225307 0.267249 -0.370676 43.000000
3.234023 0.257986 -0.371679 46.000000
3.251615 0.249359 -0.373809 47.000000
3.278090 0.241285 -0.377068 22.000000
3.272877 0.230806 -0.376316 42.000000
3.268620 0.220428 -0.375689 57.000000
3.259381 0.209758 -0.374436 56.000000
3.252087 0.199269 -0.373433 48.000000
3.237827 0.188421 -0.371553 43.000000
3.223531 0.177662 -0.369673 38.000000
3.211181 0.167097 -0.368044 42.000000
3.201770 0.156756 -0.366791 42.000000
3.200253 0.146840 -0.366540 40.000000
3.200689 0.137022 -0.366540 40.000000
3.199111 0.127122 -0.366289 43.000000
3.196512 0.117196 -0.365913 36.000000
3.199831 0.107490 -0.366289 37.000000
3.201138 0.097703 -0.366415 45.000000
3.198447 0.087799 -0.366039 44.000000
3.196718 0.077937 -0.365788 57.000000
3.206860 0.068344 -0.367041 27.000000
3.206063 0.058487 -0.366916 34.000000
3.220115 0.048866 -0.368671 17.000000
3.202547 0.406284 -0.409579 34.000000
3.198864 0.395850 -0.408892 45.000000
3.203997 0.386508 -0.409442 30.000000
3.198281 0.375868 -0.408480 39.000000
3.190562 0.365042 -0.407243 68.000000
3.184776 0.354485 -0.406281 54.000000
3.188803 0.345032 -0.406693 62.000000
3.184921 0.334730 -0.406006 41.000000
3.188890 0.325259 -0.406418 43.000000
3.192829 0.315766 -0.406830 53.000000
3.196741 0.306252 -0.407243 59.000000
3.206542 0.297265 -0.408480 56.000000
3.216318 0.288221 -0.409717 44.000000
3.224095 0.278949 -0.410679 58.000000
3.232832 0.269714 -0.411778 37.000000
3.242531 0.260507 -0.413015 32.000000
3.244302 0.250634 -0.413153 44.000000
3.280617 0.243313 -0.418101 17.000000
3.259983 0.211635 -0.414940 43.000000
3.252708 0.201145 -0.413840 52.000000
3.250343 0.190991 -0.413428 41.000000
3.239047 0.180358 -0.411778 48.000000
3.228704 0.169849 -0.410267 39.000000
3.217338 0.159356 -0.408617 58.000000
3.216822 0.149439 -0.408480 53.000000
3.208359 0.139184 -0.407243 55.000000
3.202833 0.129102 -0.406418 51.000000
3.203214 0.119275 -0.406418 53.000000
3.204555 0.109481 -0.406556 62.000000
3.207846 0.099741 -0.406968 62.000000
3.218038 0.090175 -0.408342 48.000000
3.218299 0.080302 -0.408342 43.000000
3.227443 0.070622 -0.409579 50.000000
3.228635 0.060738 -0.409717 41.000000
3.219893 0.050693 -0.408480 21.000000
3.210794 0.414928 -0.449911 21.000000
3.200280 0.403587 -0.448120 33.000000
3.196596 0.393161 -0.447374 34.000000
3.189934 0.382408 -0.446181 34.000000
3.181271 0.371469 -0.444689 42.000000
3.174536 0.360811 -0.443495 33.000000
3.170714 0.350525 -0.442749 35.000000
3.175707 0.341220 -0.443346 40.000000
3.179689 0.331784 -0.443794 45.000000
3.184627 0.322428 -0.444391 51.000000
3.193473 0.313431 -0.445584 36.000000
3.201310 0.304290 -0.446628 55.000000
3.208137 0.295012 -0.447524 59.000000
3.219861 0.286135 -0.449165 53.000000
3.232545 0.277274 -0.450955 47.000000
3.240278 0.267928 -0.451999 33.000000
3.251927 0.258853 -0.453640 50.000000
3.257636 0.249254 -0.454386 24.000000
3.279197 0.210469 -0.457221 21.000000
3.259102 0.199133 -0.454088 44.000000
3.256736 0.188961 -0.453640 40.000000
3.260262 0.179132 -0.454088 37.000000
3.256847 0.168923 -0.453491 40.000000
3.248461 0.158493 -0.452148 38.000000
3.245969 0.148390 -0.451701 38.000000
3.233566 0.137878 -0.449761 47.000000
3.225082 0.127602 -0.448419 44.000000
3.220517 0.117525 -0.447673 50.000000
3.216910 0.107511 -0.447076 45.000000
3.213271 0.097519 -0.446479 61.000000
3.221463 0.087879 -0.447673 35.000000
3.229625 0.078190 -0.448866 31.000000
3.228862 0.068260 -0.448717 40.000000
3.239931 0.058554 -0.450358 32.000000
3.318202 0.049814 -0.462144 10.000000
3.222466 0.408240 -0.491411 23.000000
3.218806 0.397747 -0.490606 34.000000
3.215111 0.387281 -0.489801 37.000000
3.208443 0.376496 -0.488512 27.000000
3.192913 0.364748 -0.485773 47.000000
3.190093 0.354515 -0.485129 66.000000
3.190185 0.344621 -0.484968 44.000000
3.197116 0.335449 -0.485934 39.000000
3.199112 0.325739 -0.486096 49.000000
3.210900 0.316988 -0.487868 45.000000
3.223647 0.308261 -0.489801 46.000000
3.235388 0.299369 -0.491572 45.000000
3.243172 0.290056 -0.492700 55.000000
3.255847 0.281122 -0.494633 46.000000
3.262595 0.271623 -0.495600 42.000000
3.256526 0.261061 -0.494472 27.000000
3.237632 0.249554 -0.491250 15.000000
3.277526 0.202105 -0.497211 34.000000
3.271234 0.191646 -0.496083 46.000000
3.269836 0.181499 -0.495761 48.000000
3.269392 0.171415 -0.495600 35.000000
3.259059 0.160850 -0.493828 68.000000
3.258551 0.150805 -0.493667 60.000000
3.252096 0.140510 -0.492539 45.000000
3.244623 0.130217 -0.491250 50.000000
3.241062 0.120116 -0.490606 43.000000
3.231552 0.109838 -0.488995 65.000000
3.230887 0.099893 -0.488834 62.000000
3.234138 0.090062 -0.489317 52.000000
3.238346 0.080237 -0.489962 45.000000
3.253377 0.070621 -0.492378 40.000000
3.293049 0.061370 -0.498821 19.000000
3.308024 0.051496 -0.501238 15.000000
3.210509 0.394878 -0.529089 17.000000
3.205838 0.384321 -0.528051 17.000000
3.198198 0.373452 -0.526494 25.000000
3.191499 0.362746 -0.525111 47.000000
3.195534 0.353278 -0.525630 48.000000
3.197582 0.343579 -0.525803 36.000000
3.205478 0.334485 -0.527013 51.000000
3.210409 0.325047 -0.527705 49.000000
3.221193 0.316162 -0.529435 35.000000
3.233913 0.307401 -0.531510 62.000000
3.241707 0.298112 -0.532721 57.000000
3.248492 0.288690 -0.533759 49.000000
3.261138 0.279737 -0.535834 39.000000
3.280630 0.271279 -0.539121 25.000000
3.317774 0.264118 -0.545520 9.000000
3.275484 0.190055 -0.537218 35.000000
3.272118 0.179788 -0.536526 38.000000
3.268720 0.169543 -0.535834 55.000000
3.266273 0.159369 -0.535315 37.000000
3.263795 0.149211 -0.534797 51.000000
3.255382 0.138816 -0.533240 41.000000
3.249887 0.128593 -0.532202 38.000000
3.249282 0.118585 -0.532029 41.000000
3.249631 0.108616 -0.532029 45.000000
3.255855 0.098827 -0.533067 45.000000
3.279772 0.089491 -0.537218 26.000000
3.306617 0.080082 -0.541888 21.000000
3.289122 0.069556 -0.538775 29.000000
3.324772 0.060118 -0.545001 22.000000
3.251717 0.390540 -0.575545 20.000000
3.236305 0.378622 -0.572409 40.000000
3.231592 0.368025 -0.571302 43.000000
3.226844 0.357460 -0.570195 42.000000
3.223040 0.347034 -0.569273 52.000000
3.222135 0.336940 -0.568904 39.000000
3.226086 0.327350 -0.569458 40.000000
3.232944 0.318027 -0.570564 40.000000
3.245646 0.309225 -0.572778 39.000000
3.261260 0.300617 -0.575545 25.000000
3.262167 0.290610 -0.575545 43.000000
3.270877 0.281273 -0.577021 43.000000
3.337350 0.276670 -0.589380 13.000000
3.297592 0.181888 -0.580710 41.000000
3.293228 0.171515 -0.579788 53.000000
3.284904 0.160979 -0.578128 60.000000
3.279491 0.150630 -0.577021 47.000000
3.270118 0.140149 -0.575176 53.000000
3.263658 0.129843 -0.573885 59.000000
3.261095 0.119722 -0.573331 58.000000
3.257518 0.109584 -0.572594 51.000000
3.260786 0.099680 -0.573147 54.000000
3.266971 0.089837 -0.574254 47.000000
3.277057 0.080052 -0.576098 41.000000
3.291043 0.070290 -0.578681 32.000000
3.317776 0.060675 -0.583662 15.000000
3.255499 0.410571 -0.616929 25.000000
3.248958 0.399621 -0.615360 36.000000
3.244327 0.388949 -0.614183 37.000000
3.251348 0.379678 -0.615360 28.000000
3.235935 0.367813 -0.612026 23.000000
3.236074 0.357775 -0.611830 53.000000
3.224482 0.346479 -0.609280 36.000000
3.230406 0.337095 -0.610261 51.000000
3.242157 0.328273 -0.612418 62.000000
3.257786 0.319767 -0.615360 95.000000
3.256800 0.309584 -0.614967 84.000000
3.254805 0.299321 -0.614379 39.000000
3.267428 0.290380 -0.616733 29.000000
3.263419 0.279933 -0.615752 16.000000
3.291570 0.170736 -0.619870 26.000000
3.295996 0.160829 -0.620655 45.000000
3.295494 0.150672 -0.620459 47.000000
3.290063 0.140308 -0.619282 48.000000
3.278720 0.129744 -0.616929 62.000000
3.281063 0.119756 -0.617321 92.000000
3.272595 0.109392 -0.615556 78.000000
3.266054 0.099140 -0.614183 53.000000
3.286927 0.089689 -0.618301 30.000000
3.297970 0.079869 -0.620459 24.000000
3.309964 0.070004 -0.622812 20.000000
3.310163 0.059849 -0.622812 20.000000
3.322096 0.049874 -0.625166 9.000000
3.256122 0.412500 -0.657507 29.000000
3.252518 0.401909 -0.656469 40.000000
3.252765 0.391812 -0.656261 39.000000
3.261724 0.382742 -0.657923 37.000000
3.254136 0.371735 -0.656053 39.000000
3.257205 0.361966 -0.656469 40.000000
3.259274 0.352076 -0.656676 45.000000
3.264230 0.342483 -0.657507 32.000000
3.274023 0.333357 -0.659377 35.000000
3.277951 0.323599 -0.660000 28.000000
3.275033 0.313169 -0.659169 43.000000
3.281823 0.303660 -0.660416 44.000000
3.282739 0.293590 -0.660416 48.000000
3.296294 0.284610 -0.663116 11.000000
3.340163 0.175118 -0.670803 33.000000
3.319191 0.163811 -0.666233 59.000000
3.314792 0.153402 -0.665194 49.000000
3.313293 0.143147 -0.664778 56.000000
3.312739 0.132942 -0.664571 49.000000
3.306288 0.122525 -0.663116 63.000000
3.307626 0.112414 -0.663324 58.000000
3.305022 0.102176 -0.662701 49.000000
3.302387 0.091954 -0.662078 38.000000
3.309499 0.081991 -0.663532 45.000000
3.307779 0.071795 -0.663116 49.000000
3.308962 0.061665 -0.663324 40.000000
3.325763 0.051770 -0.666856 27.000000
3.275221 0.412487 -0.701791 27.000000
3.260977 0.400528 -0.698285 39.000000
3.267034 0.391104 -0.699381 34.000000
3.262405 0.380399 -0.698066 41.000000
3.261617 0.370167 -0.697627 48.000000
3.259828 0.359837 -0.696970 54.000000
3.259947 0.349730 -0.696751 59.000000
3.267797 0.340437 -0.698285 35.000000
3.270768 0.330607 -0.698723 54.000000
3.276622 0.321048 -0.699819 55.000000
3.286333 0.311826 -0.701791 52.000000
3.289217 0.301922 -0.702230 44.000000
3.295959 0.292348 -0.703545 47.000000
3.299757 0.282486 -0.704202 31.000000
3.343461 0.172864 -0.712311 31.000000
3.326434 0.161746 -0.708366 42.000000
3.311320 0.150824 -0.704860 46.000000
3.305918 0.140414 -0.703545 56.000000
3.302434 0.130116 -0.702668 72.000000
3.300868 0.119912 -0.702230 56.000000
3.301220 0.109785 -0.702230 74.000000
3.299591 0.099597 -0.701791 50.000000
3.291103 0.089232 -0.699819 34.000000
3.302091 0.079396 -0.702230 55.000000
3.305245 0.069328 -0.702887 49.000000
3.301540 0.059116 -0.702011 50.000000
3.317315 0.049224 -0.705517 28.000000
3.331109 0.039212 -0.708586 7.000000
3.320720 0.431031 -0.754112 16.000000
3.323957 0.421085 -0.754573 16.000000
3.275017 0.404687 -0.742575 27.000000
3.273345 0.394288 -0.741883 44.000000
3.271641 0.383904 -0.741191 39.000000
3.267003 0.373203 -0.739807 29.000000
3.272000 0.363608 -0.740730 51.000000
3.264394 0.352628 -0.738653 27.000000
3.267396 0.342814 -0.739114 27.000000
3.276176 0.333576 -0.740960 42.000000
3.276216 0.323428 -0.740730 48.000000
3.281067 0.313745 -0.741652 45.000000
3.281046 0.303588 -0.741422 34.000000
3.249010 0.290577 -0.733577 13.000000
3.301230 0.173081 -0.743960 18.000000
3.305633 0.163143 -0.744883 57.000000
3.305146 0.152956 -0.744652 81.000000
3.307544 0.142899 -0.745113 84.000000
3.306994 0.132712 -0.744883 66.000000
3.306413 0.122530 -0.744652 80.000000
3.307746 0.112418 -0.744883 71.000000
3.307103 0.102240 -0.744652 60.000000
3.312264 0.092228 -0.745806 65.000000
3.313505 0.082090 -0.746036 60.000000
3.314714 0.071945 -0.746267 63.000000
3.316864 0.061811 -0.746729 62.000000
3.317039 0.051635 -0.746729 46.000000
3.316208 0.041446 -0.746498 31.000000
3.292284 0.425489 -0.788188 18.000000
3.273359 0.412830 -0.783104 34.000000
3.269796 0.402191 -0.781893 39.000000
3.264271 0.391347 -0.780199 43.000000
3.262566 0.380992 -0.779472 44.000000
