ply
format ascii 1.0
element vertex 1270
property float x
property float y
property float z
property float intensity
end_header
3.129302 0.202621 0.448605 63.000000
3.130898 0.193081 0.448736 39.000000
3.131476 0.183474 0.448736 45.000000
3.134004 0.173976 0.448998 55.000000
3.132543 0.164257 0.448736 47.000000
3.136993 0.154840 0.449260 41.000000
3.136463 0.145170 0.449129 65.000000
3.131941 0.135333 0.448474 74.000000
3.133332 0.125763 0.448605 59.000000
3.134694 0.116186 0.448736 51.000000
3.132063 0.106468 0.448343 53.000000
3.133366 0.096889 0.448474 64.000000
3.132658 0.087248 0.448343 58.000000
3.132911 0.077637 0.448343 70.000000
3.136108 0.068089 0.448736 49.000000
3.136302 0.058467 0.448736 53.000000
3.137457 0.048860 0.448867 53.000000
3.139575 0.039259 0.449129 71.000000
3.138690 0.029618 0.448998 60.000000
3.133809 0.019957 0.448343 43.000000
3.132864 0.010339 0.448212 62.000000
3.130898 0.000728 0.447950 49.000000
3.127912 -0.008869 0.447557 62.000000
3.125887 -0.018453 0.447295 57.000000
3.127798 -0.028061 0.447557 58.000000
3.129680 -0.037681 0.447819 66.000000
3.128559 -0.047268 0.447688 38.000000
3.134346 -0.056975 0.448474 61.000000
3.137130 -0.066654 0.448867 55.000000
3.136910 -0.076278 0.448867 67.000000
3.137653 -0.085929 0.448998 62.000000
3.137374 -0.095555 0.448998 55.000000
3.136076 -0.105146 0.448867 43.000000
3.136729 -0.114804 0.448998 47.000000
3.134381 -0.124347 0.448736 58.000000
3.130023 -0.133793 0.448212 54.000000
3.129598 -0.143395 0.448212 52.000000
3.131123 -0.153093 0.448474 60.000000
3.128659 -0.162595 0.448212 42.000000
3.126166 -0.172084 0.447950 47.000000
3.125623 -0.181674 0.447950 64.000000
3.123072 -0.191141 0.447688 53.000000
3.123460 -0.200786 0.447819 56.000000
3.123818 -0.210434 0.447950 50.000000
3.123158 -0.220017 0.447950 46.000000
3.125434 -0.229816 0.448343 51.000000
3.127680 -0.239631 0.448736 43.000000
3.131871 -0.249620 0.449391 62.000000
3.135043 -0.259555 0.449915 39.000000
3.139171 -0.269597 0.450571 52.000000
3.145241 -0.279842 0.451488 27.000000
3.142393 -0.289308 0.451226 60.000000
3.140504 -0.298853 0.451095 59.000000
3.146478 -0.309166 0.452012 32.000000
3.147488 -0.319018 0.452274 42.000000
3.143536 -0.328364 0.451881 40.000000
3.153356 -0.339174 0.453323 15.000000
3.097679 0.558208 0.411289 21.000000
3.121863 0.552692 0.414024 32.000000
3.128434 0.543963 0.414619 46.000000
3.132046 0.534698 0.414857 48.000000
3.133672 0.525086 0.414857 75.000000
3.129390 0.514501 0.414143 62.000000
3.125072 0.503947 0.413430 51.000000
3.122681 0.493736 0.412954 44.000000
3.126143 0.484458 0.413192 60.000000
3.128597 0.475014 0.413311 46.000000
3.124147 0.464535 0.412597 51.000000
3.126540 0.455092 0.412716 38.000000
3.125956 0.445217 0.412478 45.000000
3.129273 0.435899 0.412716 56.000000
3.129612 0.426162 0.412597 44.000000
3.125000 0.415771 0.411884 52.000000
3.127245 0.406310 0.412003 55.000000
3.131432 0.397089 0.412359 59.000000
3.132635 0.387480 0.412359 40.000000
3.128881 0.377272 0.411765 39.000000
3.125093 0.367090 0.411170 47.000000
3.124232 0.357274 0.410932 64.000000
3.123340 0.347467 0.410694 42.000000
3.123404 0.337776 0.410575 61.000000
3.123438 0.328088 0.410456 51.000000
3.124430 0.318504 0.410456 55.000000
3.126381 0.309015 0.410575 62.000000
3.127314 0.299421 0.410575 57.000000
3.128218 0.289826 0.410575 51.000000
3.128103 0.280138 0.410456 64.000000
3.129937 0.270626 0.410575 65.000000
3.127784 0.260773 0.410219 48.000000
3.128570 0.251176 0.410219 47.000000
3.133285 0.241884 0.410694 61.000000
3.135003 0.232344 0.410813 59.000000
3.133720 0.222583 0.410575 46.000000
3.133398 0.212900 0.410456 56.000000
3.131063 0.203092 0.410100 54.000000
3.130681 0.193424 0.409981 46.000000
3.127295 0.183584 0.409505 44.000000
3.125861 0.173878 0.409267 57.000000
3.128362 0.164392 0.409505 60.000000
3.128852 0.154793 0.409505 54.000000
3.129313 0.145193 0.409505 65.000000
3.127759 0.135505 0.409267 48.000000
3.129152 0.125949 0.409386 60.000000
3.130516 0.116386 0.409505 41.000000
3.127882 0.106678 0.409148 74.000000
3.126209 0.097019 0.408910 40.000000
3.128477 0.087484 0.409148 55.000000
3.130716 0.077936 0.409386 37.000000
3.133919 0.068396 0.409743 47.000000
3.132128 0.058743 0.409505 69.000000
3.130308 0.049102 0.409267 63.000000
3.131437 0.039511 0.409386 57.000000
3.133529 0.029923 0.409624 53.000000
3.135592 0.020323 0.409862 38.000000
3.132661 0.010692 0.409505 46.000000
3.133672 0.001082 0.409624 46.000000
3.136639 -0.008539 0.409981 56.000000
3.138584 -0.018173 0.410219 43.000000
3.133549 -0.027760 0.409624 54.000000
3.132456 -0.037362 0.409505 42.000000
3.129349 -0.046928 0.409148 64.000000
3.127204 -0.056493 0.408910 42.000000
3.128009 -0.066108 0.409029 58.000000
3.128784 -0.075728 0.409148 44.000000
3.127544 -0.085300 0.409029 45.000000
3.129253 -0.094954 0.409267 53.000000
3.127954 -0.104521 0.409148 52.000000
3.130595 -0.114225 0.409505 59.000000
3.131222 -0.123868 0.409624 57.000000
3.134796 -0.133641 0.410100 39.000000
3.135363 -0.143303 0.410219 45.000000
3.140859 -0.153209 0.410932 55.000000
3.141366 -0.162896 0.411051 46.000000
3.139860 -0.172478 0.410932 54.000000
3.136342 -0.181939 0.410575 53.000000
3.130814 -0.191260 0.409981 46.000000
3.128231 -0.200737 0.409743 48.000000
3.123637 -0.210069 0.409267 28.000000
3.123969 -0.219720 0.409386 38.000000
3.124270 -0.229376 0.409505 39.000000
3.130482 -0.239487 0.410338 51.000000
3.133692 -0.249404 0.410813 48.000000
3.137859 -0.259424 0.411408 36.000000
3.139027 -0.269219 0.411646 32.000000
3.139176 -0.278935 0.411765 41.000000
3.142261 -0.288927 0.412240 46.000000
3.142348 -0.298660 0.412359 49.000000
3.140428 -0.308202 0.412240 38.000000
3.143420 -0.318234 0.412716 34.000000
3.119714 -0.325515 0.409981 14.000000
3.086042 0.546529 0.371078 16.000000
3.134725 0.545231 0.376203 40.000000
3.133443 0.535110 0.375883 41.000000
3.141934 0.526644 0.376630 71.000000
3.128818 0.514583 0.375029 38.000000
3.125474 0.504191 0.374495 42.000000
3.124060 0.494134 0.374174 53.000000
3.122613 0.484091 0.373854 55.000000
3.122118 0.474210 0.373640 40.000000
3.120608 0.464191 0.373320 42.000000
3.121033 0.454471 0.373213 59.000000
3.123397 0.445034 0.373320 54.000000
3.124748 0.435450 0.373320 63.000000
3.129025 0.426263 0.373640 58.000000
3.130317 0.416662 0.373640 50.000000
3.130595 0.406928 0.373534 37.000000
3.134788 0.397696 0.373854 58.000000
3.135007 0.387955 0.373747 61.000000
3.135195 0.378216 0.373640 60.000000
3.133378 0.368248 0.373320 60.000000
3.127578 0.357843 0.372572 48.000000
3.127673 0.348136 0.372466 65.000000
3.128727 0.338539 0.372466 47.000000
3.128762 0.328835 0.372359 57.000000
3.130745 0.319335 0.372466 62.000000
3.129731 0.309533 0.372252 54.000000
3.128686 0.299740 0.372039 52.000000
3.132561 0.290415 0.372359 46.000000
3.130467 0.280538 0.372039 50.000000
3.131312 0.270932 0.372039 51.000000
3.131138 0.261241 0.371932 64.000000
3.129943 0.251475 0.371718 44.000000
3.134665 0.242177 0.372145 43.000000
3.134402 0.232486 0.372039 59.000000
3.132124 0.222657 0.371718 56.000000
3.132793 0.213047 0.371718 58.000000
3.126487 0.202985 0.370971 50.000000
3.128087 0.193453 0.371078 49.000000
3.125688 0.183681 0.370757 42.000000
3.124251 0.173980 0.370544 60.000000
3.129735 0.164655 0.371078 62.000000
3.131218 0.155101 0.371184 81.000000
3.131680 0.145494 0.371184 50.000000
3.134098 0.135971 0.371398 50.000000
3.130527 0.126196 0.370971 66.000000
3.134873 0.116738 0.371398 67.000000
3.133229 0.107052 0.371184 45.000000
3.132549 0.097408 0.371078 57.000000
3.135815 0.087881 0.371398 59.000000
3.136070 0.078260 0.371398 65.000000
3.137289 0.068660 0.371505 47.000000
3.137485 0.059034 0.371505 59.000000
3.132680 0.049331 0.370971 59.000000
3.132817 0.039719 0.370971 44.000000
3.128947 0.030070 0.370544 52.000000
3.129025 0.020471 0.370544 55.000000
3.129073 0.010871 0.370544 58.000000
3.130085 0.001271 0.370650 62.000000
3.131069 -0.008335 0.370757 52.000000
3.136995 -0.017975 0.371398 57.000000
3.136925 -0.027600 0.371398 45.000000
3.139808 -0.037259 0.371718 67.000000
3.137691 -0.046862 0.371505 52.000000
3.136538 -0.056470 0.371398 46.000000
3.133368 -0.066029 0.371078 44.000000
3.135138 -0.075690 0.371291 52.000000
3.130916 -0.085200 0.370864 44.000000
3.132627 -0.094865 0.371078 52.000000
3.132321 -0.104475 0.371078 47.000000
3.133973 -0.114157 0.371291 64.000000
3.134602 -0.123811 0.371398 62.000000
3.139174 -0.133639 0.371932 61.000000
3.136763 -0.143179 0.371718 62.000000
3.137302 -0.152850 0.371825 52.000000
3.136818 -0.162474 0.371825 58.000000
3.135312 -0.172043 0.371718 62.000000
3.132784 -0.181546 0.371505 52.000000
3.134197 -0.191277 0.371718 40.000000
3.132604 -0.200828 0.371611 56.000000
3.132965 -0.210505 0.371718 51.000000
3.134288 -0.220255 0.371932 51.000000
3.131614 -0.229724 0.371718 52.000000
3.133869 -0.239559 0.372039 53.000000
3.133119 -0.249172 0.372039 54.000000
3.132340 -0.258783 0.372039 39.000000
3.126578 -0.267967 0.371505 27.000000
3.130693 -0.277998 0.372039 47.000000
3.128835 -0.287510 0.371932 40.000000
3.126949 -0.297014 0.371825 32.000000
3.102274 -0.304274 0.369262 18.000000
3.122562 0.532517 0.336896 37.000000
3.124181 0.522935 0.336896 35.000000
3.126753 0.513509 0.336991 27.000000
3.122417 0.502962 0.336421 57.000000
3.125912 0.493691 0.336611 38.000000
3.121510 0.483183 0.336041 63.000000
3.121009 0.473305 0.335851 50.000000
3.120477 0.463434 0.335661 51.000000
3.118929 0.453428 0.335376 52.000000
3.121291 0.443998 0.335471 56.000000
3.122638 0.434420 0.335471 45.000000
3.124943 0.424972 0.335566 49.000000
3.123271 0.414988 0.335281 58.000000
3.126504 0.405661 0.335471 39.000000
3.129709 0.396318 0.335661 46.000000
3.127947 0.386347 0.335376 60.000000
3.130106 0.376868 0.335471 59.000000
3.128281 0.366915 0.335186 63.000000
3.125436 0.356862 0.334806 51.000000
3.127506 0.347382 0.334901 51.000000
3.128557 0.337785 0.334901 51.000000
3.127598 0.327977 0.334711 57.000000
3.132551 0.318785 0.335091 56.000000
3.129552 0.308780 0.334711 68.000000
3.126521 0.298797 0.334331 49.000000
3.130396 0.289480 0.334616 66.000000
3.130278 0.279786 0.334521 72.000000
3.131122 0.270181 0.334521 59.000000
3.132928 0.260656 0.334616 65.000000
3.130736 0.250804 0.334331 45.000000
3.135461 0.241505 0.334711 56.000000
3.139165 0.232106 0.334996 54.000000
3.135891 0.222191 0.334616 59.000000
3.131592 0.212231 0.334141 60.000000
3.128255 0.202364 0.333762 44.000000
3.125880 0.192580 0.333477 62.000000
3.123475 0.182814 0.333192 70.000000
3.121039 0.173064 0.332907 56.000000
3.118573 0.163331 0.332622 56.000000
3.122042 0.153910 0.332907 57.000000
3.125483 0.144470 0.333192 58.000000
3.128895 0.135011 0.333477 62.000000
3.126311 0.125290 0.333192 64.000000
3.126680 0.115698 0.333192 53.000000
3.129010 0.106173 0.333382 44.000000
3.127331 0.096511 0.333192 57.000000
3.129603 0.086972 0.333382 49.000000
3.128860 0.077345 0.333287 49.000000
3.128087 0.067724 0.333192 65.000000
3.132262 0.058202 0.333572 58.000000
3.132425 0.048592 0.333572 44.000000
3.131564 0.038969 0.333477 59.000000
3.133660 0.029381 0.333667 42.000000
3.130749 0.019747 0.333382 64.000000
3.133781 0.010152 0.333667 47.000000
3.131806 0.000537 0.333477 74.000000
3.136771 -0.009084 0.333952 46.000000
3.137724 -0.018713 0.334047 50.000000
3.131679 -0.028288 0.333477 61.000000
3.134564 -0.037930 0.333762 53.000000
3.131447 -0.047503 0.333477 51.000000
3.127305 -0.057039 0.333097 52.000000
3.128110 -0.066654 0.333192 55.000000
3.127891 -0.076250 0.333192 59.000000
3.124657 -0.085765 0.332907 44.000000
3.128359 -0.095471 0.333287 71.000000
3.128052 -0.105068 0.333287 62.000000
3.131694 -0.114809 0.333667 55.000000
3.132322 -0.124455 0.333762 59.000000
3.134909 -0.134191 0.334047 43.000000
3.135477 -0.143854 0.334141 44.000000
3.136015 -0.153521 0.334236 47.000000
3.137518 -0.163244 0.334426 53.000000
3.138990 -0.172978 0.334616 46.000000
3.135463 -0.182435 0.334331 41.000000
3.131908 -0.191872 0.334047 47.000000
3.133291 -0.201607 0.334236 34.000000
3.125705 -0.210752 0.333572 45.000000
3.127030 -0.220480 0.333762 44.000000
3.125346 -0.230000 0.333667 53.000000
3.125618 -0.239663 0.333762 50.000000
3.125860 -0.249330 0.333857 62.000000
3.132026 -0.259492 0.334521 40.000000
3.129231 -0.268930 0.334331 36.000000
3.134341 -0.279056 0.334901 24.000000
3.130496 -0.288398 0.334616 37.000000
3.145453 -0.299505 0.336136 20.000000
3.188112 -0.313423 0.340315 7.000000
3.130870 0.534671 0.297678 48.000000
3.129547 0.524569 0.297430 55.000000
3.129174 0.514642 0.297265 49.000000
3.129755 0.504881 0.297183 45.000000
3.125383 0.494343 0.296688 50.000000
3.121960 0.483989 0.296276 48.000000
3.119489 0.473811 0.295946 50.000000
3.118957 0.463945 0.295781 50.000000
3.114448 0.453513 0.295286 58.000000
3.114838 0.443816 0.295204 66.000000
3.117172 0.434395 0.295286 53.000000
3.117503 0.424695 0.295204 40.000000
3.118791 0.415129 0.295204 50.000000
3.122026 0.405815 0.295369 54.000000
3.125234 0.396486 0.295534 48.000000
3.131381 0.387507 0.295946 57.000000
3.132555 0.377898 0.295946 64.000000
3.134690 0.368402 0.296029 50.000000
3.135805 0.358783 0.296029 76.000000
3.134910 0.348941 0.295864 57.000000
3.133984 0.339107 0.295699 54.000000
3.130054 0.328970 0.295286 45.000000
3.130057 0.319265 0.295204 39.000000
3.129038 0.309465 0.295039 54.000000
3.126997 0.299579 0.294792 58.000000
3.127901 0.289984 0.294792 50.000000
3.125798 0.280120 0.294544 50.000000
3.126643 0.270529 0.294544 67.000000
3.128452 0.261018 0.294627 57.000000
3.128244 0.251339 0.294544 67.000000
3.130988 0.241894 0.294709 46.000000
3.131715 0.232287 0.294709 51.000000
3.133407 0.222748 0.294792 45.000000
3.133081 0.213067 0.294709 60.000000
3.134715 0.203518 0.294792 61.000000
3.135325 0.193900 0.294792 58.000000
3.133915 0.184163 0.294627 59.000000
3.133470 0.174492 0.294544 58.000000
3.135981 0.164982 0.294709 53.000000
3.136473 0.155361 0.294709 66.000000
3.136935 0.145737 0.294709 56.000000
3.137367 0.136113 0.294709 64.000000
3.132791 0.126287 0.294297 69.000000
3.133163 0.116675 0.294297 47.000000
3.132511 0.107028 0.294214 53.000000
3.129836 0.097324 0.293967 55.000000
3.131116 0.087750 0.294049 65.000000
3.131370 0.078143 0.294049 63.000000
3.132592 0.068557 0.294132 50.000000
3.133784 0.058965 0.294214 54.000000
3.134946 0.049366 0.294297 50.000000
3.136080 0.039760 0.294379 66.000000
3.135190 0.030129 0.294297 47.000000
3.135268 0.020511 0.294297 51.000000
3.135316 0.010892 0.294297 63.000000
3.136331 0.001273 0.294379 56.000000
3.140307 -0.008360 0.294709 51.000000
3.141263 -0.018000 0.294792 58.000000
3.139200 -0.027620 0.294627 49.000000
3.143086 -0.037298 0.294957 52.000000
3.140964 -0.046911 0.294792 60.000000
3.138813 -0.056511 0.294627 59.000000
3.137628 -0.066119 0.294544 69.000000
3.133425 -0.075649 0.294214 56.000000
3.131186 -0.085207 0.294049 49.000000
3.130910 -0.094813 0.294049 51.000000
3.128612 -0.104351 0.293885 51.000000
3.128277 -0.113949 0.293885 42.000000
3.132892 -0.123743 0.294297 50.000000
3.134489 -0.133439 0.294462 55.000000
3.135061 -0.143101 0.294544 58.000000
3.137593 -0.152864 0.294792 48.000000
3.135119 -0.162386 0.294627 42.000000
3.133611 -0.171949 0.294544 55.000000
3.133068 -0.181562 0.294544 62.000000
3.127523 -0.190869 0.294132 39.000000
3.127917 -0.200527 0.294214 46.000000
3.131265 -0.210390 0.294544 54.000000
3.133587 -0.220206 0.294792 49.000000
3.136872 -0.230111 0.295121 53.000000
3.138139 -0.239886 0.295286 60.000000
3.137388 -0.249512 0.295286 62.000000
3.136608 -0.259136 0.295286 40.000000
3.136791 -0.268843 0.295369 45.000000
3.135952 -0.278466 0.295369 36.000000
3.131113 -0.287720 0.295039 50.000000
3.129223 -0.297230 0.294957 42.000000
3.169953 -0.310920 0.298420 7.000000
3.175925 -0.321347 0.298997 11.000000
3.114312 0.529994 0.258739 36.000000
3.114940 0.520272 0.258669 45.000000
3.116522 0.510713 0.258669 34.000000
3.119059 0.501308 0.258739 41.000000
3.118611 0.491425 0.258598 40.000000
3.118133 0.481550 0.258457 56.000000
3.117623 0.471682 0.258316 52.000000
3.119056 0.462115 0.258316 50.000000
3.121446 0.452688 0.258386 57.000000
3.119857 0.442688 0.258174 46.000000
3.123177 0.433389 0.258316 52.000000
3.121526 0.423402 0.258104 53.000000
3.122811 0.413823 0.258104 45.000000
3.125055 0.404369 0.258174 44.000000
3.119354 0.393902 0.257680 52.000000
3.120548 0.384330 0.257680 44.000000
3.123693 0.374993 0.257821 62.000000
3.119875 0.364827 0.257468 38.000000
3.124943 0.355706 0.257751 58.000000
3.125029 0.346007 0.257680 57.000000
3.124092 0.336204 0.257539 44.000000
3.125109 0.326618 0.257539 51.000000
3.125103 0.316928 0.257468 48.000000
3.125068 0.307240 0.257397 54.000000
3.124011 0.297462 0.257256 62.000000
3.125901 0.287968 0.257327 55.000000
3.125777 0.278287 0.257256 40.000000
3.122641 0.268353 0.256974 46.000000
3.127426 0.259103 0.257256 66.000000
3.125223 0.249268 0.257044 39.000000
3.122989 0.239449 0.256832 63.000000
3.123709 0.229866 0.256832 47.000000
3.123405 0.220211 0.256762 39.000000
3.125061 0.210695 0.256832 58.000000
3.125693 0.201107 0.256832 48.000000
3.128286 0.191639 0.256974 57.000000
3.126868 0.181924 0.256832 64.000000
3.127411 0.172330 0.256832 54.000000
3.130913 0.162891 0.257044 59.000000
3.128410 0.153137 0.256832 48.000000
3.128865 0.143539 0.256832 55.000000
3.131284 0.134025 0.256974 52.000000
3.129687 0.124338 0.256832 51.000000
3.129057 0.114699 0.256762 56.000000
3.131387 0.105166 0.256903 43.000000
3.130698 0.095528 0.256832 61.000000
3.133968 0.086006 0.257044 58.000000
3.134217 0.076390 0.257044 64.000000
3.136431 0.066818 0.257186 57.000000
3.136621 0.057195 0.257186 54.000000
3.137780 0.047587 0.257256 47.000000
3.133921 0.037910 0.256974 38.000000
3.126043 0.028220 0.256409 45.000000
3.126115 0.018630 0.256409 38.000000
3.122167 0.009026 0.256126 55.000000
3.120185 -0.000553 0.255985 42.000000
3.120169 -0.010126 0.255985 47.000000
3.117131 -0.019681 0.255773 34.000000
3.126033 -0.029325 0.256409 58.000000
3.134905 -0.039023 0.257044 58.000000
3.134770 -0.048641 0.257044 57.000000
3.134607 -0.058258 0.257044 46.000000
3.135411 -0.067896 0.257115 42.000000
3.136184 -0.077539 0.257186 50.000000
3.129949 -0.086996 0.256762 51.000000
3.126676 -0.096507 0.256550 56.000000
3.124372 -0.106032 0.256409 47.000000
3.125028 -0.115654 0.256479 49.000000
3.128646 -0.125399 0.256762 44.000000
3.128246 -0.134997 0.256762 45.000000
3.128814 -0.144639 0.256832 40.000000
3.134333 -0.154530 0.257256 43.000000
3.132848 -0.164094 0.257186 39.000000
3.135318 -0.173869 0.257397 43.000000
3.132778 -0.183371 0.257256 45.000000
3.134192 -0.193104 0.257397 50.000000
3.135576 -0.202846 0.257539 39.000000
3.135934 -0.212532 0.257609 38.000000
3.130292 -0.221802 0.257256 49.000000
3.131587 -0.231550 0.257397 45.000000
3.128872 -0.241004 0.257256 41.000000
3.128118 -0.250603 0.257256 46.000000
3.125346 -0.260034 0.257115 37.000000
3.124534 -0.269621 0.257115 39.000000
3.130647 -0.279825 0.257609 26.000000
3.127787 -0.289245 0.257468 23.000000
3.127878 -0.298934 0.257539 20.000000
3.114680 0.531351 0.219106 51.000000
3.121219 0.522617 0.219397 37.000000
3.117882 0.512230 0.219106 50.000000
3.120424 0.502821 0.219165 33.000000
3.125896 0.493868 0.219397 36.000000
3.127397 0.484275 0.219397 41.000000
3.127881 0.474529 0.219339 58.000000
3.126359 0.464491 0.219165 48.000000
3.125794 0.454610 0.219048 50.000000
3.124209 0.444596 0.218874 57.000000
3.121603 0.434459 0.218642 65.000000
3.118964 0.424342 0.218409 49.000000
3.119262 0.414640 0.218351 42.000000
3.120519 0.405068 0.218351 43.000000
3.125709 0.395994 0.218584 58.000000
3.125918 0.386281 0.218526 55.000000
3.130062 0.377046 0.218700 63.000000
3.130213 0.367325 0.218642 48.000000
3.133309 0.357947 0.218758 42.000000
3.134392 0.348332 0.218758 52.000000
3.134454 0.338607 0.218700 51.000000
3.132499 0.328677 0.218526 53.000000
3.132499 0.318964 0.218467 50.000000
3.128496 0.308863 0.218177 66.000000
3.129428 0.299263 0.218177 55.000000
3.127350 0.289385 0.218003 42.000000
3.128223 0.279789 0.218003 39.000000
3.126083 0.269933 0.217829 36.000000
3.127891 0.260424 0.217887 55.000000
3.127680 0.250747 0.217829 48.000000
3.128435 0.241150 0.217829 44.000000
3.124182 0.231183 0.217538 61.000000
3.119897 0.221245 0.217248 61.000000
3.119565 0.211605 0.217190 55.000000
3.119203 0.201969 0.217131 60.000000
3.121801 0.192521 0.217248 43.000000
3.120384 0.182826 0.217131 68.000000
3.118937 0.173141 0.217015 68.000000
3.123441 0.163780 0.217248 49.000000
3.127917 0.154393 0.217480 54.000000
3.126382 0.144704 0.217364 50.000000
3.127808 0.135155 0.217422 50.000000
3.128208 0.125558 0.217422 51.000000
3.123590 0.115776 0.217131 69.000000
3.126924 0.106294 0.217306 63.000000
3.127236 0.096700 0.217306 56.000000
3.125522 0.087050 0.217190 54.000000
3.125774 0.077461 0.217190 66.000000
3.125997 0.067871 0.217190 69.000000
3.127189 0.058299 0.217248 72.000000
3.130347 0.048750 0.217422 58.000000
3.128486 0.039122 0.217306 53.000000
3.125596 0.029496 0.217131 55.000000
3.128667 0.019925 0.217306 74.000000
3.125719 0.010317 0.217131 59.000000
3.123739 0.000727 0.217015 60.000000
3.125723 -0.008862 0.217131 53.000000
3.125681 -0.018452 0.217131 47.000000
3.127606 -0.028060 0.217248 51.000000
3.131499 -0.037703 0.217480 66.000000
3.129371 -0.047280 0.217364 43.000000
3.131208 -0.056917 0.217480 51.000000
3.134013 -0.066587 0.217654 54.000000
3.133794 -0.076202 0.217654 50.000000
3.130552 -0.085734 0.217480 49.000000
3.131272 -0.095368 0.217538 54.000000
3.132960 -0.105041 0.217654 50.000000
3.135616 -0.114763 0.217829 54.000000
3.137244 -0.124461 0.217945 55.000000
3.139839 -0.134214 0.218119 46.000000
3.140410 -0.143892 0.218177 55.000000
3.142945 -0.153673 0.218351 48.000000
3.142459 -0.163314 0.218351 51.000000
3.141943 -0.172955 0.218351 57.000000
3.139405 -0.182477 0.218235 62.000000
3.140823 -0.192230 0.218351 53.000000
3.140218 -0.201865 0.218351 54.000000
3.134604 -0.211162 0.218061 54.000000
3.131950 -0.220637 0.217945 39.000000
3.132254 -0.230318 0.218003 53.000000
3.128546 -0.239698 0.217829 52.000000
3.130782 -0.249533 0.218003 42.000000
3.126022 -0.258807 0.217770 45.000000
3.122229 -0.268140 0.217596 35.000000
3.124375 -0.277983 0.217770 40.000000
3.124501 -0.287659 0.217829 33.000000
3.121616 -0.297054 0.217712 35.000000
3.100864 -0.314287 0.216609 6.000000
3.115886 0.529706 0.181736 26.000000
3.117496 0.520144 0.181736 23.000000
3.119077 0.510577 0.181736 37.000000
3.117671 0.500529 0.181597 36.000000
3.117218 0.490651 0.181505 55.000000
3.115747 0.480627 0.181366 46.000000
3.118195 0.471215 0.181412 53.000000
3.117649 0.461353 0.181320 35.000000
3.119050 0.451786 0.181320 54.000000
3.117455 0.441793 0.181181 43.000000
3.121764 0.432640 0.181320 58.000000
3.122086 0.422926 0.181274 40.000000
3.120399 0.412951 0.181135 44.000000
3.118679 0.402991 0.180996 52.000000
3.120891 0.393546 0.181042 43.000000
3.119110 0.383603 0.180904 47.000000
3.120272 0.374032 0.180904 48.000000
3.117436 0.363992 0.180719 44.000000
3.119531 0.354539 0.180765 46.000000
3.119611 0.344857 0.180719 63.000000
3.121648 0.335392 0.180765 39.000000
3.122662 0.325813 0.180765 60.000000
3.122653 0.316130 0.180719 47.000000
3.123608 0.306549 0.180719 40.000000
3.125528 0.297059 0.180765 32.000000
3.126425 0.287469 0.180765 58.000000
3.127292 0.277875 0.180765 61.000000
3.122158 0.267765 0.180488 49.000000
3.122965 0.258185 0.180488 59.000000
3.122747 0.248524 0.180441 50.000000
3.121502 0.238789 0.180349 53.000000
3.119232 0.228991 0.180210 41.000000
3.117927 0.219279 0.180118 51.000000
3.121575 0.209914 0.180256 50.000000
3.125195 0.200530 0.180395 48.000000
3.127789 0.191063 0.180488 41.000000
3.127364 0.181408 0.180441 73.000000
3.126908 0.171758 0.180395 49.000000
3.128418 0.162216 0.180441 58.000000
3.126905 0.152519 0.180349 50.000000
3.121371 0.142649 0.180071 70.000000
3.120796 0.133029 0.180025 45.000000
3.118195 0.123335 0.179887 65.000000
3.117561 0.113731 0.179840 49.000000
3.117895 0.104166 0.179840 49.000000
3.117202 0.094569 0.179794 54.000000
3.121471 0.085115 0.179979 50.000000
3.120719 0.075514 0.179933 65.000000
3.124931 0.066025 0.180118 53.000000
3.127116 0.056475 0.180210 63.000000
3.125277 0.046850 0.180118 65.000000
3.126405 0.037274 0.180164 46.000000
3.122509 0.027645 0.179979 48.000000
3.120581 0.018053 0.179887 46.000000
3.118624 0.008473 0.179794 48.000000
3.115639 -0.001095 0.179655 49.000000
3.116620 -0.010657 0.179702 56.000000
3.115573 -0.020212 0.179655 46.000000
3.121490 -0.029826 0.179933 44.000000
3.127377 -0.039476 0.180210 45.000000
3.130237 -0.049116 0.180349 43.000000
3.131071 -0.058738 0.180395 52.000000
3.131875 -0.068365 0.180441 47.000000
3.136643 -0.078095 0.180673 30.000000
3.135391 -0.087690 0.180626 45.000000
3.133110 -0.097248 0.180534 47.000000
3.131798 -0.106826 0.180488 53.000000
3.131456 -0.116434 0.180488 59.000000
3.132082 -0.126080 0.180534 62.000000
3.128686 -0.135560 0.180395 59.000000
3.127258 -0.145112 0.180349 56.000000
3.124803 -0.154608 0.180256 43.000000
3.126308 -0.164298 0.180349 55.000000
3.125790 -0.173889 0.180349 56.000000
3.128233 -0.183652 0.180488 41.000000
3.132640 -0.193555 0.180719 59.000000
3.136019 -0.203422 0.180904 37.000000
3.134383 -0.212975 0.180857 56.000000
3.134712 -0.222660 0.180904 47.000000
3.131026 -0.232056 0.180765 33.000000
3.129303 -0.241584 0.180719 33.000000
3.127551 -0.251104 0.180673 45.000000
3.125771 -0.260615 0.180626 46.000000
3.120975 -0.269861 0.180441 32.000000
3.121128 -0.279524 0.180488 33.000000
3.124234 -0.289465 0.180673 31.000000
3.131287 -0.299807 0.181042 24.000000
3.142282 -0.310587 0.181597 13.000000
3.151252 -0.321236 0.182060 6.000000
3.120205 0.531736 0.142857 23.000000
3.112950 0.520678 0.142552 46.000000
3.115519 0.511287 0.142586 42.000000
3.116086 0.501567 0.142552 47.000000
3.118597 0.492160 0.142586 43.000000
3.122068 0.482896 0.142654 40.000000
3.123535 0.473315 0.142654 45.000000
3.123984 0.463583 0.142620 39.000000
3.123413 0.453710 0.142552 50.000000
3.124790 0.444125 0.142552 41.000000
3.126138 0.434536 0.142552 47.000000
3.126466 0.424809 0.142519 38.000000
3.125773 0.414952 0.142451 50.000000
3.121085 0.404591 0.142248 42.000000
3.119337 0.394637 0.142146 38.000000
3.120533 0.385066 0.142146 44.000000
3.119715 0.375252 0.142078 56.000000
3.119859 0.365563 0.142045 43.000000
3.117987 0.355650 0.141943 48.000000
3.117076 0.345862 0.141875 35.000000
3.122097 0.336726 0.142011 44.000000
3.124110 0.327249 0.142045 26.000000
3.124105 0.317562 0.142011 47.000000
3.124070 0.307878 0.141977 41.000000
3.123010 0.298103 0.141909 51.000000
3.125900 0.288704 0.141977 51.000000
3.128762 0.279290 0.142045 43.000000
3.126617 0.269432 0.141943 39.000000
3.126433 0.259756 0.141909 48.000000
3.125223 0.250004 0.141842 56.000000
3.124979 0.240338 0.141808 38.000000
3.126698 0.230823 0.141842 42.000000
3.127391 0.221230 0.141842 45.000000
3.128055 0.211634 0.141842 39.000000
3.129687 0.202100 0.141875 47.000000
3.129295 0.192437 0.141842 34.000000
3.133862 0.183068 0.141977 50.000000
3.134408 0.173452 0.141977 40.000000
3.136922 0.163939 0.142045 61.000000
3.134416 0.154168 0.141943 41.000000
3.131879 0.144413 0.141842 45.000000
3.133305 0.134847 0.141875 51.000000
3.135701 0.125313 0.141943 47.000000
3.135072 0.115655 0.141909 45.000000
3.136412 0.106070 0.141943 48.000000
3.135723 0.096417 0.141909 42.000000
3.140000 0.086906 0.142045 53.000000
3.140252 0.077272 0.142045 48.000000
3.142473 0.067681 0.142112 51.000000
3.140667 0.058003 0.142045 40.000000
3.138832 0.048336 0.141977 44.000000
3.134968 0.038658 0.141842 44.000000
3.135072 0.029039 0.141842 37.000000
3.130149 0.019391 0.141672 49.000000
3.133192 0.009796 0.141774 38.000000
3.128210 0.000184 0.141605 53.000000
3.126197 -0.009407 0.141537 40.000000
3.124155 -0.018985 0.141469 37.000000
3.125081 -0.028579 0.141503 57.000000
3.125978 -0.038179 0.141537 41.000000
3.125846 -0.047769 0.141537 50.000000
3.125685 -0.057359 0.141537 37.000000
3.126493 -0.066970 0.141571 49.000000
3.132268 -0.076709 0.141774 38.000000
3.137013 -0.086457 0.141943 48.000000
3.136733 -0.096080 0.141943 45.000000
3.139421 -0.105805 0.142045 37.000000
3.136085 -0.115325 0.141943 47.000000
3.132720 -0.124826 0.141842 51.000000
3.135318 -0.134566 0.141943 46.000000
3.129899 -0.143954 0.141774 29.000000
3.128444 -0.153506 0.141740 53.000000
3.127959 -0.163104 0.141740 50.000000
3.128441 -0.172755 0.141774 38.000000
3.135878 -0.182818 0.142045 31.000000
3.134305 -0.192377 0.142011 44.000000
3.134697 -0.202056 0.142045 33.000000
3.134063 -0.211672 0.142045 43.000000
3.136389 -0.221498 0.142146 46.000000
3.134698 -0.231046 0.142112 60.000000
3.131982 -0.240508 0.142045 37.000000
3.130233 -0.250036 0.142011 32.000000
3.128455 -0.259556 0.141977 41.000000
3.128640 -0.269238 0.142011 25.000000
3.125808 -0.278658 0.141943 35.000000
3.125934 -0.288338 0.141977 45.000000
3.121055 -0.297547 0.141842 33.000000
3.107198 -0.305847 0.141401 14.000000
3.629392 0.279100 0.114631 25.000000
3.632226 0.268112 0.114674 23.000000
3.608100 0.255196 0.114133 25.000000
3.605873 0.243921 0.114068 21.000000
3.565701 0.230203 0.113181 32.000000
3.533461 0.217228 0.112467 40.000000
3.553073 0.207500 0.112878 54.000000
3.550698 0.196431 0.112813 60.000000
3.517339 0.183752 0.112077 39.000000
3.517887 0.172961 0.112077 44.000000
3.494432 0.161054 0.111558 33.000000
3.521878 0.151502 0.112142 47.000000
3.503346 0.139932 0.111731 42.000000
3.534730 0.130335 0.112402 67.000000
3.530117 0.119320 0.112293 74.000000
3.487497 0.107154 0.111363 57.000000
3.526785 0.097545 0.112207 73.000000
3.511077 0.086326 0.111861 70.000000
3.479340 0.074855 0.111168 52.000000
3.493548 0.064443 0.111471 49.000000
3.484732 0.053583 0.111276 44.000000
3.447892 0.042424 0.110476 26.000000
3.548977 0.032813 0.112661 16.000000
3.485078 0.021508 0.111276 24.000000
3.516120 0.010923 0.111947 40.000000
3.542131 0.000145 0.112510 37.000000
3.534117 -0.010700 0.112337 32.000000
3.552063 -0.021647 0.112726 30.000000
3.546981 -0.032500 0.112618 29.000000
3.541866 -0.043322 0.112510 36.000000
3.592699 -0.054952 0.113614 39.000000
3.607507 -0.066244 0.113938 22.000000
3.613284 -0.077438 0.114068 21.000000
3.625024 -0.088813 0.114328 25.000000
3.642723 -0.100424 0.114717 30.000000
3.602426 -0.110388 0.113852 12.000000
3.643975 0.268309 0.069834 24.000000
3.631814 0.256215 0.069713 16.000000
3.633580 0.245139 0.069723 34.000000
3.606374 0.232194 0.069464 27.000000
3.590102 0.220090 0.069306 41.000000
3.571793 0.207973 0.069131 41.000000
3.562430 0.196464 0.069038 48.000000
3.548037 0.184756 0.068899 54.000000
3.540596 0.173479 0.068825 42.000000
3.539114 0.162524 0.068807 68.000000
3.534601 0.151452 0.068761 54.000000
3.529054 0.140369 0.068705 58.000000
3.527469 0.129469 0.068687 60.000000
3.524852 0.118545 0.068659 69.000000
3.524199 0.107700 0.068650 74.000000
3.517517 0.096696 0.068585 65.000000
3.513798 0.085807 0.068548 62.000000
3.513045 0.075005 0.068539 61.000000
3.521257 0.064372 0.068613 65.000000
3.526437 0.053644 0.068659 74.000000
3.531584 0.042885 0.068705 66.000000
3.537699 0.032104 0.068761 64.000000
3.543780 0.021286 0.068816 63.000000
3.549829 0.010431 0.068872 48.000000
3.557844 -0.000462 0.068946 61.000000
3.558825 -0.011381 0.068955 54.000000
3.586772 -0.022478 0.069214 32.000000
3.592685 -0.033538 0.069269 29.000000
3.608564 -0.044760 0.069417 28.000000
3.618408 -0.055987 0.069510 29.000000
3.629217 -0.067293 0.069612 24.000000
3.649987 -0.078883 0.069806 19.000000
3.657725 -0.090279 0.069880 24.000000
3.663429 -0.101667 0.069935 20.000000
3.700080 -0.114050 0.070278 6.000000
3.652998 0.269652 0.024085 20.000000
3.638846 0.257380 0.024135 33.000000
3.627646 0.245401 0.024175 32.000000
3.621397 0.233817 0.024198 31.000000
3.599141 0.221287 0.024274 36.000000
3.584829 0.209365 0.024324 53.000000
3.574471 0.197754 0.024361 45.000000
3.562079 0.186105 0.024404 45.000000
3.546653 0.174384 0.024457 48.000000
3.540179 0.163178 0.024480 57.000000
3.529673 0.151840 0.024517 60.000000
3.523128 0.140728 0.024540 41.000000
3.520545 0.129807 0.024550 69.000000
3.522926 0.119074 0.024543 49.000000
3.521276 0.108203 0.024550 70.000000
3.518592 0.097316 0.024560 84.000000
3.515875 0.086446 0.024570 72.000000
3.518123 0.075702 0.024563 66.000000
3.519339 0.064927 0.024560 58.000000
3.522521 0.054177 0.024550 55.000000
3.525671 0.043408 0.024540 54.000000
3.526787 0.032601 0.024536 42.000000
3.533870 0.021826 0.024513 56.000000
3.540921 0.011008 0.024490 50.000000
3.546938 0.000147 0.024470 39.000000
3.550921 -0.010746 0.024457 46.000000
3.565871 -0.021726 0.024407 34.000000
3.575787 -0.032754 0.024374 25.000000
3.591669 -0.043915 0.024321 28.000000
3.603516 -0.055114 0.024281 37.000000
3.618327 -0.066439 0.024231 32.000000
3.645100 -0.078110 0.024142 21.000000
3.660839 -0.089679 0.024089 20.000000
3.690535 -0.101727 0.023989 11.000000
3.692204 -0.113109 0.023983 14.000000
3.633618 0.268817 -0.020809 34.000000
3.629438 0.257315 -0.020731 48.000000
3.620235 0.245504 -0.020574 46.000000
3.613986 0.233945 -0.020464 34.000000
3.596723 0.221750 -0.020181 35.000000
3.580418 0.209723 -0.019914 60.000000
3.569064 0.198073 -0.019725 52.000000
3.557673 0.186496 -0.019537 55.000000
3.545246 0.174941 -0.019333 66.000000
3.539773 0.163787 -0.019238 51.000000
3.531268 0.152539 -0.019097 64.000000
3.529721 0.141624 -0.019066 66.000000
3.522146 0.130499 -0.018940 86.000000
3.516534 0.119490 -0.018846 74.000000
3.516884 0.108701 -0.018846 62.000000
3.518200 0.097938 -0.018861 80.000000
3.516485 0.087095 -0.018830 68.000000
3.518735 0.076349 -0.018861 65.000000
3.523951 0.065646 -0.018940 70.000000
3.525136 0.054850 -0.018956 68.000000
3.527287 0.044060 -0.018987 86.000000
3.532404 0.033284 -0.019066 77.000000
3.532490 0.022447 -0.019066 72.000000
3.543541 0.011644 -0.019238 60.000000
3.548559 0.000773 -0.019317 71.000000
3.552544 -0.010125 -0.019380 51.000000
3.561496 -0.021079 -0.019521 36.000000
3.569413 -0.032078 -0.019647 43.000000
3.577296 -0.043126 -0.019773 42.000000
3.590144 -0.054299 -0.019977 36.000000
3.601957 -0.065532 -0.020165 34.000000
3.622731 -0.077031 -0.020495 28.000000
3.642469 -0.088634 -0.020809 19.000000
3.658173 -0.100248 -0.021061 18.000000
3.687830 -0.112388 -0.021532 9.000000
3.642646 0.268884 -0.064770 29.000000
3.624509 0.256361 -0.064242 32.000000
3.614308 0.244495 -0.063937 46.000000
3.600078 0.232434 -0.063521 32.000000
3.579822 0.220093 -0.062938 37.000000
3.565512 0.208230 -0.062522 40.000000
3.561144 0.197013 -0.062383 33.000000
3.536776 0.184774 -0.061690 47.000000
3.528340 0.173478 -0.061440 65.000000
3.528856 0.162652 -0.061440 64.000000
3.526342 0.151695 -0.061357 59.000000
3.525792 0.140836 -0.061329 62.000000
3.525209 0.129981 -0.061301 51.000000
3.518598 0.118926 -0.061107 70.000000
3.522942 0.108255 -0.061218 59.000000
3.524257 0.097474 -0.061246 66.000000
3.519543 0.086537 -0.061107 55.000000
3.517793 0.075695 -0.061051 77.000000
3.518009 0.064902 -0.061051 73.000000
3.520191 0.054140 -0.061107 58.000000
3.522339 0.043366 -0.061162 45.000000
3.521456 0.032549 -0.061135 57.000000
3.521539 0.021746 -0.061135 52.000000
3.528587 0.010966 -0.061329 49.000000
3.534602 0.000142 -0.061495 41.000000
3.536585 -0.010707 -0.061551 45.000000
3.542533 -0.021592 -0.061717 30.000000
3.551446 -0.032539 -0.061967 27.000000
3.584314 -0.043828 -0.062883 18.000000
3.589160 -0.054899 -0.063022 27.000000
3.600969 -0.066126 -0.063354 21.000000
3.611742 -0.077405 -0.063660 22.000000
3.630475 -0.088945 -0.064187 29.000000
3.644175 -0.100464 -0.064575 22.000000
3.631859 -0.111280 -0.064242 38.000000
3.738400 -0.125991 -0.067211 9.000000
3.621316 0.279082 -0.109696 14.000000
3.627138 0.268339 -0.109897 34.000000
3.618974 0.256575 -0.109535 40.000000
3.611769 0.244931 -0.109212 32.000000
3.602532 0.233204 -0.108809 28.000000
3.591263 0.221414 -0.108325 29.000000
3.581950 0.209812 -0.107922 39.000000
3.569607 0.198104 -0.107398 46.000000
3.566207 0.186942 -0.107237 36.000000
3.556784 0.175509 -0.106834 41.000000
3.552315 0.164366 -0.106633 61.000000
3.545815 0.153166 -0.106350 51.000000
3.542275 0.142127 -0.106189 51.000000
3.535705 0.131000 -0.105907 59.000000
3.532095 0.120017 -0.105746 64.000000
3.529451 0.109088 -0.105625 67.000000
3.527771 0.098204 -0.105544 56.000000
3.531053 0.087454 -0.105665 60.000000
3.533302 0.076664 -0.105746 59.000000
3.536518 0.065879 -0.105867 69.000000
3.534705 0.054998 -0.105786 47.000000
3.535856 0.044166 -0.105827 56.000000
3.536974 0.033327 -0.105867 46.000000
3.538059 0.022482 -0.105907 43.000000
3.537112 0.011624 -0.105867 49.000000
3.541128 0.000772 -0.106028 52.000000
3.547109 -0.010109 -0.106270 48.000000
3.554055 -0.021034 -0.106552 41.000000
3.560968 -0.032001 -0.106834 45.000000
3.569845 -0.043035 -0.107197 32.000000
3.579687 -0.054139 -0.107600 40.000000
3.592491 -0.065359 -0.108124 24.000000
3.599267 -0.076530 -0.108406 31.000000
3.609004 -0.087816 -0.108809 42.000000
3.617707 -0.099135 -0.109172 31.000000
3.625376 -0.110478 -0.109494 27.000000
3.647988 -0.122373 -0.110421 9.000000
3.613434 0.276604 -0.152920 28.000000
3.606298 0.264929 -0.152501 30.000000
3.604106 0.253653 -0.152344 35.000000
3.595900 0.241988 -0.151873 34.000000
3.589649 0.230505 -0.151507 34.000000
3.581369 0.218939 -0.151036 39.000000
3.576042 0.207602 -0.150722 38.000000
3.568685 0.196188 -0.150303 39.000000
3.563287 0.184926 -0.149989 42.000000
3.555858 0.173601 -0.149570 61.000000
3.552384 0.162507 -0.149361 64.000000
3.541891 0.151136 -0.148785 63.000000
3.539344 0.140150 -0.148628 39.000000
3.534768 0.129107 -0.148367 58.000000
3.531155 0.118127 -0.148157 61.000000
3.527508 0.107170 -0.147948 58.000000
3.527820 0.096347 -0.147948 66.000000
3.528099 0.085524 -0.147948 56.000000
3.528345 0.074699 -0.147948 52.000000
3.529556 0.063892 -0.148000 48.000000
3.526740 0.053017 -0.147843 43.000000
3.526886 0.042197 -0.147843 53.000000
3.530993 0.031414 -0.148053 40.000000
3.531073 0.020581 -0.148053 50.000000
3.536113 0.009763 -0.148314 36.000000
3.539122 -0.001086 -0.148471 61.000000
3.541099 -0.011950 -0.148576 50.000000
3.547037 -0.022850 -0.148890 42.000000
3.547949 -0.033742 -0.148942 36.000000
3.569797 -0.044896 -0.150094 20.000000
3.565649 -0.055786 -0.149884 39.000000
3.576444 -0.066927 -0.150460 21.000000
3.592196 -0.078242 -0.151298 28.000000
3.607912 -0.089654 -0.152135 38.000000
3.617603 -0.100998 -0.152658 43.000000
3.640234 -0.112800 -0.153862 28.000000
3.647855 -0.124237 -0.154281 21.000000
3.691367 -0.137044 -0.156583 11.000000
3.655603 0.293005 -0.200594 26.000000
3.632606 0.279951 -0.199041 32.000000
3.628471 0.268437 -0.198717 39.000000
3.622310 0.256811 -0.198264 52.000000
3.607151 0.244618 -0.197229 38.000000
3.597926 0.232907 -0.196582 58.000000
3.585675 0.221070 -0.195741 43.000000
3.575378 0.209428 -0.195029 47.000000
3.569030 0.198072 -0.194576 48.000000
3.561648 0.186704 -0.194058 50.000000
3.556224 0.175482 -0.193670 33.000000
3.556746 0.164570 -0.193670 47.000000
3.554243 0.153529 -0.193476 57.000000
3.553700 0.142584 -0.193411 51.000000
3.550132 0.131533 -0.193152 50.000000
3.545532 0.120472 -0.192829 43.000000
3.543890 0.109533 -0.192699 56.000000
3.544210 0.098660 -0.192699 57.000000
3.538510 0.087638 -0.192311 62.000000
3.541755 0.076846 -0.192505 51.000000
3.537984 0.065906 -0.192246 69.000000
3.540164 0.055082 -0.192376 46.000000
3.543310 0.044258 -0.192570 57.000000
3.539438 0.033350 -0.192311 57.000000
3.540522 0.022497 -0.192376 56.000000
3.542570 0.011641 -0.192505 49.000000
3.537599 0.000772 -0.192182 50.000000
3.539581 -0.010087 -0.192311 39.000000
3.543525 -0.020970 -0.192570 58.000000
3.548433 -0.031887 -0.192893 38.000000
3.558297 -0.042895 -0.193541 43.000000
3.567129 -0.053948 -0.194123 58.000000
3.579917 -0.065129 -0.194964 44.000000
3.595663 -0.076453 -0.195999 43.000000
3.606385 -0.087752 -0.196711 39.000000
3.616074 -0.099090 -0.197358 47.000000
3.626725 -0.110519 -0.198070 23.000000
3.636343 -0.121981 -0.198717 30.000000
3.640937 -0.133320 -0.199041 49.000000
3.655467 -0.145084 -0.200011 25.000000
3.614761 0.276706 -0.240928 16.000000
3.610621 0.265248 -0.240545 11.000000
3.619375 0.254732 -0.241157 43.000000
3.611186 0.243022 -0.240469 28.000000
3.604949 0.231492 -0.239933 32.000000
3.595690 0.219820 -0.239167 46.000000
3.598339 0.208903 -0.239320 21.000000
3.587016 0.197202 -0.238402 47.000000
3.580634 0.185832 -0.237866 48.000000
3.572225 0.174406 -0.237177 51.000000
3.569755 0.163308 -0.236947 59.000000
3.571236 0.152398 -0.237024 48.000000
3.570690 0.141401 -0.236947 46.000000
3.566125 0.130262 -0.236565 44.000000
3.559532 0.119085 -0.236029 46.000000
3.559881 0.108164 -0.236029 68.000000
3.563186 0.097325 -0.236259 34.000000
3.555494 0.086197 -0.235646 47.000000
3.550758 0.075181 -0.235263 47.000000
3.547981 0.064232 -0.235034 46.000000
3.552149 0.053408 -0.235340 54.000000
3.555287 0.042547 -0.235570 18.000000
3.553407 0.031620 -0.235417 51.000000
3.558472 0.020749 -0.235799 57.000000
3.557522 0.009829 -0.235723 41.000000
3.560527 -0.001085 -0.235952 34.000000
3.561504 -0.012012 -0.236029 52.000000
3.562447 -0.022945 -0.236105 30.000000
3.563357 -0.033883 -0.236182 42.000000
3.570215 -0.044901 -0.236718 32.000000
3.571058 -0.055869 -0.236794 39.000000
3.575854 -0.066916 -0.237177 36.000000
3.577626 -0.077929 -0.237330 36.000000
3.582353 -0.089027 -0.237713 33.000000
3.590037 -0.100237 -0.238325 28.000000
3.593699 -0.111373 -0.238631 34.000000
3.616259 -0.123171 -0.240392 26.000000
3.648746 -0.135475 -0.242918 15.000000
3.631376 -0.145994 -0.241617 17.000000
3.624855 0.266903 -0.286159 20.000000
3.618701 0.255291 -0.285538 26.000000
3.612511 0.243720 -0.284917 36.000000
3.605290 0.232124 -0.284207 36.000000
3.598031 0.220576 -0.283497 46.000000
3.589742 0.209016 -0.282699 37.000000
3.585393 0.197728 -0.282255 47.000000
3.578025 0.186314 -0.281545 55.000000
3.573606 0.175092 -0.281102 31.000000
3.570146 0.163946 -0.280747 33.000000
3.566652 0.152822 -0.280392 46.000000
3.569094 0.141958 -0.280569 51.000000
3.568517 0.130971 -0.280481 40.000000
3.571889 0.120122 -0.280747 32.000000
3.578214 0.109345 -0.281279 32.000000
3.581520 0.098449 -0.281545 35.000000
3.581805 0.087460 -0.281545 36.000000
3.574090 0.076302 -0.280835 52.000000
3.573312 0.065318 -0.280747 43.000000
3.573495 0.054355 -0.280747 32.000000
3.574641 0.043403 -0.280835 37.000000
3.571769 0.032410 -0.280569 38.000000
3.567868 0.021428 -0.280214 35.000000
3.568913 0.010485 -0.280303 45.000000
3.567932 -0.000465 -0.280214 44.000000
3.563930 -0.011398 -0.279859 56.000000
3.563878 -0.022332 -0.279859 30.000000
3.555825 -0.033190 -0.279150 32.000000
3.556702 -0.044111 -0.279238 46.000000
3.561529 -0.055101 -0.279682 38.000000
3.562340 -0.066046 -0.279771 34.000000
3.567099 -0.077082 -0.280214 28.000000
3.575808 -0.088248 -0.281013 31.000000
3.583486 -0.099440 -0.281723 46.000000
3.593119 -0.110741 -0.282610 33.000000
3.592763 -0.121764 -0.282610 29.000000
3.596354 -0.132934 -0.282965 23.000000
3.600905 -0.144166 -0.283408 14.000000
3.606417 -0.155471 -0.283941 10.000000
3.625451 0.266976 -0.332114 12.000000
3.617322 0.255219 -0.331203 19.000000
3.604192 0.243178 -0.329786 32.000000
3.596978 0.231605 -0.328976 53.000000
3.596679 0.220508 -0.328875 35.000000
3.590387 0.209065 -0.328166 34.000000
3.585051 0.197718 -0.327559 50.000000
3.581667 0.186510 -0.327154 46.000000
3.581228 0.175472 -0.327053 44.000000
3.582744 0.164530 -0.327154 41.000000
3.586214 0.153666 -0.327458 46.000000
3.590645 0.142823 -0.327862 53.000000
3.591066 0.131806 -0.327862 38.000000
3.590459 0.120755 -0.327761 39.000000
3.593795 0.109831 -0.328065 33.000000
3.592127 0.098749 -0.327862 42.000000
3.593407 0.087753 -0.327964 41.000000
3.586697 0.076577 -0.327255 62.000000
3.586915 0.065573 -0.327255 39.000000
3.590084 0.054615 -0.327559 70.000000
3.586255 0.043551 -0.327154 35.000000
3.582393 0.032510 -0.326749 31.000000
3.578496 0.021494 -0.326344 38.000000
3.576555 0.010509 -0.326142 33.000000
3.575576 -0.000464 -0.326040 46.000000
3.569589 -0.011416 -0.325433 78.000000
3.566552 -0.022350 -0.325129 49.000000
3.563483 -0.033265 -0.324826 23.000000
3.564359 -0.044209 -0.324927 32.000000
3.566196 -0.055175 -0.325129 52.000000
3.567004 -0.066133 -0.325230 42.000000
3.571758 -0.077182 -0.325737 31.000000
3.580455 -0.088358 -0.326648 31.000000
3.584145 -0.099451 -0.327053 38.000000
3.591778 -0.110689 -0.327862 44.000000
3.597388 -0.121909 -0.328470 49.000000
3.599979 -0.133054 -0.328774 21.000000
3.608501 -0.144453 -0.329685 22.000000
3.616987 -0.155906 -0.330596 14.000000
3.611723 0.255431 -0.373914 18.000000
3.609516 0.244148 -0.373575 23.000000
3.606282 0.232817 -0.373123 27.000000
3.598053 0.221205 -0.372106 41.000000
3.596731 0.210049 -0.371880 44.000000
3.589422 0.198575 -0.370975 49.000000
3.590014 0.187562 -0.370975 38.000000
3.586604 0.176353 -0.370523 50.000000
3.587128 0.165348 -0.370523 42.000000
3.591588 0.154513 -0.370975 45.000000
3.594032 0.143572 -0.371201 46.000000
3.596441 0.132618 -0.371427 46.000000
3.601796 0.121751 -0.371993 43.000000
3.607119 0.110853 -0.372558 36.000000
3.608435 0.099813 -0.372671 33.000000
3.615677 0.088912 -0.373462 43.000000
3.609973 0.077691 -0.372784 89.000000
3.627082 0.066926 -0.374705 30.000000
3.626277 0.055782 -0.374592 43.000000
3.620470 0.044584 -0.373914 38.000000
3.611647 0.033395 -0.372897 31.000000
3.605772 0.022278 -0.372219 34.000000
3.597874 0.011192 -0.371314 39.000000
3.589943 0.000154 -0.370410 38.000000
3.582972 -0.010838 -0.369619 41.000000
3.580934 -0.021818 -0.369393 42.000000
3.573895 -0.032740 -0.368602 26.000000
3.568811 -0.043643 -0.368037 38.000000
3.564686 -0.054530 -0.367584 32.000000
3.561522 -0.065411 -0.367245 45.000000
3.563291 -0.076380 -0.367471 29.000000
3.569000 -0.087459 -0.368150 33.000000
3.575667 -0.098600 -0.368941 39.000000
3.581306 -0.109753 -0.369619 38.000000
3.588897 -0.121009 -0.370523 30.000000
3.588509 -0.132019 -0.370523 32.000000
3.586102 -0.142948 -0.370297 24.000000
3.586639 -0.153992 -0.370410 19.000000
3.579201 -0.164675 -0.369619 11.000000
3.618035 0.244116 -0.419932 12.000000
3.601936 0.231926 -0.417801 26.000000
3.600650 0.220752 -0.417551 25.000000
3.587444 0.208893 -0.415796 36.000000
3.575191 0.197171 -0.414167 58.000000
3.582715 0.186565 -0.415044 41.000000
3.579306 0.175377 -0.414543 44.000000
3.587756 0.164762 -0.415545 38.000000
3.592209 0.153925 -0.416047 53.000000
3.595638 0.143023 -0.416423 34.000000
3.604983 0.132322 -0.417551 37.000000
3.608347 0.121362 -0.417927 39.000000
3.616636 0.110536 -0.418929 30.000000
3.626875 0.099716 -0.420183 23.000000
3.635098 0.088785 -0.421185 32.000000
3.643288 0.077804 -0.422188 42.000000
3.652438 0.066792 -0.423316 28.000000
3.647665 0.055509 -0.422689 62.000000
3.641866 0.044244 -0.421937 28.000000
3.633056 0.032987 -0.420809 37.000000
3.625204 0.021790 -0.419807 23.000000
3.610372 0.010620 -0.417927 24.000000
3.595505 -0.000460 -0.416047 44.000000
3.585566 -0.011462 -0.414793 29.000000
3.580553 -0.022433 -0.414167 35.000000
3.572531 -0.033346 -0.413164 47.000000
3.565468 -0.044223 -0.412287 24.000000
3.555395 -0.055011 -0.411033 18.000000
3.560169 -0.066009 -0.411660 45.000000
3.562926 -0.076994 -0.412036 29.000000
3.570608 -0.088118 -0.413039 21.000000
3.576271 -0.099235 -0.413791 36.000000
3.584874 -0.110479 -0.414919 32.000000
3.602367 -0.122076 -0.417175 26.000000
3.608915 -0.133381 -0.418052 25.000000
3.616420 -0.144768 -0.419055 13.000000
3.645473 0.236616 -0.468543 18.000000
3.637284 0.224881 -0.467306 26.000000
3.617192 0.212503 -0.464420 37.000000
3.602004 0.200526 -0.462221 52.000000
3.596667 0.189162 -0.461396 60.000000
3.595252 0.178029 -0.461121 52.000000
3.596770 0.167044 -0.461258 52.000000
3.602214 0.156223 -0.461946 44.000000
3.607625 0.145370 -0.462633 60.000000
3.615973 0.134595 -0.463732 41.000000
3.625278 0.123804 -0.464969 50.000000
3.635541 0.112988 -0.466344 51.000000
3.641811 0.101999 -0.467169 58.000000
3.649038 0.090998 -0.468131 57.000000
3.654252 0.079910 -0.468818 42.000000
3.657451 0.068754 -0.469230 26.000000
3.652976 0.035042 -0.468543 33.000000
