ply
format ascii 1.0
element vertex 1250
property float x
property float y
property float z
property float intensity
end_header
3.036251 -0.149203 0.548220 58.000000
3.031840 -0.158313 0.547552 52.000000
3.029372 -0.167506 0.547218 58.000000
3.041640 -0.177541 0.549389 30.000000
3.030255 -0.186210 0.547552 44.000000
3.030653 -0.195569 0.547719 52.000000
3.020201 -0.204205 0.546050 40.000000
3.026446 -0.213954 0.547218 31.000000
3.017909 -0.222661 0.545883 51.000000
3.009346 -0.231317 0.544547 37.000000
3.006657 -0.240392 0.544213 46.000000
3.011801 -0.250102 0.545215 42.000000
3.012002 -0.259426 0.545382 39.000000
3.025923 -0.269974 0.547886 43.000000
3.024099 -0.279166 0.547719 37.000000
3.024210 -0.288535 0.547886 55.000000
3.029198 -0.298390 0.548888 64.000000
3.032192 -0.308079 0.549555 40.000000
3.023387 -0.316562 0.548220 45.000000
3.022402 -0.325836 0.548220 63.000000
3.014528 -0.334349 0.547051 48.000000
3.015448 -0.343818 0.547385 61.000000
3.020254 -0.353754 0.548387 50.000000
3.018176 -0.362901 0.548220 53.000000
3.017048 -0.372159 0.548220 45.000000
3.018827 -0.381783 0.548721 63.000000
3.013730 -0.390538 0.548053 49.000000
3.016427 -0.400299 0.548721 62.000000
3.011277 -0.409022 0.548053 70.000000
3.008054 -0.417988 0.547719 46.000000
3.009687 -0.427630 0.548220 41.000000
2.999774 -0.454428 0.547218 59.000000
2.998366 -0.463629 0.547218 56.000000
2.994982 -0.472519 0.546884 35.000000
2.997412 -0.482331 0.547552 54.000000
2.993972 -0.491206 0.547218 50.000000
2.986615 -0.499416 0.546217 64.000000
2.993818 -0.510063 0.547719 43.000000
2.987381 -0.518405 0.546884 40.000000
2.984806 -0.527396 0.546717 40.000000
2.982203 -0.536377 0.546551 36.000000
2.984423 -0.546232 0.547218 35.000000
3.040896 -0.566192 0.557235 11.000000
3.195396 0.069369 0.534778 7.000000
3.107683 0.057937 0.520993 20.000000
3.065370 0.047747 0.514333 37.000000
3.067477 0.038366 0.514643 46.000000
3.068569 0.028965 0.514798 41.000000
3.067655 0.019544 0.514643 39.000000
3.071653 0.010145 0.515263 38.000000
3.070681 0.000721 0.515108 50.000000
3.071657 -0.008703 0.515263 50.000000
3.069640 -0.018114 0.514953 45.000000
3.065619 -0.027496 0.514333 49.000000
3.060580 -0.036841 0.513559 59.000000
3.057489 -0.046185 0.513094 43.000000
3.054370 -0.055511 0.512630 46.000000
3.059124 -0.064987 0.513404 56.000000
3.056935 -0.074324 0.513094 50.000000
3.057680 -0.083729 0.513249 47.000000
3.056421 -0.093079 0.513094 51.000000
3.061058 -0.102622 0.513869 44.000000
3.058754 -0.111940 0.513559 48.000000
3.057410 -0.121284 0.513404 38.000000
3.052088 -0.130452 0.512630 50.000000
3.051673 -0.139815 0.512630 63.000000
3.049257 -0.149080 0.512320 46.000000
3.048784 -0.158435 0.512320 47.000000
3.044338 -0.167570 0.511700 60.000000
3.046769 -0.177081 0.512165 47.000000
3.045225 -0.186367 0.512010 44.000000
3.042668 -0.195582 0.511700 50.000000
3.041067 -0.204849 0.511545 56.000000
3.041410 -0.214248 0.511700 68.000000
3.038768 -0.223432 0.511391 70.000000
3.040038 -0.232905 0.511700 45.000000
3.036355 -0.241995 0.511236 56.000000
3.035598 -0.251309 0.511236 51.000000
3.039903 -0.270457 0.512165 63.000000
3.035319 -0.298230 0.511855 64.000000
3.033407 -0.307442 0.511700 53.000000
3.031466 -0.316644 0.511545 72.000000
3.027534 -0.325625 0.511081 90.000000
3.027503 -0.335021 0.511236 67.000000
3.028424 -0.344531 0.511545 64.000000
3.028334 -0.353935 0.511700 64.000000
3.030177 -0.363578 0.512165 57.000000
3.031008 -0.373114 0.512475 70.000000
3.030829 -0.382535 0.512630 82.000000
3.029641 -0.391832 0.512630 70.000000
3.024507 -0.400606 0.512010 61.000000
3.024243 -0.410016 0.512165 59.000000
3.019057 -0.418749 0.511545 66.000000
3.018736 -0.428148 0.511700 59.000000
3.021319 -0.437975 0.512320 46.000000
3.008234 -0.445504 0.510461 74.000000
3.005876 -0.454583 0.510306 66.000000
3.001538 -0.463350 0.509842 66.000000
2.999127 -0.472403 0.509687 64.000000
2.997663 -0.481602 0.509687 69.000000
2.994222 -0.490476 0.509377 61.000000
2.997575 -0.500474 0.510151 49.000000
2.994078 -0.509337 0.509842 65.000000
2.992501 -0.518520 0.509842 47.000000
2.993815 -0.528214 0.510306 54.000000
2.988291 -0.536697 0.509687 38.000000
2.984687 -0.545507 0.509377 32.000000
2.981056 -0.554300 0.509067 52.000000
2.976430 -0.562892 0.508603 26.000000
2.982450 -0.573514 0.509842 11.000000
3.064933 0.047520 0.476712 35.000000
3.066157 0.028722 0.476855 38.000000
3.070237 -0.008916 0.477427 38.000000
3.069206 -0.018330 0.477284 51.000000
3.071115 -0.027763 0.477570 51.000000
3.066067 -0.037127 0.476855 54.000000
3.057032 -0.046402 0.475568 48.000000
3.052917 -0.055710 0.474996 49.000000
3.054711 -0.065117 0.475282 48.000000
3.051528 -0.074417 0.474853 28.000000
3.049307 -0.083725 0.474567 50.000000
3.044089 -0.092931 0.473852 53.000000
3.049725 -0.102467 0.474710 44.000000
3.053352 -0.111966 0.475282 55.000000
3.056950 -0.121489 0.475854 63.000000
3.051619 -0.130657 0.475139 61.000000
3.048238 -0.139884 0.474710 61.000000
3.047794 -0.149235 0.474710 46.000000
3.044357 -0.158432 0.474281 37.000000
3.037927 -0.167446 0.473423 54.000000
3.034435 -0.176594 0.472995 44.000000
3.031903 -0.185783 0.472709 52.000000
3.036257 -0.195400 0.473423 47.000000
3.038606 -0.204912 0.473852 45.000000
3.040925 -0.214441 0.474281 35.000000
3.045188 -0.224131 0.474996 51.000000
3.045473 -0.233548 0.475139 47.000000
3.044742 -0.242890 0.475139 50.000000
3.041023 -0.251986 0.474710 56.000000
3.042208 -0.261483 0.474996 39.000000
3.034491 -0.270204 0.473995 45.000000
3.031676 -0.279331 0.473709 72.000000
3.031790 -0.288725 0.473852 67.000000
3.030890 -0.298025 0.473852 75.000000
3.027007 -0.307023 0.473423 51.000000
3.029989 -0.316719 0.473995 75.000000
3.028019 -0.325908 0.473852 97.000000
3.027005 -0.335196 0.473852 75.000000
3.021045 -0.343923 0.473138 86.000000
3.021942 -0.353419 0.473423 74.000000
3.019861 -0.362571 0.473281 72.000000
3.020699 -0.372075 0.473566 71.000000
3.021507 -0.381588 0.473852 73.000000
3.014432 -0.390096 0.472995 111.000000
3.021071 -0.400380 0.474138 71.000000
3.019829 -0.409647 0.474138 70.000000
3.013656 -0.418231 0.473423 71.000000
3.009418 -0.427059 0.472995 88.000000
3.003196 -0.435581 0.472280 92.000000
2.995971 -0.443925 0.471422 76.000000
2.992638 -0.452819 0.471136 89.000000
2.999060 -0.463203 0.472280 59.000000
2.991759 -0.471480 0.471422 76.000000
2.997139 -0.481753 0.472423 80.000000
2.999554 -0.491585 0.472995 77.000000
2.999984 -0.501110 0.473281 76.000000
3.006239 -0.511637 0.474424 44.000000
3.002704 -0.520521 0.474138 53.000000
3.003043 -0.530074 0.474424 44.000000
2.999454 -0.538935 0.474138 34.000000
2.990971 -0.546891 0.473138 39.000000
2.991225 -0.556426 0.473423 42.000000
2.987559 -0.565233 0.473138 45.000000
2.990671 -0.575329 0.473852 35.000000
3.010262 -0.588672 0.476998 8.000000
3.068305 0.028962 0.439694 48.000000
3.073336 0.019579 0.440349 43.000000
3.074373 0.010154 0.440480 39.000000
3.077364 0.000722 0.440873 41.000000
3.076360 -0.008716 0.440742 39.000000
3.077311 -0.018160 0.440873 37.000000
3.073275 -0.027565 0.440349 49.000000
3.076150 -0.037030 0.440742 52.000000
3.074039 -0.046437 0.440480 46.000000
3.067935 -0.055759 0.439694 67.000000
3.067749 -0.065171 0.439694 51.000000
3.060597 -0.074413 0.438777 61.000000
3.058373 -0.083748 0.438514 54.000000
3.055129 -0.093040 0.438121 54.000000
3.051857 -0.102312 0.437728 42.000000
3.048556 -0.111566 0.437335 51.000000
3.052162 -0.121076 0.437859 54.000000
3.050786 -0.130396 0.437728 40.000000
3.053342 -0.139892 0.438121 49.000000
3.050918 -0.149162 0.437859 61.000000
3.056386 -0.158831 0.438646 52.000000
3.055885 -0.168207 0.438646 54.000000
3.055354 -0.177581 0.438646 42.000000
3.053805 -0.186893 0.438514 59.000000
3.055197 -0.196389 0.438777 54.000000
3.055569 -0.205828 0.438908 58.000000
3.055912 -0.215271 0.439039 52.000000
3.053259 -0.224500 0.438777 60.000000
3.053545 -0.233942 0.438908 56.000000
3.053801 -0.243388 0.439039 62.000000
3.049088 -0.252428 0.438514 59.000000
3.046324 -0.261611 0.438252 64.000000
3.042544 -0.270692 0.437859 71.000000
3.038938 -0.298586 0.437728 73.000000
3.036035 -0.307708 0.437466 91.000000
3.036062 -0.317124 0.437597 81.000000
3.034089 -0.326331 0.437466 78.000000
3.030118 -0.335311 0.437073 98.000000
3.030060 -0.344718 0.437204 79.000000
3.028003 -0.353897 0.437073 81.000000
3.022966 -0.362712 0.436549 98.000000
3.023807 -0.372227 0.436811 104.000000
3.027569 -0.382124 0.437466 119.000000
3.026382 -0.391410 0.437466 145.000000
3.028115 -0.401084 0.437859 153.000000
3.029818 -0.410772 0.438252 137.000000
3.027561 -0.419929 0.438121 136.000000
3.024296 -0.428937 0.437859 138.000000
3.027871 -0.438925 0.438514 146.000000
3.017684 -0.446904 0.437335 135.000000
3.012378 -0.455567 0.436811 123.000000
3.009007 -0.464504 0.436549 115.000000
3.005609 -0.473424 0.436287 122.000000
3.002184 -0.482328 0.436025 108.000000
3.002647 -0.491858 0.436287 98.000000
3.001124 -0.501067 0.436287 92.000000
3.002505 -0.510771 0.436680 90.000000
3.002877 -0.520319 0.436942 89.000000
3.002243 -0.529702 0.437073 63.000000
3.002555 -0.539261 0.437335 52.000000
3.001862 -0.548648 0.437466 46.000000
3.000165 -0.557855 0.437466 42.000000
2.997465 -0.566873 0.437335 46.000000
2.996685 -0.576254 0.437466 36.000000
2.993930 -0.585254 0.437335 51.000000
3.004761 -0.596950 0.439039 25.000000
3.007774 -0.607147 0.439694 9.000000
3.105729 0.029648 0.406294 7.000000
3.061190 0.001030 0.400943 49.000000
3.058200 -0.008355 0.400586 47.000000
3.064117 -0.017769 0.401299 47.000000
3.063055 -0.027162 0.401180 48.000000
3.063950 -0.036570 0.401299 51.000000
3.066802 -0.046014 0.401656 52.000000
3.063668 -0.055370 0.401299 54.000000
3.058521 -0.064665 0.400705 46.000000
3.059300 -0.074072 0.400824 56.000000
3.059059 -0.083458 0.400824 53.000000
3.053826 -0.092694 0.400229 43.000000
3.049558 -0.101931 0.399753 60.000000
3.049230 -0.111286 0.399753 62.000000
3.052843 -0.120796 0.400229 54.000000
3.054442 -0.130246 0.400467 60.000000
3.059980 -0.139886 0.401180 74.000000
3.056561 -0.149129 0.400824 65.000000
3.060055 -0.158710 0.401299 48.000000
3.061537 -0.168205 0.401537 62.000000
3.061006 -0.177597 0.401537 53.000000
3.055492 -0.186687 0.400943 55.000000
3.057878 -0.196249 0.401299 68.000000
3.058252 -0.205696 0.401418 54.000000
3.057606 -0.215078 0.401418 55.000000
3.055942 -0.224385 0.401299 53.000000
3.055239 -0.233760 0.401299 49.000000
3.054508 -0.243132 0.401299 64.000000
3.053747 -0.252502 0.401299 54.000000
3.049990 -0.261616 0.400943 72.000000
3.046206 -0.270709 0.400586 71.000000
3.045361 -0.280054 0.400586 102.000000
3.042511 -0.289208 0.400348 90.000000
3.040621 -0.298445 0.400229 80.000000
3.035739 -0.307373 0.399753 101.000000
3.032807 -0.316480 0.399516 93.000000
3.030834 -0.325677 0.399397 89.000000
3.027847 -0.334757 0.399159 104.000000
3.027792 -0.344156 0.399278 153.000000
3.029681 -0.353788 0.399634 159.000000
3.030553 -0.363317 0.399872 184.000000
3.029425 -0.372613 0.399872 218.000000
3.030237 -0.382153 0.400110 238.000000
3.030035 -0.391575 0.400229 224.000000
3.025867 -0.400479 0.399872 255.000000
3.021672 -0.409362 0.399516 242.000000
3.018435 -0.418358 0.399278 235.000000
3.017137 -0.427617 0.399278 284.000000
3.014828 -0.436729 0.399159 272.000000
3.013474 -0.445976 0.399159 245.000000
3.015037 -0.455664 0.399516 261.000000
3.014606 -0.465062 0.399634 246.000000
3.018070 -0.475079 0.400229 224.000000
3.017578 -0.484493 0.400348 215.000000
3.018038 -0.494069 0.400586 220.000000
3.016508 -0.503326 0.400586 194.000000
3.012012 -0.512080 0.400229 164.000000
3.015319 -0.522163 0.400824 196.000000
3.000013 -0.529003 0.399159 107.000000
3.003263 -0.539079 0.399753 91.000000
2.999641 -0.547935 0.399516 75.000000
2.995993 -0.556773 0.399278 59.000000
2.994271 -0.565962 0.399278 45.000000
2.989595 -0.574584 0.398921 43.000000
3.002437 -0.586604 0.400705 22.000000
2.985039 -0.592724 0.398802 44.000000
3.011435 -0.607563 0.402251 21.000000
3.030957 -0.621177 0.404867 9.000000
3.076376 0.010694 0.364884 16.000000
3.080371 0.001257 0.365311 51.000000
3.083344 -0.008202 0.365631 47.000000
3.085293 -0.017673 0.365845 29.000000
3.080253 -0.027094 0.365311 43.000000
3.084132 -0.036592 0.365738 42.000000
3.085000 -0.046068 0.365845 42.000000
3.082855 -0.055497 0.365631 46.000000
3.078694 -0.064870 0.365204 61.000000
3.076493 -0.074267 0.364991 53.000000
3.076251 -0.083705 0.364991 36.000000
3.073992 -0.093082 0.364777 56.000000
3.070710 -0.102413 0.364457 66.000000
3.068394 -0.111761 0.364243 54.000000
3.071018 -0.121292 0.364564 45.000000
3.071624 -0.130755 0.364670 48.000000
3.074189 -0.140315 0.364991 55.000000
3.070765 -0.149600 0.364670 50.000000
3.069298 -0.158969 0.364564 66.000000
3.069788 -0.168439 0.364670 69.000000
3.070250 -0.177914 0.364777 58.000000
3.064728 -0.187029 0.364243 58.000000
3.065132 -0.196494 0.364350 63.000000
3.065506 -0.205964 0.364457 56.000000
3.061885 -0.215158 0.364136 77.000000
3.062201 -0.224624 0.364243 75.000000
3.060507 -0.233942 0.364136 57.000000
3.053828 -0.242856 0.363496 80.000000
3.053068 -0.252224 0.363496 78.000000
3.048318 -0.261250 0.363069 88.000000
3.044531 -0.270336 0.362748 91.000000
3.038945 -0.298054 0.362428 86.000000
3.040984 -0.307677 0.362748 104.000000
3.040026 -0.317005 0.362748 120.000000
3.042993 -0.326755 0.363175 136.000000
3.049882 -0.336964 0.364030 197.000000
3.047846 -0.346207 0.363923 206.000000
3.046770 -0.355556 0.363923 241.000000
3.045665 -0.364902 0.363923 247.000000
3.044531 -0.374244 0.363923 214.000000
3.042382 -0.383458 0.363816 227.000000
3.040205 -0.392663 0.363709 225.000000
3.037015 -0.401727 0.363496 227.000000
3.050547 -0.413046 0.365098 162.000000
3.030553 -0.419808 0.363069 234.000000
3.032204 -0.429523 0.363389 222.000000
3.030872 -0.438823 0.363389 235.000000
3.030495 -0.448266 0.363496 245.000000
3.034021 -0.458304 0.364030 246.000000
3.035549 -0.468065 0.364350 176.000000
3.034098 -0.477376 0.364350 222.000000
3.032620 -0.486682 0.364350 236.000000
3.030131 -0.495823 0.364243 233.000000
3.026634 -0.504790 0.364030 238.000000
3.024091 -0.513906 0.363923 244.000000
3.021521 -0.523012 0.363816 239.000000
3.018923 -0.532106 0.363709 184.000000
3.015318 -0.541014 0.363496 130.000000
3.006798 -0.549012 0.362748 101.000000
3.009010 -0.558961 0.363175 67.000000
3.012165 -0.569113 0.363709 245.000000
2.993807 -0.575161 0.361894 137.000000
3.007641 -0.587394 0.363603 80.000000
3.006800 -0.596812 0.363709 58.000000
3.002031 -0.605444 0.363389 46.000000
3.002107 -0.615051 0.363603 52.000000
2.977818 -0.619597 0.361147 15.000000
2.974930 -0.628524 0.361040 6.000000
3.082020 -0.008946 0.328728 39.000000
3.083969 -0.018413 0.328918 46.000000
3.080911 -0.027848 0.328633 49.000000
3.079816 -0.037288 0.328538 55.000000
3.078692 -0.046722 0.328443 51.000000
3.076543 -0.056132 0.328253 56.000000
3.070385 -0.065445 0.327683 51.000000
3.063203 -0.074697 0.327018 49.000000
3.064950 -0.084149 0.327208 60.000000
3.062687 -0.093491 0.327018 68.000000
3.063381 -0.102920 0.327113 48.000000
3.064045 -0.112354 0.327208 64.000000
3.065676 -0.121832 0.327398 56.000000
3.071255 -0.131490 0.327968 43.000000
3.073821 -0.141048 0.328253 52.000000
3.070391 -0.150333 0.327968 58.000000
3.067927 -0.159649 0.327778 64.000000
3.066428 -0.169006 0.327683 66.000000
3.060926 -0.178126 0.327208 63.000000
3.060366 -0.187516 0.327208 59.000000
3.059776 -0.196904 0.327208 56.000000
3.057171 -0.206157 0.327018 67.000000
3.060496 -0.215814 0.327398 51.000000
3.062798 -0.225421 0.327683 56.000000
3.060107 -0.234665 0.327493 59.000000
3.061357 -0.244209 0.327683 67.000000
3.057617 -0.253355 0.327398 83.000000
3.053850 -0.262480 0.327113 90.000000
3.052039 -0.271760 0.327018 72.000000
3.048217 -0.280849 0.326733 93.000000
3.045359 -0.290011 0.326543 85.000000
3.043464 -0.299256 0.326448 82.000000
3.040551 -0.308392 0.326258 105.000000
3.040581 -0.317822 0.326353 123.000000
3.045530 -0.327785 0.326923 165.000000
3.047478 -0.337455 0.327208 208.000000
3.045440 -0.346691 0.327113 220.000000
3.044361 -0.356032 0.327113 239.000000
3.041278 -0.365134 0.326923 240.000000
3.037179 -0.374099 0.326638 185.000000
3.036017 -0.383415 0.326638 190.000000
3.035814 -0.392855 0.326733 224.000000
3.036568 -0.402428 0.326923 220.000000
3.035319 -0.411742 0.326923 322.000000
3.027139 -0.420097 0.326258 783.000000
3.028793 -0.429801 0.326543 808.000000
3.061943 -0.444079 0.329868 1483.000000
3.056628 -0.452888 0.329488 1357.000000
3.035537 -0.459293 0.327588 877.000000
3.037065 -0.469058 0.327873 540.000000
3.033645 -0.478064 0.327683 321.000000
3.030198 -0.487054 0.327493 284.000000
3.019848 -0.494903 0.326638 201.000000
3.019297 -0.504329 0.326733 209.000000
3.016754 -0.513423 0.326638 237.000000
3.015165 -0.522676 0.326638 234.000000
3.020410 -0.533132 0.327303 209.000000
3.017780 -0.542220 0.327208 124.000000
3.007288 -0.549868 0.326353 94.000000
3.010481 -0.560000 0.326828 56.000000
3.005815 -0.568680 0.326543 47.000000
2.998190 -0.576773 0.325973 63.000000
2.996406 -0.585968 0.325973 52.000000
2.996547 -0.595546 0.326163 50.000000
2.991778 -0.604146 0.325878 37.000000
2.994787 -0.614320 0.326353 25.000000
2.985091 -0.621884 0.325594 35.000000
2.976351 -0.629600 0.324929 21.000000
3.115352 -0.017849 0.292648 12.000000
3.089372 -0.027175 0.290504 51.000000
3.090271 -0.036665 0.290586 56.000000
3.089147 -0.046131 0.290504 23.000000
3.087995 -0.055590 0.290421 41.000000
3.085817 -0.065021 0.290256 46.000000
3.078629 -0.074319 0.289679 60.000000
3.077390 -0.083736 0.289597 69.000000
3.075126 -0.093117 0.289432 56.000000
3.070842 -0.102417 0.289102 54.000000
3.068521 -0.111765 0.288937 46.000000
3.068164 -0.121179 0.288937 65.000000
3.068774 -0.130634 0.289019 59.000000
3.069354 -0.140094 0.289102 58.000000
3.068910 -0.149510 0.289102 67.000000
3.067441 -0.158872 0.289019 64.000000
3.067935 -0.168337 0.289102 64.000000
3.064419 -0.177575 0.288854 59.000000
3.061871 -0.186854 0.288690 57.000000
3.061283 -0.196247 0.288690 59.000000
3.062655 -0.205772 0.288854 41.000000
3.062009 -0.215167 0.288854 79.000000
3.067298 -0.224998 0.289349 61.000000
3.065600 -0.234332 0.289267 75.000000
3.065860 -0.243815 0.289349 71.000000
3.065097 -0.253220 0.289349 89.000000
3.062320 -0.262451 0.289184 80.000000
3.057530 -0.271492 0.288854 96.000000
3.054902 -0.299622 0.288854 115.000000
3.053968 -0.308992 0.288854 101.000000
3.055979 -0.318671 0.289102 97.000000
3.056969 -0.328258 0.289267 132.000000
3.057929 -0.337854 0.289432 181.000000
3.055888 -0.347122 0.289349 211.000000
3.053818 -0.356380 0.289267 264.000000
3.050731 -0.365510 0.289102 281.000000
3.049596 -0.374867 0.289102 247.000000
3.048431 -0.384222 0.289102 252.000000
3.050204 -0.393956 0.289349 204.000000
3.048980 -0.403312 0.289349 221.000000
3.048716 -0.412798 0.289432 218.000000
3.048423 -0.422286 0.289514 233.000000
3.046126 -0.431497 0.289432 266.000000
3.043802 -0.440697 0.289349 210.000000
3.042435 -0.450033 0.289349 220.000000
3.041040 -0.459365 0.289349 240.000000
3.039617 -0.468693 0.289349 231.000000
3.039149 -0.478171 0.289432 218.000000
3.035700 -0.487177 0.289267 184.000000
3.037141 -0.496971 0.289514 217.000000
3.035602 -0.506286 0.289514 258.000000
3.032070 -0.515263 0.289349 233.000000
3.030475 -0.524563 0.289349 225.000000
3.029832 -0.534031 0.289432 207.000000
3.029160 -0.543500 0.289514 159.000000
3.022577 -0.551895 0.289102 88.000000
3.021850 -0.561348 0.289184 85.000000
3.013258 -0.569320 0.288607 51.000000
3.013455 -0.578938 0.288772 61.000000
3.010687 -0.587989 0.288690 59.000000
3.005936 -0.596641 0.288442 58.000000
3.006045 -0.606254 0.288607 49.000000
3.004171 -0.615474 0.288607 41.000000
3.003244 -0.624891 0.288690 35.000000
2.997413 -0.633277 0.288360 52.000000
3.005200 -0.644561 0.289184 32.000000
2.988602 -0.650596 0.287947 12.000000
2.980753 -0.658472 0.287453 7.000000
2.986499 -0.669358 0.288112 8.000000
3.090021 -0.038481 0.253866 25.000000
3.091883 -0.047991 0.254007 39.000000
3.086735 -0.057386 0.253654 42.000000
3.086544 -0.066856 0.253654 48.000000
3.081338 -0.076203 0.253301 53.000000
3.078099 -0.085574 0.253089 55.000000
3.075827 -0.094957 0.252948 66.000000
3.073528 -0.104326 0.252807 62.000000
3.073193 -0.113755 0.252807 47.000000
3.075820 -0.123301 0.253019 58.000000
3.071441 -0.132567 0.252736 45.000000
3.074009 -0.142126 0.252948 46.000000
3.074555 -0.151605 0.253019 57.000000
3.073079 -0.160985 0.252948 48.000000
3.074563 -0.170522 0.253089 58.000000
3.073029 -0.179896 0.253019 56.000000
3.070472 -0.189201 0.252877 50.000000
3.068881 -0.198557 0.252807 53.000000
3.067262 -0.207904 0.252736 54.000000
3.063625 -0.217103 0.252524 63.000000
3.061950 -0.226427 0.252454 63.000000
3.059251 -0.235668 0.252312 66.000000
3.055531 -0.244815 0.252100 57.000000
3.059736 -0.254599 0.252454 65.000000
3.060928 -0.264156 0.252595 63.000000
3.060103 -0.273546 0.252595 57.000000
3.063223 -0.283299 0.252877 74.000000
3.060353 -0.292506 0.252736 91.000000
3.057456 -0.301698 0.252595 82.000000
3.056516 -0.311077 0.252595 91.000000
3.051579 -0.320038 0.252312 94.000000
3.048599 -0.329185 0.252171 103.000000
3.046583 -0.338427 0.252100 109.000000
3.043549 -0.347547 0.251959 130.000000
3.045440 -0.357230 0.252171 137.000000
3.044330 -0.366572 0.252171 151.000000
3.045171 -0.376154 0.252312 182.000000
3.044003 -0.385494 0.252312 194.000000
3.043795 -0.394959 0.252383 188.000000
3.043558 -0.404427 0.252454 204.000000
3.041314 -0.413628 0.252383 214.000000
3.034103 -0.422135 0.251959 309.000000
3.042669 -0.432842 0.252665 202.000000
3.038366 -0.441746 0.252454 287.000000
3.039957 -0.451504 0.252665 278.000000
3.039543 -0.460977 0.252736 245.000000
3.039100 -0.470452 0.252807 245.000000
3.034687 -0.479308 0.252595 225.000000
3.033202 -0.488616 0.252595 149.000000
3.031689 -0.497920 0.252595 176.000000
3.027195 -0.506725 0.252383 157.000000
3.030543 -0.516847 0.252736 113.000000
3.025012 -0.525461 0.252454 80.000000
3.023385 -0.534739 0.252454 57.000000
3.022712 -0.544188 0.252524 76.000000
3.017104 -0.552742 0.252242 64.000000
3.018336 -0.562543 0.252454 51.000000
3.017576 -0.571986 0.252524 42.000000
3.011889 -0.580487 0.252242 38.000000
3.010094 -0.589725 0.252242 48.000000
3.009248 -0.599151 0.252312 65.000000
3.005441 -0.607986 0.252171 55.000000
3.001607 -0.616803 0.252030 37.000000
3.001653 -0.626415 0.252171 54.000000
2.998742 -0.635415 0.252100 36.000000
3.000679 -0.645450 0.252383 39.000000
2.999659 -0.654865 0.252454 27.000000
2.992766 -0.662988 0.252100 11.000000
3.516818 -0.042390 0.239901 21.000000
3.317032 -0.050138 0.228284 23.000000
3.122225 -0.056753 0.216957 50.000000
3.114051 -0.066161 0.216493 48.000000
3.119822 -0.075861 0.216841 34.000000
3.099616 -0.084883 0.215679 54.000000
3.086369 -0.093995 0.214924 50.000000
3.085068 -0.103430 0.214866 288.000000
3.087729 -0.113004 0.215040 87.000000
3.090360 -0.122596 0.215215 82.000000
3.086977 -0.131948 0.215040 40.000000
3.084564 -0.141326 0.214924 48.000000
3.084116 -0.150789 0.214924 50.000000
3.083638 -0.160250 0.214924 63.000000
3.082135 -0.169655 0.214866 63.000000
3.079607 -0.178994 0.214750 69.000000
3.077051 -0.188319 0.214634 60.000000
3.075462 -0.197694 0.214576 51.000000
3.072849 -0.206994 0.214460 64.000000
3.063237 -0.215788 0.213937 100.000000
3.067539 -0.225552 0.214227 81.000000
3.066832 -0.234962 0.214227 52.000000
3.065102 -0.244290 0.214169 55.000000
3.065333 -0.253775 0.214227 67.000000
3.065707 -0.272756 0.214343 80.000000
3.060086 -0.300667 0.214169 96.000000
3.062129 -0.310356 0.214343 110.000000
3.063148 -0.319957 0.214460 98.000000
3.060167 -0.329139 0.214343 73.000000
3.059143 -0.338526 0.214343 71.000000
3.058090 -0.347910 0.214343 70.000000
3.056016 -0.357174 0.214285 84.000000
3.054906 -0.366548 0.214285 72.000000
3.054758 -0.376041 0.214343 84.000000
3.053590 -0.385411 0.214343 74.000000
3.052393 -0.394778 0.214343 89.000000
3.051168 -0.404140 0.214343 86.000000
3.049914 -0.413499 0.214343 80.000000
3.043686 -0.422168 0.214053 74.000000
3.041389 -0.431364 0.213995 100.000000
3.037087 -0.440262 0.213821 91.000000
3.035722 -0.449578 0.213821 106.000000
3.032354 -0.458591 0.213704 96.000000
3.028960 -0.467587 0.213588 93.000000
3.029483 -0.477188 0.213704 75.000000
3.031948 -0.487114 0.213937 75.000000
3.034379 -0.497060 0.214169 76.000000
3.035794 -0.506860 0.214343 66.000000
3.033241 -0.516004 0.214285 56.000000
3.033611 -0.525649 0.214401 65.000000
3.029034 -0.534432 0.214227 53.000000
3.030328 -0.544253 0.214401 58.000000
3.028644 -0.553547 0.214401 71.000000
3.025950 -0.562653 0.214343 61.000000
3.022248 -0.571563 0.214227 65.000000
3.018520 -0.580455 0.214111 53.000000
3.016725 -0.589713 0.214111 47.000000
3.014901 -0.598966 0.214111 55.000000
3.009135 -0.607422 0.213879 66.000000
3.011169 -0.617453 0.214111 44.000000
3.004374 -0.625670 0.213821 51.000000
3.007324 -0.635918 0.214111 47.000000
3.009263 -0.645980 0.214343 50.000000
3.006292 -0.654996 0.214285 28.000000
3.005243 -0.664432 0.214343 48.000000
3.008061 -0.674742 0.214634 54.000000
3.507941 -0.044138 0.197826 16.000000
3.467836 -0.054288 0.195976 23.000000
3.472647 -0.065018 0.196207 17.000000
3.211771 -0.070079 0.184140 29.000000
3.150624 -0.078438 0.181320 42.000000
3.123408 -0.087360 0.180071 48.000000
3.104154 -0.096360 0.179193 56.000000
3.100849 -0.105782 0.179054 44.000000
3.089529 -0.114890 0.178546 74.000000
3.080179 -0.124010 0.178130 107.000000
3.079784 -0.133459 0.178130 59.000000
3.080358 -0.142953 0.178176 51.000000
3.074916 -0.152158 0.177945 53.000000
3.068449 -0.161279 0.177667 38.000000
3.070932 -0.170857 0.177806 59.000000
3.069396 -0.180220 0.177760 72.000000
3.069826 -0.189697 0.177806 61.000000
3.070226 -0.199179 0.177852 56.000000
3.070597 -0.208664 0.177898 61.000000
3.063964 -0.217661 0.177621 59.000000
3.068263 -0.227428 0.177852 67.000000
3.067551 -0.236840 0.177852 64.000000
3.062827 -0.245932 0.177667 51.000000
3.063054 -0.255410 0.177714 62.000000
3.063251 -0.264891 0.177760 56.000000
3.061429 -0.274199 0.177714 54.000000
3.061568 -0.283682 0.177760 46.000000
3.059689 -0.292979 0.177714 42.000000
3.049828 -0.301483 0.177297 63.000000
3.044914 -0.310435 0.177112 54.000000
3.039973 -0.319359 0.176928 69.000000
3.038979 -0.328684 0.176928 52.000000
3.041928 -0.338446 0.177112 61.000000
3.042860 -0.348004 0.177205 54.000000
3.046739 -0.357918 0.177436 64.000000
3.045626 -0.367264 0.177436 63.000000
3.050434 -0.377339 0.177714 76.000000
3.052235 -0.387072 0.177852 61.000000
3.051033 -0.396435 0.177852 52.000000
3.050793 -0.405924 0.177898 60.000000
3.050523 -0.415417 0.177945 66.000000
3.050223 -0.424911 0.177991 50.000000
3.048905 -0.434267 0.177991 57.000000
3.035890 -0.460964 0.177575 51.000000
3.032487 -0.469970 0.177482 69.000000
3.028071 -0.478805 0.177344 54.000000
3.023629 -0.487616 0.177205 75.000000
3.027048 -0.497699 0.177436 50.000000
3.022551 -0.506489 0.177297 60.000000
3.021968 -0.515928 0.177344 55.000000
3.022339 -0.525538 0.177436 43.000000
3.020712 -0.534808 0.177436 58.000000
3.019057 -0.544073 0.177436 57.000000
3.023270 -0.554412 0.177714 39.000000
3.021554 -0.563684 0.177714 56.000000
3.020793 -0.573137 0.177760 51.000000
3.023924 -0.583347 0.177991 54.000000
3.020160 -0.592237 0.177898 48.000000
3.016369 -0.601111 0.177806 52.000000
3.018428 -0.611153 0.177991 61.000000
3.013602 -0.619808 0.177852 60.000000
3.006797 -0.628032 0.177621 60.000000
3.004856 -0.637253 0.177621 75.000000
3.003864 -0.646679 0.177667 38.000000
3.002842 -0.656105 0.177714 48.000000
3.000815 -0.665314 0.177714 44.000000
2.996810 -0.674080 0.177621 26.000000
2.994728 -0.683271 0.177621 36.000000
2.970232 -0.687284 0.176558 16.000000
2.961301 -0.694799 0.176234 8.000000
3.536711 -0.043247 0.155450 21.000000
3.503585 -0.053589 0.154333 24.000000
3.455440 -0.063451 0.152708 30.000000
3.423254 -0.073363 0.151625 24.000000
3.342084 -0.081873 0.148883 23.000000
3.177974 -0.087591 0.143331 36.000000
3.133737 -0.095988 0.141842 45.000000
3.103462 -0.104588 0.140826 53.000000
3.098132 -0.113925 0.140657 47.000000
3.093774 -0.123270 0.140521 51.000000
3.091384 -0.132675 0.140454 74.000000
3.098949 -0.142527 0.140724 58.000000
3.089513 -0.151591 0.140420 62.000000
3.089034 -0.161069 0.140420 47.000000
3.087527 -0.170490 0.140386 48.000000
3.082001 -0.179670 0.140217 62.000000
3.081435 -0.189125 0.140217 58.000000
3.074857 -0.198191 0.140013 48.000000
3.071243 -0.207421 0.139912 54.000000
3.073582 -0.217055 0.140013 53.000000
3.073899 -0.226557 0.140047 63.000000
3.071197 -0.235833 0.139980 65.000000
3.068466 -0.245095 0.139912 57.000000
3.070688 -0.254756 0.140013 64.000000
3.066080 -0.273326 0.139912 56.000000
3.059512 -0.310627 0.139810 66.000000
3.055563 -0.319700 0.139709 56.000000
3.054568 -0.329073 0.139709 62.000000
3.056524 -0.338773 0.139810 53.000000
3.060435 -0.348715 0.139980 59.000000
3.053395 -0.357405 0.139776 57.000000
3.053277 -0.366890 0.139810 61.000000
3.048169 -0.375766 0.139675 56.000000
3.046010 -0.384991 0.139641 62.000000
3.048779 -0.394848 0.139776 58.000000
3.043591 -0.403674 0.139641 66.000000
3.044318 -0.413278 0.139709 53.000000
3.045016 -0.422891 0.139776 45.000000
3.047662 -0.432794 0.139912 58.000000
3.052254 -0.443004 0.140115 55.000000
3.047915 -0.451926 0.140013 68.000000
3.046514 -0.461275 0.140013 55.000000
3.039158 -0.469703 0.139810 44.000000
3.038690 -0.479180 0.139844 63.000000
3.045100 -0.489771 0.140115 55.000000
3.041610 -0.498787 0.140047 57.000000
3.039080 -0.507952 0.140013 60.000000
3.036522 -0.517105 0.139980 47.000000
3.038860 -0.527102 0.140115 49.000000
3.040181 -0.536945 0.140217 52.000000
3.038520 -0.546270 0.140217 59.000000
3.030931 -0.554509 0.140013 60.000000
3.026268 -0.563256 0.139912 46.000000
3.024525 -0.572538 0.139912 52.000000
3.028643 -0.582949 0.140115 40.000000
3.020956 -0.591085 0.139912 64.000000
3.018148 -0.600156 0.139878 39.000000
3.014333 -0.609016 0.139810 41.000000
3.012450 -0.618261 0.139810 51.000000
3.013475 -0.628113 0.139912 38.000000
3.012511 -0.637562 0.139946 44.000000
3.007610 -0.646171 0.139844 53.000000
3.005613 -0.655395 0.139844 53.000000
3.006516 -0.665261 0.139946 39.000000
3.007386 -0.675139 0.140047 45.000000
3.007249 -0.684807 0.140115 38.000000
3.009029 -0.694930 0.140250 34.000000
3.000072 -0.702562 0.140013 26.000000
2.981372 -0.707836 0.139438 6.000000
3.549063 -0.021629 0.112661 10.000000
3.533984 -0.032385 0.112337 15.000000
3.524871 -0.043120 0.112142 20.000000
3.521724 -0.053889 0.112077 18.000000
3.512545 -0.064531 0.111882 18.000000
3.480345 -0.074632 0.111190 34.000000
3.445118 -0.084463 0.110432 28.000000
3.412862 -0.094161 0.109740 31.000000
3.173723 -0.097390 0.104568 35.000000
3.120451 -0.105358 0.103421 55.000000
3.113120 -0.114676 0.103269 33.000000
3.091774 -0.123397 0.102815 44.000000
3.083390 -0.132542 0.102642 31.000000
3.082969 -0.142001 0.102642 41.000000
3.083518 -0.151507 0.102663 55.000000
3.081042 -0.160863 0.102620 52.000000
3.084527 -0.170534 0.102707 56.000000
3.083989 -0.179996 0.102707 64.000000
3.083422 -0.189457 0.102707 48.000000
3.081829 -0.198852 0.102685 50.000000
3.081204 -0.208306 0.102685 48.000000
3.080551 -0.217758 0.102685 47.000000
3.078871 -0.227135 0.102663 54.000000
3.081150 -0.236808 0.102728 43.000000
3.075426 -0.245864 0.102620 52.000000
3.074657 -0.255298 0.102620 51.000000
3.073859 -0.264729 0.102620 35.000000
3.062079 -0.273186 0.102382 52.000000
3.055253 -0.282029 0.102252 44.000000
3.052382 -0.291212 0.102209 65.000000
3.047494 -0.300185 0.102122 45.000000
3.047554 -0.309634 0.102144 49.000000
3.049573 -0.319293 0.102209 42.000000
3.046591 -0.328434 0.102166 42.000000
3.049544 -0.338219 0.102252 39.000000
3.056439 -0.348476 0.102425 77.000000
3.050390 -0.357272 0.102317 55.000000
3.051265 -0.366867 0.102361 54.000000
3.050125 -0.376226 0.102361 48.000000
3.043997 -0.384957 0.102252 60.000000
3.045776 -0.394678 0.102317 33.000000
3.042569 -0.403758 0.102274 45.000000
3.040325 -0.412957 0.102252 42.000000
3.042014 -0.422694 0.102317 51.000000
3.037734 -0.431604 0.102252 51.000000
3.039564 -0.460440 0.102382 42.000000
3.036161 -0.469459 0.102339 51.000000
3.032731 -0.478460 0.102296 56.000000
3.037172 -0.488713 0.102425 47.000000
3.034672 -0.497867 0.102404 39.000000
3.038061 -0.507998 0.102512 37.000000
3.040430 -0.517986 0.102599 37.000000
3.036856 -0.526970 0.102555 48.000000
3.037195 -0.536632 0.102599 47.000000
3.033566 -0.545594 0.102555 42.000000
3.028927 -0.554360 0.102490 54.000000
3.028195 -0.563832 0.102512 51.000000
3.016628 -0.571264 0.102296 45.000000
3.015842 -0.580705 0.102317 57.000000
3.015028 -0.590146 0.102339 44.000000
3.011242 -0.599004 0.102296 44.000000
3.014290 -0.609228 0.102404 38.000000
3.013386 -0.618673 0.102425 53.000000
3.011474 -0.627915 0.102425 44.000000
3.015402 -0.638392 0.102555 43.000000
3.012452 -0.647430 0.102534 51.000000
3.011429 -0.656882 0.102555 41.000000
3.009399 -0.666118 0.102555 36.000000
3.012219 -0.676441 0.102663 35.000000
3.014029 -0.686566 0.102750 39.000000
3.014831 -0.696483 0.102815 29.000000
3.011707 -0.705502 0.102793 36.000000
3.023147 -0.717967 0.103096 24.000000
3.532691 -0.032972 0.068714 22.000000
3.540572 -0.043910 0.068788 19.000000
3.517425 -0.054413 0.068576 30.000000
3.497245 -0.064832 0.068391 40.000000
3.472037 -0.075018 0.068159 63.000000
3.468791 -0.085595 0.068132 53.000000
3.445523 -0.095596 0.067919 51.000000
3.446213 -0.106198 0.067928 71.000000
3.330941 -0.112862 0.066864 42.000000
3.161703 -0.116820 0.065301 48.000000
3.125360 -0.125076 0.064968 44.000000
3.112973 -0.134145 0.064857 32.000000
3.097564 -0.143002 0.064718 48.000000
3.095113 -0.152406 0.064700 42.000000
3.095630 -0.161953 0.064709 54.000000
3.096117 -0.171505 0.064718 68.000000
3.093580 -0.180886 0.064700 42.000000
3.095006 -0.190499 0.064718 57.000000
3.091413 -0.199800 0.064691 61.000000
3.089788 -0.209215 0.064681 56.000000
3.086140 -0.218481 0.064654 51.000000
3.082463 -0.227727 0.064626 71.000000
3.080753 -0.237106 0.064617 66.000000
3.079014 -0.246477 0.064607 54.000000
3.078243 -0.255922 0.064607 55.000000
3.066655 -0.273914 0.064515 57.000000
3.059084 -0.311121 0.064478 75.000000
3.062093 -0.320922 0.064515 61.000000
3.064077 -0.330637 0.064543 58.000000
3.066029 -0.340367 0.064570 39.000000
3.065964 -0.349885 0.064580 51.000000
3.067856 -0.359640 0.064607 63.000000
3.066738 -0.369050 0.064607 50.000000
3.067576 -0.378702 0.064626 64.000000
3.062432 -0.387609 0.064589 55.000000
3.064203 -0.397389 0.064617 40.000000
3.063961 -0.406919 0.064626 55.000000
3.064679 -0.416587 0.064644 51.000000
3.062397 -0.425850 0.064635 45.000000
3.057116 -0.434679 0.064598 53.000000
3.056757 -0.444200 0.064607 48.000000
3.052413 -0.453135 0.064580 52.000000
3.051008 -0.462498 0.064580 44.000000
3.042658 -0.470785 0.064515 48.000000
3.035273 -0.479181 0.064459 45.000000
3.033788 -0.488491 0.064459 54.000000
3.034249 -0.498120 0.064478 69.000000
3.035665 -0.507922 0.064506 54.000000
3.039021 -0.518074 0.064552 60.000000
3.044314 -0.528594 0.064617 38.000000
3.042678 -0.537931 0.064617 61.000000
3.041013 -0.547263 0.064617 61.000000
3.041287 -0.556951 0.064635 63.000000
3.036615 -0.565729 0.064607 61.000000
3.031917 -0.574484 0.064580 58.000000
3.030141 -0.583783 0.064580 46.000000
3.027354 -0.592884 0.064570 67.000000
3.024541 -0.601974 0.064561 49.000000
3.024640 -0.611647 0.064580 46.000000
3.021769 -0.620722 0.064570 49.000000
3.020830 -0.630194 0.064580 68.000000
3.023773 -0.640495 0.064626 66.000000
3.020816 -0.649559 0.064617 55.000000
3.023694 -0.659890 0.064663 38.000000
3.021655 -0.669164 0.064663 60.000000
3.018612 -0.678212 0.064654 46.000000
3.020417 -0.688359 0.064691 44.000000
3.014394 -0.696721 0.064654 48.000000
3.012242 -0.705965 0.064654 40.000000
3.011035 -0.715435 0.064663 36.000000
3.004938 -0.723732 0.064626 41.000000
3.025045 -0.738404 0.064839 29.000000
3.537921 -0.010711 0.024500 17.000000
3.528872 -0.021513 0.024530 19.000000
3.521790 -0.032277 0.024553 24.000000
3.525674 -0.043130 0.024540 17.000000
3.501528 -0.053587 0.024619 35.000000
3.496348 -0.064239 0.024636 29.000000
3.470140 -0.074417 0.024722 63.000000
3.461898 -0.084869 0.024749 75.000000
3.454623 -0.095299 0.024772 60.000000
3.448318 -0.105715 0.024792 60.000000
3.415995 -0.115226 0.024898 53.000000
3.379650 -0.124394 0.025017 46.000000
3.206388 -0.127928 0.025591 49.000000
3.155027 -0.135594 0.025760 42.000000
3.127625 -0.144041 0.025850 46.000000
3.112186 -0.152905 0.025899 42.000000
3.097721 -0.161728 0.025946 54.000000
3.097210 -0.171230 0.025946 46.000000
3.090680 -0.180384 0.025966 52.000000
3.086120 -0.189622 0.025979 42.000000
3.086522 -0.199153 0.025976 42.000000
3.085896 -0.208621 0.025976 37.000000
3.083247 -0.217948 0.025982 37.000000
3.084558 -0.227552 0.025976 59.000000
3.087834 -0.237319 0.025962 42.000000
3.089085 -0.246950 0.025956 52.000000
3.089309 -0.256509 0.025952 45.000000
3.086515 -0.265815 0.025959 37.000000
3.082697 -0.275017 0.025969 53.000000
3.081838 -0.284473 0.025969 41.000000
3.082942 -0.294116 0.025962 49.000000
3.076054 -0.302987 0.025982 46.000000
3.071131 -0.312020 0.025996 45.000000
3.071153 -0.321545 0.025992 44.000000
3.072141 -0.331179 0.025986 40.000000
3.064153 -0.339834 0.026009 48.000000
3.062102 -0.349120 0.026012 46.000000
3.059030 -0.358281 0.026019 59.000000
3.056924 -0.367545 0.026022 56.000000
3.060745 -0.377532 0.026006 53.000000
3.059572 -0.386920 0.026006 49.000000
3.060354 -0.396561 0.025999 50.000000
3.062097 -0.406342 0.025989 48.000000
3.064800 -0.416271 0.025976 46.000000
3.061527 -0.425398 0.025982 51.000000
3.058227 -0.434508 0.025989 55.000000
3.048166 -0.461740 0.026009 44.000000
3.045747 -0.470937 0.026012 40.000000
3.041324 -0.479813 0.026022 52.000000
3.043787 -0.489775 0.026009 44.000000
3.043257 -0.499272 0.026006 57.000000
3.044670 -0.509100 0.025996 50.000000
3.043094 -0.518439 0.025996 43.000000
3.042474 -0.527943 0.025992 38.000000
3.042810 -0.537622 0.025986 50.000000
3.046067 -0.547838 0.025969 49.000000
3.040437 -0.556462 0.025982 45.000000
3.038716 -0.565787 0.025982 56.000000
3.033036 -0.574364 0.025996 43.000000
3.034205 -0.584233 0.025986 35.000000
3.028473 -0.592772 0.025999 50.000000
3.023697 -0.601476 0.026009 35.000000
3.020858 -0.610553 0.026012 57.000000
3.018970 -0.619817 0.026012 56.000000
3.019012 -0.629484 0.026006 47.000000
3.020002 -0.639364 0.025996 38.000000
3.017049 -0.648416 0.025999 63.000000
3.018954 -0.658520 0.025986 51.000000
3.014966 -0.667348 0.025992 55.000000
3.011929 -0.676376 0.025996 57.000000
3.008865 -0.685391 0.025999 53.000000
3.003824 -0.693945 0.026009 50.000000
3.003629 -0.703613 0.026002 37.000000
3.000483 -0.712593 0.026006 45.000000
2.997310 -0.721562 0.026009 31.000000
2.997997 -0.731464 0.025999 45.000000
2.995739 -0.740658 0.025999 31.000000
3.570557 0.000776 -0.019663 25.000000
3.558544 -0.010143 -0.019474 30.000000
3.543498 -0.020970 -0.019238 19.000000
3.537418 -0.031787 -0.019144 21.000000
3.515308 -0.042372 -0.018799 27.000000
3.501165 -0.052943 -0.018579 32.000000
3.478992 -0.063282 -0.018233 47.000000
3.462787 -0.073613 -0.017982 58.000000
3.457547 -0.084114 -0.017903 64.000000
3.449277 -0.094502 -0.017778 36.000000
3.441975 -0.104869 -0.017668 42.000000
3.430645 -0.115059 -0.017495 67.000000
3.414288 -0.124996 -0.017244 62.000000
3.371927 -0.133801 -0.016584 52.000000
3.233645 -0.138235 -0.014416 50.000000
3.171278 -0.145310 -0.013442 35.000000
3.147848 -0.153913 -0.013081 44.000000
3.123397 -0.162321 -0.012704 53.000000
3.113898 -0.171407 -0.012563 42.000000
3.104374 -0.180437 -0.012421 50.000000
3.100812 -0.189776 -0.012374 65.000000
3.095226 -0.198967 -0.012296 55.000000
3.096596 -0.208597 -0.012327 47.000000
3.096939 -0.218166 -0.012343 67.000000
3.092267 -0.227373 -0.012280 62.000000
3.094545 -0.237088 -0.012327 64.000000
3.090813 -0.246342 -0.012280 63.000000
3.089046 -0.255741 -0.012264 50.000000
3.089244 -0.265303 -0.012280 66.000000
3.082440 -0.274247 -0.012186 52.000000
3.076800 -0.302311 -0.012139 54.000000
3.077847 -0.311951 -0.012170 58.000000
3.077870 -0.321497 -0.012186 56.000000
3.075875 -0.330831 -0.012170 50.000000
3.075840 -0.340376 -0.012186 63.000000
3.073787 -0.349698 -0.012170 53.000000
3.073693 -0.359243 -0.012186 40.000000
3.072577 -0.368671 -0.012186 68.000000
3.068454 -0.377729 -0.012139 62.000000
3.065297 -0.386890 -0.012107 68.000000
3.063103 -0.396164 -0.012092 55.000000
3.057909 -0.405034 -0.012029 57.000000
3.058634 -0.414683 -0.012060 63.000000
3.056356 -0.423927 -0.012045 61.000000
3.056031 -0.433442 -0.012060 69.000000
3.053698 -0.442672 -0.012045 43.000000
3.056282 -0.452625 -0.012107 59.000000
3.056856 -0.462299 -0.012139 52.000000
3.057400 -0.471981 -0.012170 65.000000
3.054949 -0.481203 -0.012154 64.000000
3.054446 -0.490732 -0.012170 46.000000
3.049966 -0.499615 -0.012123 57.000000
3.051377 -0.509464 -0.012170 51.000000
3.046843 -0.518320 -0.012123 75.000000
3.043268 -0.527323 -0.012092 69.000000
3.044590 -0.537179 -0.012139 49.000000
3.041943 -0.546340 -0.012123 60.000000
3.041236 -0.555850 -0.012139 40.000000
3.042466 -0.565727 -0.012186 60.000000
3.038751 -0.574686 -0.012154 60.000000
3.038937 -0.584384 -0.012186 72.000000
3.039093 -0.594089 -0.012217 63.000000
3.037256 -0.603410 -0.012217 52.000000
3.034410 -0.612527 -0.012202 47.000000
3.034476 -0.622235 -0.012233 58.000000
3.028637 -0.630726 -0.012170 61.000000
3.024731 -0.639601 -0.012139 69.000000
3.022755 -0.648878 -0.012139 63.000000
3.017819 -0.657510 -0.012092 58.000000
3.012859 -0.666117 -0.012045 40.000000
3.015679 -0.676452 -0.012123 59.000000
3.011639 -0.685257 -0.012092 58.000000
3.009523 -0.694493 -0.012092 42.000000
3.009326 -0.704179 -0.012123 48.000000
3.010069 -0.714101 -0.012170 54.000000
3.009809 -0.723800 -0.012202 58.000000
3.014374 -0.734689 -0.012312 36.000000
3.558440 0.032904 -0.062161 17.000000
3.552527 0.021947 -0.061995 19.000000
3.557575 0.011065 -0.062134 15.000000
3.549596 0.000148 -0.061912 38.000000
3.543582 -0.010726 -0.061745 22.000000
3.528538 -0.021511 -0.061329 25.000000
3.512462 -0.032195 -0.060885 25.000000
3.497354 -0.042793 -0.060469 26.000000
3.485212 -0.053343 -0.060136 26.000000
3.468042 -0.063728 -0.059664 36.000000
3.459835 -0.074199 -0.059442 40.000000
3.450597 -0.084596 -0.059192 24.000000
3.449322 -0.095154 -0.059165 40.000000
3.448014 -0.105706 -0.059137 51.000000
3.444677 -0.116184 -0.059054 54.000000
3.435313 -0.126424 -0.058804 52.000000
3.420926 -0.136410 -0.058415 44.000000
3.374551 -0.144947 -0.057139 35.000000
3.318170 -0.152745 -0.055585 32.000000
3.170917 -0.155768 -0.051506 44.000000
3.133488 -0.163581 -0.050480 50.000000
3.121992 -0.172591 -0.050175 43.000000
3.100491 -0.180953 -0.049592 52.000000
3.095930 -0.190221 -0.049481 49.000000
3.090344 -0.199398 -0.049342 46.000000
3.086726 -0.208677 -0.049259 46.000000
3.090060 -0.218427 -0.049370 52.000000
3.089375 -0.227906 -0.049370 49.000000
3.085671 -0.237154 -0.049287 59.000000
3.086922 -0.246778 -0.049342 42.000000
3.084158 -0.256083 -0.049287 44.000000
3.083358 -0.265544 -0.049287 47.000000
3.079541 -0.274737 -0.049203 45.000000
3.071716 -0.283543 -0.049009 45.000000
3.071827 -0.293060 -0.049037 44.000000
3.066934 -0.302092 -0.048926 43.000000
3.065993 -0.311500 -0.048926 48.000000
3.072976 -0.321735 -0.049148 33.000000
3.068993 -0.330841 -0.049065 47.000000
3.071938 -0.340694 -0.049176 46.000000
3.076838 -0.350794 -0.049342 54.000000
3.073761 -0.360000 -0.049287 48.000000
3.074627 -0.369667 -0.049342 46.000000
3.070502 -0.378732 -0.049259 58.000000
3.065359 -0.387650 -0.049148 49.000000
3.065146 -0.397181 -0.049176 57.000000
3.058958 -0.405927 -0.049037 45.000000
3.056709 -0.415175 -0.049009 55.000000
3.053440 -0.424277 -0.048954 35.000000
3.048165 -0.433082 -0.048843 49.000000
3.043061 -0.460969 -0.048815 57.000000
3.044596 -0.470760 -0.048898 43.000000
3.047088 -0.480720 -0.049009 31.000000
3.042638 -0.489591 -0.048926 56.000000
3.042108 -0.499084 -0.048954 38.000000
3.042535 -0.508744 -0.049009 40.000000
3.039974 -0.517908 -0.048981 44.000000
3.042310 -0.527915 -0.049092 48.000000
3.040676 -0.537246 -0.049092 45.000000
3.038030 -0.546395 -0.049065 35.000000
3.039289 -0.556252 -0.049148 40.000000
3.039534 -0.565939 -0.049203 52.000000
3.040730 -0.575819 -0.049287 47.000000
3.037968 -0.584956 -0.049259 40.000000
3.035177 -0.594082 -0.049231 51.000000
3.034321 -0.603586 -0.049259 46.000000
3.031475 -0.612694 -0.049231 48.000000
3.033498 -0.622795 -0.049342 43.000000
3.031573 -0.632098 -0.049342 30.000000
3.023752 -0.640156 -0.049176 37.000000
3.030570 -0.651317 -0.049425 33.000000
3.031488 -0.661249 -0.049509 34.000000
3.022612 -0.669037 -0.049314 38.000000
3.029324 -0.680275 -0.049564 38.000000
3.026248 -0.689344 -0.049536 32.000000
3.027041 -0.699299 -0.049620 39.000000
3.032668 -0.710404 -0.049842 31.000000
3.021721 -0.717629 -0.049592 37.000000
3.015617 -0.725962 -0.049481 44.000000
3.017261 -0.736156 -0.049592 10.000000
3.591015 0.022812 -0.108043 14.000000
3.579078 0.011757 -0.107560 24.000000
3.556116 0.000774 -0.106633 27.000000
3.538116 -0.010083 -0.105907 36.000000
3.511091 -0.020775 -0.104819 46.000000
3.502018 -0.031465 -0.104456 40.000000
3.488917 -0.042051 -0.103932 54.000000
3.477782 -0.052587 -0.103489 45.000000
3.473608 -0.063183 -0.103328 49.000000
3.470401 -0.073776 -0.103207 41.000000
3.465164 -0.084300 -0.103005 54.000000
3.461892 -0.094849 -0.102884 64.000000
3.457591 -0.105347 -0.102723 67.000000
3.455254 -0.115887 -0.102642 59.000000
3.453884 -0.126450 -0.102602 56.000000
3.448487 -0.136847 -0.102400 66.000000
3.435074 -0.146870 -0.101877 62.000000
3.411649 -0.156354 -0.100949 55.000000
3.392192 -0.165890 -0.100184 63.000000
3.226027 -0.167668 -0.093493 32.000000
3.181600 -0.175142 -0.091719 54.000000
3.147132 -0.182927 -0.090349 52.000000
3.135586 -0.191909 -0.089906 36.000000
3.121023 -0.200629 -0.089341 36.000000
3.110423 -0.209530 -0.088938 43.000000
3.111759 -0.219212 -0.089019 55.000000
3.108083 -0.228538 -0.088898 63.000000
3.104378 -0.237843 -0.088777 46.000000
3.100646 -0.247127 -0.088656 54.000000
3.093899 -0.256143 -0.088414 59.000000
3.085302 -0.274502 -0.088132 43.000000
3.079662 -0.302593 -0.088011 44.000000
3.081701 -0.312342 -0.088132 36.000000
3.084703 -0.322211 -0.088293 42.000000
3.086681 -0.331994 -0.088414 54.000000
3.087634 -0.341683 -0.088495 49.000000
3.090542 -0.351606 -0.088656 45.000000
3.088456 -0.360970 -0.088616 60.000000
3.085350 -0.370205 -0.088535 65.000000
3.086183 -0.379914 -0.088616 48.000000
3.080046 -0.388754 -0.088414 57.000000
3.078840 -0.398201 -0.088414 38.000000
3.075622 -0.407383 -0.088334 45.000000
3.073368 -0.416682 -0.088293 56.000000
3.071085 -0.425972 -0.088253 45.000000
3.067786 -0.435111 -0.088172 52.000000
3.063470 -0.444090 -0.088051 51.000000
3.062093 -0.453487 -0.088051 53.000000
3.059699 -0.462730 -0.088011 61.000000
3.062215 -0.472725 -0.088172 55.000000
3.059763 -0.481962 -0.088132 51.000000
3.062217 -0.491981 -0.088293 49.000000
3.064636 -0.502020 -0.088455 33.000000
3.061111 -0.511090 -0.088374 39.000000
3.057558 -0.520144 -0.088293 33.000000
3.052995 -0.529010 -0.088172 55.000000
3.051358 -0.538374 -0.088172 47.000000
3.049691 -0.547733 -0.088172 50.000000
3.045048 -0.556547 -0.088051 47.000000
3.039397 -0.565155 -0.087890 32.000000
3.042558 -0.575406 -0.088092 36.000000
3.048628 -0.586249 -0.088414 40.000000
3.052698 -0.596750 -0.088656 40.000000
3.050853 -0.606113 -0.088656 46.000000
3.048979 -0.615470 -0.088656 35.000000
3.055886 -0.626629 -0.089019 34.000000
2.988411 -0.622344 -0.086318 15.000000
3.616872 0.032206 -0.152554 20.000000
3.610962 0.021073 -0.152240 15.000000
3.612008 0.009997 -0.152292 20.000000
3.579067 -0.001085 -0.150565 32.000000
3.561072 -0.012011 -0.149623 29.000000
3.551032 -0.022875 -0.149099 40.000000
3.530973 -0.033586 -0.148053 38.000000
3.514877 -0.044223 -0.147215 34.000000
3.506736 -0.054884 -0.146797 44.000000
3.499563 -0.065513 -0.146430 45.000000
3.498346 -0.076228 -0.146378 34.000000
3.490109 -0.086765 -0.145959 67.000000
3.489827 -0.097472 -0.145959 51.000000
3.482524 -0.107964 -0.145593 53.000000
3.477186 -0.118479 -0.145331 55.000000
3.471817 -0.128963 -0.145070 39.000000
