ply
format ascii 1.0
element vertex 1284
property float x
property float y
property float z
property float intensity
end_header
3.726743 0.519266 0.716440 32.000000
3.723444 0.507167 0.715546 49.000000
3.723032 0.495482 0.715189 33.000000
3.721607 0.483677 0.714653 38.000000
3.722097 0.472133 0.714475 33.000000
3.719623 0.460229 0.713760 53.000000
3.719064 0.448580 0.713403 30.000000
3.724331 0.437627 0.714117 52.000000
3.724679 0.426087 0.713939 40.000000
3.725968 0.414658 0.713939 43.000000
3.725266 0.403013 0.713581 36.000000
3.728442 0.391788 0.713939 42.000000
3.730606 0.380447 0.714117 39.000000
3.729797 0.368806 0.713760 35.000000
3.734828 0.357737 0.714475 30.000000
3.731990 0.345914 0.713760 35.000000
3.757533 0.336655 0.718226 28.000000
3.619981 1.159290 0.677098 29.000000
3.639498 1.153247 0.679936 46.000000
3.646781 1.143257 0.680604 41.000000
3.652155 1.132648 0.680938 31.000000
3.658440 1.122306 0.681439 44.000000
3.664697 1.111937 0.681940 38.000000
3.669979 1.101256 0.682273 43.000000
3.672396 1.089710 0.682106 41.000000
3.669100 1.076493 0.680938 40.000000
3.665757 1.063307 0.679769 36.000000
3.661420 1.049879 0.678434 34.000000
3.661778 1.037834 0.677933 44.000000
3.656401 1.024199 0.676430 31.000000
3.658576 1.012713 0.676264 41.000000
3.656911 1.000181 0.675429 34.000000
3.657107 0.988185 0.674928 47.000000
3.658216 0.976451 0.674594 42.000000
3.660242 0.964972 0.674427 48.000000
3.660322 0.952992 0.673926 50.000000
3.666094 0.942495 0.674427 52.000000
3.668968 0.931243 0.674427 51.000000
3.670851 0.919743 0.674260 47.000000
3.676527 0.909187 0.674761 64.000000
3.681215 0.898372 0.675095 45.000000
3.683954 0.887074 0.675095 48.000000
3.684739 0.875311 0.674761 57.000000
3.683568 0.863101 0.674093 40.000000
3.688120 0.852241 0.674427 64.000000
3.689755 0.840702 0.674260 45.000000
3.690393 0.828946 0.673926 43.000000
3.690994 0.817193 0.673593 46.000000
3.688668 0.804813 0.672758 54.000000
3.688228 0.792870 0.672257 47.000000
3.686785 0.780733 0.671589 44.000000
3.685302 0.768612 0.670921 71.000000
3.691506 0.758096 0.671589 59.000000
3.691882 0.746376 0.671255 68.000000
3.698022 0.735817 0.671923 51.000000
3.704132 0.725227 0.672591 51.000000
3.709244 0.714420 0.673092 49.000000
3.713356 0.703404 0.673426 41.000000
3.714527 0.691827 0.673259 42.000000
3.712753 0.679717 0.672591 35.000000
3.714821 0.668323 0.672591 39.000000
3.712970 0.656235 0.671923 51.000000
3.713023 0.644503 0.671589 45.000000
3.712067 0.632611 0.671088 55.000000
3.712046 0.620894 0.670754 62.000000
3.715879 0.609822 0.671088 75.000000
3.717733 0.598419 0.671088 71.000000
3.715656 0.586394 0.670421 65.000000
3.719386 0.575294 0.670754 67.000000
3.723083 0.564177 0.671088 64.000000
3.716019 0.551446 0.669586 88.000000
3.722572 0.540753 0.670421 57.000000
3.722261 0.529052 0.670087 66.000000
3.721914 0.517358 0.669753 76.000000
3.727391 0.506469 0.670421 54.000000
3.725995 0.494641 0.669920 62.000000
3.730428 0.483589 0.670421 71.000000
3.733851 0.472390 0.670754 83.000000
3.737239 0.461174 0.671088 72.000000
3.741573 0.450061 0.671589 72.000000
3.742937 0.438579 0.671589 67.000000
3.741326 0.426758 0.671088 78.000000
3.742617 0.415278 0.671088 77.000000
3.746814 0.404112 0.671589 70.000000
3.747056 0.392512 0.671422 74.000000
3.749223 0.381114 0.671589 92.000000
3.750375 0.369610 0.671589 63.000000
3.752473 0.358196 0.671756 64.000000
3.753555 0.346682 0.671756 65.000000
3.756564 0.335341 0.672090 44.000000
3.656953 1.159361 0.635142 38.000000
3.661435 1.148432 0.635297 42.000000
3.663054 1.136608 0.634987 36.000000
3.665580 1.125075 0.634832 40.000000
3.668068 1.113537 0.634677 41.000000
3.670521 1.101994 0.634522 46.000000
3.671991 1.090166 0.634213 42.000000
3.670578 1.077505 0.633438 40.000000
3.670071 1.065137 0.632819 45.000000
3.671422 1.053328 0.632509 43.000000
3.673687 1.041790 0.632354 29.000000
3.674963 1.029981 0.632044 37.000000
3.676201 1.018174 0.631734 36.000000
3.680260 1.007152 0.631889 53.000000
3.681426 0.995341 0.631580 45.000000
3.684462 0.984042 0.631580 35.000000
3.685553 0.972229 0.631270 40.000000
3.685650 0.960171 0.630805 48.000000
3.687622 0.948613 0.630650 42.000000
3.693388 0.938024 0.631115 38.000000
3.693373 0.925968 0.630650 47.000000
3.700032 0.915581 0.631270 47.000000
3.700905 0.903757 0.630960 42.000000
3.701739 0.891936 0.630650 38.000000
3.704458 0.880575 0.630650 41.000000
3.704257 0.868529 0.630186 49.000000
3.704016 0.856493 0.629721 55.000000
3.705663 0.844906 0.629566 42.000000
3.703418 0.832451 0.628792 40.000000
3.704990 0.820871 0.628637 34.000000
3.705561 0.809079 0.628327 46.000000
3.705128 0.797084 0.627862 42.000000
3.708522 0.785918 0.628017 49.000000
3.709949 0.774335 0.627862 32.000000
3.717146 0.763943 0.628637 37.000000
3.720440 0.752731 0.628792 42.000000
3.722732 0.741313 0.628792 51.000000
3.724989 0.729889 0.628792 43.000000
3.727211 0.718457 0.628792 40.000000
3.725515 0.706283 0.628172 37.000000
3.725721 0.694488 0.627862 36.000000
3.724919 0.682521 0.627398 42.000000
3.727968 0.671265 0.627553 45.000000
3.729037 0.659652 0.627398 42.000000
3.733963 0.648716 0.627862 51.000000
3.738858 0.637755 0.628327 50.000000
3.742745 0.626607 0.628637 44.000000
3.745625 0.615282 0.628792 42.000000
3.745544 0.603474 0.628482 53.000000
3.741523 0.591055 0.627553 56.000000
3.742342 0.579422 0.627398 60.000000
3.738242 0.567050 0.626468 55.000000
3.734101 0.554708 0.625539 48.000000
3.733830 0.542965 0.625229 49.000000
3.736456 0.531647 0.625384 46.000000
3.738070 0.520181 0.625384 47.000000
3.741606 0.508976 0.625694 53.000000
3.743149 0.497495 0.625694 48.000000
3.746618 0.486263 0.626004 51.000000
3.750052 0.475014 0.626314 56.000000
3.750511 0.463386 0.626159 42.000000
3.752896 0.451995 0.626314 48.000000
3.751322 0.440134 0.625849 51.000000
3.756581 0.429072 0.626468 39.000000
3.758861 0.417653 0.626623 45.000000
3.756196 0.405696 0.626004 61.000000
3.761353 0.394582 0.626623 45.000000
3.762546 0.383040 0.626623 54.000000
3.763703 0.371495 0.626623 41.000000
3.770726 0.360510 0.627553 42.000000
3.766896 0.348485 0.626778 37.000000
3.779755 0.337982 0.628637 25.000000
3.667265 1.162757 0.589662 36.000000
3.674592 1.152686 0.590234 35.000000
3.680002 1.141994 0.590520 46.000000
3.683488 1.130699 0.590520 43.000000
3.686939 1.119393 0.590520 49.000000
3.686565 1.106937 0.589948 41.000000
3.681406 1.093083 0.588661 41.000000
3.681893 1.080946 0.588232 34.000000
3.676638 1.067160 0.586945 32.000000
3.674188 1.054235 0.586087 43.000000
3.675500 1.042418 0.585801 41.000000
3.676775 1.030602 0.585515 38.000000
3.678012 1.018788 0.585230 48.000000
3.682075 1.007760 0.585373 39.000000
3.683239 0.995942 0.585087 44.000000
3.686277 0.984637 0.585087 45.000000
3.689281 0.973323 0.585087 65.000000
3.693207 0.962250 0.585230 43.000000
3.694225 0.950421 0.584944 44.000000
3.698082 0.939327 0.585087 50.000000
3.699987 0.927736 0.584944 57.000000
3.702816 0.916380 0.584944 57.000000
3.704648 0.904780 0.584801 58.000000
3.704520 0.892714 0.584372 54.000000
3.705316 0.880886 0.584086 52.000000
3.708002 0.869514 0.584086 58.000000
3.707759 0.857464 0.583657 57.000000
3.710372 0.846085 0.583657 72.000000
3.713916 0.834915 0.583800 57.000000
3.715494 0.823303 0.583657 72.000000
3.718002 0.811900 0.583657 58.000000
3.718541 0.800072 0.583371 49.000000
3.716137 0.787633 0.582656 60.000000
3.716598 0.775823 0.582370 52.000000
3.717991 0.764217 0.582227 54.000000
3.719349 0.752611 0.582084 46.000000
3.715816 0.740034 0.581226 32.000000
3.720983 0.729203 0.581655 44.000000
3.723202 0.717784 0.581655 48.000000
3.729277 0.707096 0.582227 43.000000
3.729482 0.695288 0.581941 47.000000
3.729651 0.683486 0.581655 41.000000
3.735626 0.672743 0.582227 54.000000
3.738647 0.661452 0.582370 53.000000
3.742609 0.650318 0.582656 53.000000
3.748489 0.639500 0.583228 75.000000
3.753362 0.628488 0.583657 57.000000
3.756249 0.617131 0.583800 61.000000
3.756171 0.605288 0.583514 54.000000
3.753122 0.592988 0.582799 51.000000
3.748077 0.580408 0.581798 65.000000
3.742991 0.567865 0.580797 52.000000
3.741779 0.555942 0.580368 60.000000
3.740529 0.544032 0.579939 68.000000
3.747079 0.533252 0.580654 56.000000
3.752619 0.522301 0.581226 65.000000
3.754203 0.510785 0.581226 62.000000
3.759676 0.499788 0.581798 57.000000
3.764137 0.488634 0.582227 73.000000
3.761691 0.476585 0.581655 51.000000
3.761171 0.464799 0.581369 68.000000
3.761596 0.453139 0.581226 60.000000
3.761003 0.441365 0.580940 53.000000
3.761356 0.429711 0.580797 57.000000
3.764624 0.418389 0.581083 53.000000
3.766874 0.406944 0.581226 65.000000
3.765152 0.395075 0.580797 70.000000
3.769300 0.383823 0.581226 66.000000
3.767505 0.371965 0.580797 67.000000
3.770599 0.360593 0.581083 68.000000
3.775629 0.349390 0.581655 58.000000
3.779641 0.338070 0.582084 36.000000
3.677208 1.165781 0.544006 37.000000
3.688335 1.156866 0.545054 42.000000
3.696601 1.147014 0.545710 43.000000
3.702946 1.136540 0.546103 47.000000
3.706415 1.125174 0.546103 59.000000
3.704153 1.112088 0.545316 47.000000
3.701844 1.099026 0.544530 46.000000
3.701394 1.086547 0.544006 38.000000
3.699950 1.073805 0.543351 40.000000
3.698462 1.061082 0.542695 49.000000
3.698838 1.048919 0.542302 68.000000
3.695356 1.035694 0.541385 38.000000
3.698516 1.024352 0.541385 54.000000
3.701642 1.013001 0.541385 43.000000
3.698990 1.000087 0.540599 55.000000
3.697251 0.987456 0.539944 50.000000
3.700264 0.976108 0.539944 51.000000
3.701322 0.964252 0.539681 44.000000
3.703303 0.952645 0.539550 54.000000
3.703325 0.940547 0.539157 49.000000
3.705232 0.928940 0.539026 45.000000
3.709989 0.918044 0.539288 48.000000
3.711825 0.906423 0.539157 53.000000
3.713624 0.894799 0.539026 50.000000
3.716352 0.883401 0.539026 58.000000
3.719045 0.871995 0.539026 43.000000
3.724601 0.861251 0.539419 30.000000
3.720459 0.848278 0.538502 39.000000
3.722077 0.836643 0.538371 41.000000
3.722690 0.824791 0.538109 50.000000
3.725203 0.813366 0.538109 36.000000
3.728650 0.802142 0.538240 43.000000
3.723335 0.789055 0.537192 52.000000
3.724768 0.777426 0.537061 52.000000
3.728106 0.766194 0.537192 50.000000
3.726552 0.753967 0.536667 49.000000
3.732737 0.743305 0.537192 59.000000
3.736946 0.732230 0.537454 44.000000
3.737228 0.720387 0.537192 42.000000
3.748187 0.710579 0.538371 58.000000
3.752299 0.699440 0.538633 37.000000
3.751501 0.687389 0.538240 41.000000
3.751641 0.675525 0.537978 49.000000
3.749791 0.663321 0.537454 55.000000
3.749855 0.651475 0.537192 50.000000
3.753791 0.640301 0.537454 40.000000
3.757693 0.629108 0.537716 43.000000
3.761562 0.617898 0.537978 46.000000
3.768333 0.607143 0.538633 64.000000
3.769199 0.595424 0.538502 51.000000
3.770028 0.583706 0.538371 45.000000
3.768861 0.571691 0.537978 51.000000
3.767655 0.559689 0.537585 42.000000
3.766411 0.547700 0.537192 37.000000
3.764148 0.535584 0.536667 37.000000
3.763810 0.523760 0.536405 59.000000
3.759505 0.511409 0.535619 31.000000
3.765970 0.500525 0.536274 52.000000
3.774369 0.489862 0.537192 57.000000
3.772904 0.477906 0.536798 48.000000
3.772385 0.466086 0.536536 52.000000
3.775765 0.454747 0.536798 37.000000
3.775174 0.442930 0.536536 50.000000
3.774545 0.431121 0.536274 48.000000
3.776835 0.419649 0.536405 52.000000
3.776133 0.407847 0.536143 43.000000
3.782297 0.396777 0.536798 55.000000
3.786455 0.385472 0.537192 42.000000
3.789593 0.374048 0.537454 50.000000
3.794670 0.362797 0.537978 50.000000
3.795766 0.351153 0.537978 51.000000
3.793863 0.339242 0.537585 42.000000
3.797849 0.327856 0.537978 41.000000
3.788957 0.315382 0.536667 18.000000
3.664943 1.187523 0.495725 39.000000
3.677078 1.179004 0.496795 35.000000
3.692979 1.171625 0.498341 64.000000
3.696557 1.160289 0.498341 64.000000
3.699151 1.148648 0.498222 59.000000
3.702657 1.137294 0.498222 48.000000
3.700429 1.124196 0.497509 51.000000
3.699107 1.111408 0.496914 50.000000
3.696789 1.098355 0.496201 52.000000
3.697284 1.086168 0.495844 47.000000
3.700599 1.074820 0.495844 38.000000
3.703879 1.063462 0.495844 60.000000
3.709034 1.052636 0.496082 40.000000
3.712246 1.041252 0.496082 61.000000
3.717337 1.030389 0.496320 51.000000
3.722395 1.019505 0.496557 41.000000
3.722631 1.007301 0.496201 38.000000
3.720908 0.994592 0.495606 40.000000
3.719142 0.981903 0.495011 54.000000
3.717333 0.969234 0.494417 44.000000
3.718367 0.957329 0.494179 57.000000
3.720324 0.945672 0.494060 57.000000
3.723207 0.934254 0.494060 56.000000
3.727984 0.923304 0.494298 56.000000
3.731763 0.912099 0.494417 56.000000
3.730683 0.899713 0.493941 67.000000
3.734392 0.888494 0.494060 63.000000
3.733234 0.876124 0.493584 74.000000
3.736871 0.864891 0.493703 59.000000
3.739507 0.853422 0.493703 64.000000
3.740171 0.841509 0.493465 75.000000
3.746612 0.830891 0.493941 45.000000
3.745264 0.818544 0.493465 69.000000
3.745816 0.806631 0.493228 60.000000
3.747302 0.794929 0.493109 54.000000
3.745836 0.782615 0.492633 73.000000
3.748219 0.771119 0.492633 42.000000
3.750567 0.759616 0.492633 61.000000
3.751906 0.747912 0.492514 49.000000
3.753209 0.736206 0.492395 46.000000
3.755450 0.724688 0.492395 52.000000
3.756680 0.712978 0.492276 45.000000
3.766658 0.702908 0.493228 35.000000
3.760984 0.689914 0.492276 55.000000
3.761129 0.678019 0.492038 54.000000
3.760259 0.665956 0.491681 47.000000
3.764240 0.654758 0.491919 67.000000
3.770146 0.643876 0.492395 46.000000
3.774062 0.632635 0.492633 64.000000
3.773046 0.620569 0.492276 62.000000
3.777873 0.609466 0.492633 65.000000
3.778744 0.597718 0.492514 59.000000
3.777617 0.585664 0.492157 67.000000
3.777433 0.573773 0.491919 67.000000
3.776229 0.561742 0.491563 75.000000
3.774005 0.549581 0.491087 65.000000
3.776656 0.538140 0.491206 58.000000
3.776322 0.526276 0.490968 58.000000
3.773000 0.514017 0.490373 82.000000
3.777512 0.502833 0.490730 64.000000
3.779037 0.491241 0.490730 79.000000
3.781511 0.479770 0.490849 67.000000
3.783951 0.468289 0.490968 73.000000
3.785370 0.456677 0.490968 75.000000
3.785767 0.444946 0.490849 75.000000
3.786128 0.433216 0.490730 68.000000
3.786452 0.421488 0.490611 67.000000
3.786741 0.409762 0.490492 76.000000
3.787980 0.398143 0.490492 88.000000
3.790171 0.386621 0.490611 69.000000
3.792328 0.375089 0.490730 81.000000
3.797414 0.363832 0.491206 92.000000
3.800489 0.352364 0.491444 66.000000
3.801553 0.340703 0.491444 52.000000
3.806536 0.329382 0.491919 60.000000
3.804561 0.317453 0.491563 51.000000
3.712381 1.177638 0.452768 50.000000
3.710284 1.164457 0.452127 37.000000
3.716688 1.153953 0.452447 53.000000
3.715458 1.141086 0.451914 38.000000
3.719893 1.129970 0.452020 40.000000
3.716676 1.116551 0.451273 44.000000
3.716272 1.104010 0.450846 52.000000
3.718688 1.092324 0.450739 60.000000
3.718202 1.079801 0.450312 35.000000
3.720541 1.068115 0.450205 37.000000
3.721888 1.056152 0.449991 49.000000
3.723196 1.044192 0.449778 44.000000
3.725423 1.032499 0.449671 37.000000
3.729532 1.021327 0.449778 53.000000
3.732648 1.009880 0.449778 47.000000
3.733808 0.997911 0.449564 51.000000
3.739736 0.987212 0.449885 58.000000
3.744671 0.976235 0.450098 60.000000
3.748612 0.964990 0.450205 59.000000
3.751555 0.953485 0.450205 31.000000
3.753498 0.941729 0.450098 42.000000
3.752509 0.929253 0.449671 55.000000
3.754376 0.917500 0.449564 49.000000
3.753307 0.905046 0.449137 73.000000
3.749295 0.891917 0.448390 47.000000
3.751045 0.880183 0.448283 46.000000
3.754697 0.868895 0.448390 36.000000
3.754437 0.856708 0.448069 42.000000
3.754137 0.844531 0.447749 55.000000
3.757681 0.833225 0.447856 55.000000
3.761191 0.821905 0.447962 42.000000
3.760779 0.809734 0.447642 42.000000
3.761300 0.797780 0.447429 42.000000
3.762757 0.786034 0.447322 48.000000
3.762229 0.773885 0.447001 49.000000
3.764585 0.762339 0.447001 43.000000
3.763006 0.750009 0.446574 63.000000
3.760411 0.737504 0.446040 56.000000
3.762656 0.725964 0.446040 51.000000
3.763888 0.714232 0.445934 53.000000
3.767039 0.702863 0.446040 43.000000
3.770156 0.691482 0.446147 45.000000
3.771281 0.679736 0.446040 61.000000
3.770412 0.667643 0.445720 44.000000
3.775381 0.656583 0.446040 45.000000
3.779338 0.645332 0.446254 43.000000
3.785222 0.634391 0.446681 42.000000
3.790094 0.623259 0.447001 53.000000
3.791988 0.611628 0.447001 47.000000
3.798758 0.600767 0.447535 49.000000
3.801565 0.589262 0.447642 59.000000
3.800406 0.577149 0.447322 58.000000
3.797241 0.564756 0.446788 60.000000
3.795021 0.552531 0.446361 46.000000
3.791776 0.540185 0.445827 48.000000
3.794400 0.528686 0.445934 42.000000
3.794034 0.516774 0.445720 41.000000
3.792645 0.504739 0.445400 60.000000
3.793189 0.492973 0.445293 43.000000
3.796657 0.481583 0.445506 51.000000
3.798116 0.469933 0.445506 50.000000
3.800527 0.458397 0.445613 53.000000
3.799941 0.446503 0.445400 44.000000
3.802281 0.434956 0.445506 51.000000
3.804585 0.423399 0.445613 45.000000
3.808832 0.412045 0.445934 49.000000
3.811067 0.400461 0.446040 53.000000
3.811289 0.388667 0.445934 45.000000
3.816421 0.377363 0.446361 48.000000
3.822509 0.366126 0.446895 38.000000
3.820645 0.354122 0.446574 35.000000
3.812800 0.341601 0.445613 21.000000
3.805905 0.329217 0.444759 10.000000
3.718856 1.179131 0.406894 61.000000
3.716757 1.165927 0.406324 50.000000
3.717465 1.153633 0.406039 50.000000
3.720035 1.141930 0.405944 51.000000
3.719711 1.129354 0.405564 51.000000
3.720298 1.117077 0.405279 61.000000
3.721799 1.105090 0.405089 55.000000
3.722307 1.092825 0.404804 57.000000
3.724686 1.081122 0.404709 47.000000
3.725115 1.068865 0.404425 52.000000
3.724546 1.056344 0.404045 45.000000
3.723936 1.043836 0.403665 67.000000
3.726161 1.032140 0.403570 42.000000
3.729311 1.020704 0.403570 59.000000
3.729542 1.008477 0.403285 49.000000
3.732618 0.997030 0.403285 61.000000
3.737584 0.986083 0.403475 49.000000
3.741555 0.974863 0.403570 44.000000
3.746457 0.963876 0.403760 42.000000
3.750361 0.952623 0.403855 69.000000
3.750369 0.940385 0.403570 56.000000
3.751304 0.928396 0.403380 60.000000
3.752201 0.916410 0.403190 59.000000
3.753059 0.904427 0.403000 51.000000
3.751943 0.891986 0.402620 66.000000
3.755631 0.880699 0.402715 55.000000
3.761225 0.869846 0.403000 60.000000
3.761934 0.857859 0.402810 70.000000
3.763577 0.846095 0.402715 64.000000
3.762268 0.833682 0.402335 58.000000
3.763835 0.821923 0.402240 63.000000
3.765366 0.810162 0.402145 77.000000
3.764913 0.797986 0.401860 50.000000
3.767343 0.786432 0.401860 75.000000
3.766813 0.774268 0.401575 72.000000
3.767220 0.762313 0.401385 54.000000
3.767588 0.750362 0.401195 59.000000
3.764988 0.737841 0.400720 62.000000
3.764302 0.725720 0.400435 62.000000
3.766510 0.714168 0.400435 59.000000
3.766727 0.702244 0.400246 47.000000
3.773759 0.691583 0.400720 66.000000
3.775863 0.680002 0.400720 75.000000
3.777932 0.668415 0.400720 74.000000
3.778984 0.656650 0.400625 69.000000
3.783924 0.645557 0.400910 91.000000
3.789814 0.634603 0.401290 76.000000
3.790761 0.622812 0.401195 61.000000
3.794619 0.611496 0.401385 55.000000
3.798444 0.600163 0.401575 59.000000
3.800267 0.588507 0.401575 64.000000
3.800087 0.576546 0.401385 48.000000
3.800853 0.564738 0.401290 77.000000
3.799613 0.552644 0.401005 77.000000
3.798334 0.540562 0.400720 64.000000
3.792087 0.527806 0.399961 98.000000
3.801579 0.517246 0.400720 70.000000
3.800188 0.505186 0.400435 89.000000
3.804681 0.493910 0.400720 71.000000
3.807166 0.482361 0.400815 81.000000
3.808628 0.470678 0.400815 83.000000
3.812031 0.459230 0.401005 84.000000
3.811444 0.447300 0.400815 87.000000
3.813788 0.435718 0.400910 93.000000
3.815107 0.424015 0.400910 97.000000
3.814410 0.412094 0.400720 77.000000
3.814667 0.400286 0.400625 103.000000
3.811915 0.388176 0.400246 93.000000
3.817051 0.376872 0.400625 67.000000
3.815216 0.364874 0.400340 78.000000
3.814335 0.352984 0.400151 87.000000
3.729529 1.183076 0.358616 36.000000
3.732190 1.171330 0.358533 43.000000
3.736718 1.160169 0.358616 47.000000
3.737401 1.147822 0.358369 55.000000
3.736137 1.134903 0.357956 38.000000
3.738647 1.123149 0.357874 56.000000
3.735388 1.109687 0.357297 42.000000
3.741643 1.099064 0.357544 40.000000
3.747869 1.088414 0.357791 58.000000
3.747359 1.075810 0.357461 47.000000
3.752559 1.064853 0.357626 59.000000
3.749092 1.051452 0.357049 45.000000
3.747497 1.038614 0.356637 48.000000
3.751627 1.027375 0.356719 66.000000
3.747065 1.013779 0.356060 37.000000
3.751121 1.002536 0.356142 58.000000
3.755143 0.991277 0.356225 46.000000
3.757202 0.979501 0.356142 42.000000
3.763085 0.968714 0.356389 59.000000
3.761209 0.955938 0.355977 53.000000
3.759291 0.943182 0.355565 45.000000
3.765069 0.932362 0.355812 55.000000
3.766944 0.920571 0.355730 70.000000
3.766844 0.908309 0.355482 59.000000
3.768643 0.896517 0.355400 65.000000
3.768465 0.884268 0.355153 35.000000
3.773102 0.873152 0.355318 40.000000
3.773820 0.861129 0.355153 56.000000
3.766721 0.847361 0.354328 33.000000
3.776114 0.837310 0.354905 47.000000
3.777691 0.825509 0.354823 40.000000
3.778257 0.813496 0.354658 29.000000
3.781710 0.802107 0.354740 48.000000
3.786104 0.790908 0.354905 54.000000
3.788513 0.779289 0.354905 59.000000
3.787956 0.767069 0.354658 49.000000
3.788337 0.755055 0.354493 52.000000
3.789657 0.743237 0.354410 52.000000
3.788984 0.731041 0.354163 55.000000
3.795125 0.720156 0.354493 51.000000
3.794378 0.707961 0.354246 54.000000
3.796532 0.696317 0.354246 47.000000
3.797670 0.684489 0.354163 58.000000
3.795826 0.672140 0.353833 57.000000
3.796889 0.660321 0.353751 65.000000
3.798897 0.648669 0.353751 51.000000
3.799886 0.636847 0.353668 39.000000
3.800838 0.625024 0.353586 51.000000
3.803722 0.613519 0.353668 55.000000
3.805587 0.601847 0.353668 52.000000
3.810370 0.590626 0.353916 52.000000
3.812163 0.578933 0.353916 64.000000
3.813922 0.567235 0.353916 54.000000
3.818603 0.555962 0.354163 37.000000
3.823251 0.544665 0.354410 48.000000
3.823916 0.532796 0.354328 55.000000
3.823558 0.520793 0.354163 50.000000
3.825138 0.509060 0.354163 45.000000
3.826681 0.497322 0.354163 45.000000
3.828189 0.485580 0.354163 41.000000
3.826693 0.473466 0.353916 66.000000
3.828128 0.461723 0.353916 61.000000
3.829527 0.449977 0.353916 69.000000
3.831880 0.438339 0.353998 48.000000
3.832216 0.426471 0.353916 57.000000
3.833506 0.414712 0.353916 61.000000
3.834760 0.402949 0.353916 50.000000
3.837961 0.391384 0.354081 44.000000
3.838152 0.379509 0.353998 46.000000
3.835330 0.367353 0.353668 38.000000
3.837432 0.355676 0.353751 45.000000
3.819645 0.342214 0.352184 19.000000
3.727745 1.180526 0.311921 37.000000
3.730397 1.168786 0.311851 45.000000
3.736824 1.158222 0.312063 51.000000
3.739406 1.146460 0.311992 43.000000
3.741951 1.134692 0.311921 66.000000
3.747325 1.123780 0.312063 43.000000
3.748843 1.111711 0.311921 39.000000
3.757978 1.101890 0.312345 47.000000
3.761341 1.090356 0.312345 52.000000
3.761792 1.077986 0.312133 44.000000
3.761243 1.065351 0.311851 51.000000
3.764494 1.053807 0.311851 46.000000
3.767709 1.042252 0.311851 38.000000
3.764154 1.028845 0.311356 54.000000
3.766330 1.017032 0.311286 50.000000
3.767505 1.004957 0.311145 51.000000
3.768642 0.992885 0.311003 49.000000
3.772635 0.981570 0.311074 45.000000
3.772731 0.969246 0.310862 52.000000
3.774720 0.957421 0.310791 55.000000
3.774737 0.945108 0.310580 56.000000
3.774714 0.932804 0.310368 37.000000
3.779495 0.921692 0.310509 51.000000
3.781336 0.909859 0.310438 54.000000
3.782168 0.897792 0.310297 45.000000
3.784905 0.886185 0.310297 48.000000
3.784690 0.873894 0.310085 51.000000
3.789299 0.862723 0.310226 53.000000
3.787062 0.849999 0.309873 44.000000
3.787704 0.837945 0.309732 51.000000
3.788307 0.825895 0.309591 54.000000
3.790824 0.814269 0.309591 55.000000
3.792328 0.802428 0.309520 39.000000
3.795748 0.790994 0.309591 54.000000
3.798157 0.779345 0.309591 48.000000
3.800530 0.767688 0.309591 38.000000
3.801889 0.755830 0.309520 32.000000
3.804190 0.744163 0.309520 43.000000
3.806456 0.732488 0.309520 47.000000
3.809665 0.720992 0.309591 45.000000
3.812840 0.709484 0.309661 46.000000
3.813036 0.697423 0.309520 40.000000
3.817121 0.686075 0.309661 48.000000
3.817244 0.674014 0.309520 54.000000
3.816345 0.661787 0.309308 52.000000
3.816391 0.649740 0.309167 65.000000
3.813447 0.637205 0.308814 47.000000
3.812431 0.625018 0.308602 43.000000
3.812361 0.613001 0.308461 49.000000
3.813239 0.601146 0.308390 60.000000
3.819994 0.590208 0.308743 58.000000
3.824745 0.578934 0.308955 75.000000
3.833410 0.568223 0.309449 54.000000
3.841058 0.557321 0.309873 64.000000
3.845713 0.545956 0.310085 58.000000
3.843418 0.533605 0.309803 62.000000
3.838118 0.520870 0.309308 55.000000
3.841675 0.509355 0.309449 87.000000
3.833328 0.496283 0.308743 39.000000
3.828895 0.483768 0.308319 53.000000
3.827391 0.471652 0.308108 67.000000
3.830801 0.460146 0.308249 49.000000
3.837148 0.448972 0.308602 57.000000
3.840489 0.437424 0.308743 57.000000
3.844787 0.425970 0.308955 61.000000
3.849051 0.414494 0.309167 66.000000
3.852289 0.402891 0.309308 62.000000
3.855492 0.391273 0.309449 54.000000
3.856674 0.379442 0.309449 57.000000
3.859806 0.367798 0.309591 54.000000
3.861909 0.356047 0.309661 38.000000
3.748325 1.175676 0.263833 39.000000
3.751914 1.164171 0.263833 42.000000
3.757377 1.153240 0.263949 45.000000
3.758987 1.141127 0.263833 37.000000
3.765339 1.130451 0.264008 40.000000
3.768789 1.118893 0.264008 42.000000
3.771246 1.107045 0.263949 45.000000
3.774625 1.095469 0.263949 59.000000
3.772210 1.082233 0.263601 53.000000
3.770710 1.069293 0.263310 46.000000
3.773973 1.057720 0.263310 49.000000
3.774314 1.045337 0.263136 54.000000
3.778466 1.034016 0.263194 51.000000
3.782584 1.022680 0.263252 46.000000
3.783775 1.010555 0.263136 47.000000
3.789753 0.999705 0.263310 63.000000
3.789904 0.987319 0.263136 62.000000
3.789048 0.974693 0.262904 40.000000
3.790085 0.962572 0.262788 58.000000
3.787210 0.949484 0.262439 48.000000
3.789137 0.937621 0.262381 46.000000
3.791995 0.925992 0.262381 47.000000
3.795789 0.914587 0.262439 46.000000
3.798577 0.902938 0.262439 45.000000
3.801329 0.891279 0.262439 59.000000
3.802100 0.879163 0.262323 50.000000
3.802833 0.867051 0.262207 63.000000
3.800605 0.854286 0.261916 63.000000
3.801259 0.842190 0.261800 51.000000
3.800899 0.829885 0.261626 55.000000
3.805379 0.818640 0.261742 52.000000
3.807873 0.806961 0.261742 50.000000
3.812284 0.795683 0.261858 57.000000
3.817642 0.784586 0.262033 48.000000
3.820031 0.772870 0.262033 43.000000
3.822384 0.761147 0.262033 45.000000
3.821762 0.748841 0.261858 53.000000
3.822081 0.736734 0.261742 43.000000
3.823342 0.724819 0.261684 57.000000
3.822604 0.712537 0.261510 54.000000
3.820844 0.700087 0.261277 42.000000
3.823956 0.688538 0.261335 59.000000
3.825068 0.676630 0.261277 48.000000
3.829093 0.665233 0.261394 63.000000
3.830131 0.653314 0.261335 44.000000
3.833102 0.641725 0.261394 44.000000
3.835053 0.629963 0.261394 66.000000
3.839924 0.618670 0.261568 52.000000
3.840818 0.606731 0.261510 51.000000
3.837729 0.594181 0.261219 38.000000
3.839534 0.582404 0.261219 62.000000
3.845252 0.571208 0.261452 54.000000
3.847975 0.559552 0.261510 48.000000
3.850662 0.547885 0.261568 52.000000
3.852324 0.536068 0.261568 79.000000
3.831199 0.521155 0.260232 33.000000
3.843666 0.510844 0.260871 45.000000
3.843235 0.498792 0.260755 47.000000
3.841776 0.486623 0.260580 47.000000
3.842260 0.474712 0.260522 55.000000
3.846671 0.463280 0.260697 62.000000
3.855016 0.452290 0.261103 52.000000
3.859361 0.440800 0.261277 53.000000
3.861687 0.429068 0.261335 61.000000
3.865963 0.417540 0.261510 73.000000
3.863254 0.405261 0.261277 41.000000
3.866466 0.393609 0.261394 30.000000
3.866662 0.381647 0.261335 44.000000
3.868808 0.369877 0.261394 53.000000
3.875889 0.358557 0.261742 32.000000
3.750216 1.174286 0.217337 36.000000
3.756664 1.163662 0.217475 50.000000
3.764036 1.153304 0.217660 48.000000
3.764689 1.140880 0.217522 25.000000
3.774869 1.131334 0.217845 39.000000
3.777364 1.119464 0.217799 50.000000
3.775988 1.106464 0.217568 28.000000
3.780324 1.095152 0.217614 48.000000
3.778866 1.082173 0.217383 47.000000
3.778323 1.069485 0.217198 37.000000
3.783511 1.058427 0.217290 31.000000
3.781926 1.045482 0.217059 33.000000
3.787043 1.034401 0.217152 32.000000
3.786341 1.021736 0.216967 39.000000
3.787528 1.009599 0.216874 56.000000
3.789641 0.997720 0.216828 35.000000
3.792685 0.986089 0.216828 40.000000
3.790855 0.973205 0.216597 37.000000
3.794791 0.961816 0.216643 34.000000
3.797724 0.950169 0.216643 41.000000
3.798681 0.938034 0.216551 36.000000
3.795719 0.924955 0.216273 25.000000
3.803395 0.914474 0.216504 38.000000
3.807154 0.903032 0.216551 28.000000
3.810879 0.891576 0.216597 47.000000
3.815543 0.880330 0.216689 50.000000
3.817252 0.868398 0.216643 47.000000
3.826721 0.858214 0.216967 30.000000
3.825434 0.845607 0.216782 55.000000
3.825083 0.833228 0.216643 41.000000
3.825668 0.821069 0.216551 42.000000
3.828169 0.809328 0.216551 45.000000
3.825744 0.796560 0.216320 46.000000
3.828170 0.784819 0.216320 40.000000
3.826643 0.772279 0.216135 30.000000
3.830954 0.760925 0.216227 30.000000
3.831310 0.748785 0.216135 42.000000
3.833590 0.737027 0.216135 41.000000
3.833870 0.724890 0.216042 26.000000
3.836076 0.713125 0.216042 44.000000
3.839228 0.701532 0.216088 34.000000
3.844311 0.690281 0.216227 29.000000
3.843460 0.677962 0.216088 44.000000
3.845522 0.666167 0.216088 48.000000
3.843609 0.653695 0.215903 42.000000
3.845596 0.641900 0.215903 34.000000
3.847547 0.630099 0.215903 40.000000
3.845517 0.617657 0.215718 55.000000
3.847394 0.605856 0.215718 47.000000
3.846273 0.593592 0.215580 36.000000
3.848076 0.581789 0.215580 34.000000
3.849843 0.569980 0.215580 58.000000
3.849597 0.557879 0.215487 46.000000
3.850301 0.545926 0.215441 49.000000
3.851958 0.534111 0.215441 61.000000
3.850609 0.521887 0.215302 49.000000
3.853182 0.510203 0.215349 52.000000
3.852748 0.498122 0.215256 56.000000
3.857231 0.486676 0.215395 50.000000
3.859697 0.474962 0.215441 52.000000
3.865103 0.463595 0.215626 57.000000
3.869484 0.452084 0.215765 46.000000
3.875815 0.440776 0.215996 52.000000
3.875164 0.428663 0.215903 48.000000
3.875467 0.416665 0.215857 51.000000
3.870766 0.404149 0.215580 66.000000
3.867019 0.391767 0.215349 60.000000
3.861244 0.379216 0.215025 55.000000
3.858411 0.366988 0.214840 39.000000
3.854546 0.354690 0.214609 45.000000
4.201880 0.957224 0.181619 21.000000
4.196020 0.942358 0.181314 52.000000
4.184255 0.926242 0.180806 43.000000
4.148993 0.905096 0.179486 23.000000
4.135139 0.888794 0.178910 29.000000
4.127092 0.873827 0.178538 34.000000
4.107250 0.856471 0.177759 32.000000
4.132376 0.848487 0.178538 52.000000
4.124183 0.833628 0.178166 57.000000
4.041441 0.804014 0.175220 28.000000
4.034080 0.789692 0.174882 20.000000
4.044335 0.778823 0.175153 24.000000
4.168472 0.789462 0.179351 79.000000
4.153189 0.773377 0.178741 66.000000
4.141778 0.758114 0.178267 53.000000
4.153921 0.747172 0.178606 51.000000
4.155210 0.734251 0.178572 54.000000
4.115100 0.714155 0.177116 33.000000
4.230575 0.720821 0.181009 19.000000
4.130248 0.690704 0.177489 42.000000
4.122485 0.676412 0.177150 51.000000
4.134408 0.665348 0.177489 47.000000
4.138404 0.652972 0.177556 38.000000
4.202613 0.649889 0.179689 79.000000
4.169014 0.631607 0.178470 41.000000
4.178840 0.619986 0.178741 39.000000
4.184679 0.607737 0.178877 35.000000
4.238967 0.602343 0.180671 47.000000
4.294251 0.596759 0.182499 77.000000
4.227728 0.574305 0.180163 37.000000
4.225609 0.962969 0.129649 25.000000
4.226593 0.949562 0.129606 29.000000
4.218750 0.934210 0.129368 26.000000
4.211828 0.919128 0.129151 38.000000
4.203877 0.903888 0.128913 29.000000
4.184136 0.886215 0.128416 51.000000
4.177050 0.871330 0.128199 48.000000
4.174807 0.857504 0.128091 24.000000
4.164679 0.842112 0.127810 48.000000
4.161360 0.828159 0.127680 64.000000
4.153090 0.813272 0.127442 42.000000
4.147712 0.799011 0.127269 35.000000
4.136392 0.783673 0.126966 27.000000
4.099465 0.763645 0.126100 7.000000
4.137189 0.757557 0.126879 30.000000
4.139494 0.744861 0.126879 32.000000
4.141760 0.732157 0.126879 26.000000
4.155806 0.721502 0.127139 45.000000
4.158986 0.708917 0.127160 71.000000
4.169029 0.697477 0.127334 54.000000
4.177069 0.685656 0.127463 54.000000
4.189023 0.674430 0.127680 43.000000
4.202922 0.663449 0.127939 62.000000
4.216794 0.652389 0.128199 64.000000
4.222729 0.640049 0.128286 77.000000
4.249395 0.630768 0.128827 62.000000
4.269118 0.620320 0.129216 53.000000
4.282878 0.608912 0.129476 57.000000
4.296609 0.597425 0.129736 44.000000
4.306346 0.585319 0.129909 54.000000
4.234470 0.936580 0.076152 17.000000
4.218760 0.919540 0.075976 24.000000
4.215695 0.905334 0.075920 28.000000
4.197908 0.888052 0.075726 35.000000
4.191803 0.873334 0.075643 33.000000
4.179769 0.857457 0.075504 43.000000
4.177478 0.843640 0.075458 42.000000
4.175143 0.829845 0.075412 53.000000
4.156079 0.812812 0.075208 18.000000
4.163463 0.801002 0.075254 33.000000
4.151163 0.785437 0.075116 37.000000
4.147654 0.771601 0.075060 27.000000
4.147051 0.758333 0.075032 43.000000
4.143452 0.744546 0.074977 41.000000
4.143748 0.731483 0.074958 36.000000
4.152870 0.719962 0.075023 49.000000
4.158016 0.707721 0.075051 25.000000
4.175949 0.697596 0.075199 58.000000
4.178070 0.684781 0.075199 39.000000
4.189036 0.673387 0.075282 49.000000
4.199973 0.661932 0.075365 47.000000
4.207912 0.649959 0.075421 52.000000
4.224718 0.639289 0.075560 43.000000
4.239518 0.628229 0.075680 30.000000
4.270124 0.619380 0.075948 24.000000
4.289825 0.608804 0.076115 27.000000
4.303559 0.597288 0.076226 23.000000
4.320235 0.586098 0.076364 16.000000
4.365629 0.578618 0.076771 9.000000
4.218735 0.934207 0.021903 24.000000
4.211812 0.919125 0.021937 21.000000
4.186261 0.900095 0.022033 40.000000
4.180199 0.885380 0.022063 49.000000
4.175065 0.870916 0.022089 56.000000
4.167922 0.856088 0.022122 62.000000
4.164648 0.842106 0.022142 53.000000
4.161328 0.828153 0.022162 58.000000
4.168756 0.816344 0.022146 38.000000
4.159458 0.801277 0.022185 66.000000
4.156002 0.787394 0.022205 78.000000
4.153482 0.773723 0.022222 67.000000
4.154853 0.760796 0.022225 49.000000
4.148311 0.746449 0.022255 79.000000
4.150581 0.733719 0.022255 72.000000
4.150843 0.720639 0.022262 58.000000
4.156976 0.708574 0.022248 64.000000
4.163075 0.696479 0.022235 63.000000
4.170126 0.684515 0.022218 68.000000
4.183066 0.673469 0.022182 68.000000
4.192027 0.661726 0.022159 61.000000
4.204908 0.650547 0.022122 69.000000
4.223691 0.640195 0.022066 53.000000
4.233548 0.628411 0.022039 58.000000
4.254258 0.618157 0.021976 50.000000
4.280884 0.608628 0.021894 46.000000
4.292635 0.596871 0.021860 45.000000
4.316246 0.586667 0.021787 25.000000
4.327938 0.574742 0.021754 26.000000
4.227947 0.936681 -0.031600 28.000000
4.221033 0.921573 -0.031443 29.000000
4.215042 0.906727 -0.031302 31.000000
4.188459 0.887576 -0.030830 53.000000
4.190183 0.874517 -0.030815 36.000000
4.167381 0.856427 -0.030406 65.000000
4.169989 0.843638 -0.030406 28.000000
4.157848 0.827913 -0.030171 69.000000
4.156444 0.814384 -0.030108 68.000000
4.154995 0.800872 -0.030045 77.000000
4.155468 0.787748 -0.030014 55.000000
4.156882 0.774813 -0.029998 71.000000
4.159240 0.762056 -0.029998 66.000000
4.161558 0.749292 -0.029998 71.000000
4.165807 0.736869 -0.030029 67.000000
4.166078 0.723743 -0.029998 62.000000
4.164336 0.710286 -0.029935 68.000000
4.169454 0.698002 -0.029982 48.000000
4.171576 0.685207 -0.029982 64.000000
4.180568 0.673518 -0.030092 56.000000
4.191504 0.662092 -0.030234 74.000000
4.207348 0.651370 -0.030453 48.000000
4.224156 0.640707 -0.030689 48.000000
4.236981 0.629360 -0.030862 57.000000
4.266598 0.620384 -0.031302 32.000000
4.279370 0.608839 -0.031474 44.000000
4.299044 0.598186 -0.031757 31.000000
4.315721 0.587014 -0.031993 41.000000
4.331378 0.575614 -0.032213 19.000000
4.348989 0.564380 -0.032464 17.000000
4.223032 0.948761 -0.083527 19.000000
4.214211 0.933204 -0.083194 30.000000
4.208266 0.918350 -0.082944 27.000000
4.208132 0.904804 -0.082861 25.000000
4.184485 0.886289 -0.082112 34.000000
4.167615 0.869360 -0.081557 55.000000
4.163408 0.855160 -0.081362 43.000000
4.155236 0.840200 -0.081057 44.000000
4.151912 0.826276 -0.080891 50.000000
4.147561 0.812188 -0.080696 61.000000
4.144144 0.798323 -0.080530 70.000000
4.143627 0.785046 -0.080447 54.000000
4.141103 0.771413 -0.080308 72.000000
4.141484 0.758344 -0.080253 49.000000
4.140840 0.745103 -0.080169 56.000000
4.139169 0.731698 -0.080058 47.000000
4.147303 0.720024 -0.080225 55.000000
4.151464 0.707633 -0.080280 82.000000
4.157558 0.695554 -0.080391 73.000000
4.168550 0.684255 -0.080641 48.000000
4.176551 0.672418 -0.080807 56.000000
4.186492 0.660851 -0.081029 67.000000
4.201342 0.649994 -0.081390 58.000000
4.209246 0.638002 -0.081557 47.000000
4.222060 0.626702 -0.081862 44.000000
4.242757 0.616482 -0.082389 41.000000
4.261452 0.605860 -0.082861 48.000000
4.284082 0.595679 -0.083443 56.000000
4.308670 0.585636 -0.084082 41.000000
4.326301 0.574524 -0.084526 42.000000
4.365712 0.566143 -0.085580 25.000000
4.227026 0.950091 -0.137951 16.000000
4.211386 0.933013 -0.137185 24.000000
4.211299 0.919449 -0.137064 23.000000
4.207263 0.905055 -0.136782 26.000000
4.197312 0.889451 -0.136258 31.000000
4.194152 0.875345 -0.136016 26.000000
4.179201 0.858855 -0.135290 42.000000
4.174960 0.844643 -0.135008 43.000000
4.162832 0.828905 -0.134404 50.000000
4.157511 0.814593 -0.134081 45.000000
4.151161 0.800133 -0.133718 47.000000
4.152615 0.787208 -0.133678 42.000000
4.153045 0.774098 -0.133597 51.000000
4.151469 0.760633 -0.133436 52.000000
4.152800 0.747716 -0.133396 56.000000
4.157042 0.735320 -0.133477 55.000000
4.165185 0.723588 -0.133718 50.000000
4.170341 0.711310 -0.133839 48.000000
4.175459 0.699007 -0.133960 57.000000
4.178570 0.686355 -0.134001 42.000000
4.182630 0.673850 -0.134081 52.000000
4.186651 0.661326 -0.134162 46.000000
4.192610 0.649090 -0.134323 44.000000
4.198533 0.636823 -0.134484 44.000000
4.216281 0.626287 -0.135129 28.000000
4.238947 0.616366 -0.135976 23.000000
4.263571 0.606593 -0.136903 20.000000
4.280257 0.595574 -0.137507 30.000000
4.294935 0.584189 -0.138031 46.000000
4.311564 0.572983 -0.138636 28.000000
4.333120 0.562322 -0.139442 26.000000
4.362580 0.552539 -0.140570 9.000000
4.206553 0.957083 -0.189084 22.000000
4.212393 0.944829 -0.189241 15.000000
4.195772 0.927584 -0.188194 29.000000
4.189816 0.912792 -0.187723 35.000000
4.180881 0.897415 -0.187095 47.000000
4.181661 0.884171 -0.186991 46.000000
4.178488 0.870114 -0.186677 41.000000
4.174290 0.855885 -0.186310 38.000000
4.173960 0.842481 -0.186153 32.000000
4.167710 0.827918 -0.185682 38.000000
4.163370 0.813785 -0.185316 46.000000
4.158003 0.799497 -0.184897 48.000000
4.155530 0.785808 -0.184636 59.000000
4.151049 0.771775 -0.184269 46.000000
4.150450 0.758497 -0.184112 62.000000
4.152758 0.745760 -0.184112 46.000000
4.159943 0.733885 -0.184374 55.000000
4.163159 0.721290 -0.184426 51.000000
4.172244 0.709688 -0.184793 51.000000
4.181295 0.698037 -0.185159 57.000000
4.187359 0.685853 -0.185368 78.000000
4.193388 0.673638 -0.185578 76.000000
4.201353 0.661703 -0.185892 51.000000
4.204350 0.648963 -0.185944 57.000000
4.216195 0.637557 -0.186467 60.000000
4.226034 0.625791 -0.186886 57.000000
4.230898 0.613254 -0.187043 34.000000
4.250556 0.602799 -0.187985 60.000000
4.265244 0.591543 -0.188665 61.000000
4.273966 0.579395 -0.189032 60.000000
4.288593 0.567988 -0.189712 47.000000
4.305170 0.556753 -0.190497 33.000000
4.321720 0.545422 -0.191282 24.000000
4.329319 0.532895 -0.191596 18.000000
4.230286 0.923593 -0.243559 17.000000
4.220417 0.907883 -0.242717 25.000000
4.230016 0.896378 -0.243170 18.000000
4.214185 0.879524 -0.241941 30.000000
4.206111 0.864383 -0.241229 35.000000
4.200918 0.849892 -0.240712 38.000000
4.198612 0.836026 -0.240388 34.000000
4.196261 0.822182 -0.240065 42.000000
4.194844 0.808549 -0.239806 38.000000
4.198286 0.795861 -0.239870 39.000000
4.200707 0.782977 -0.239870 40.000000
4.203090 0.770086 -0.239870 33.000000
4.202486 0.756657 -0.239676 37.000000
4.206753 0.744108 -0.239806 37.000000
4.204100 0.730345 -0.239482 30.000000
4.206321 0.717444 -0.239482 30.000000
4.205550 0.704041 -0.239288 35.000000
4.209660 0.691459 -0.239417 44.000000
4.212746 0.678699 -0.239482 29.000000
4.216781 0.666083 -0.239612 40.000000
4.217818 0.652990 -0.239547 43.000000
4.221775 0.640346 -0.239676 40.000000
4.224706 0.627537 -0.239741 36.000000
4.231549 0.615291 -0.240065 22.000000
4.240333 0.603289 -0.240517 24.000000
4.247105 0.590964 -0.240841 34.000000
4.257798 0.579141 -0.241423 37.000000
4.280328 0.568834 -0.242782 24.000000
4.301846 0.558267 -0.244076 18.000000
4.318388 0.546946 -0.245047 19.000000
4.307171 0.532105 -0.244206 42.000000
4.248550 0.925604 -0.296423 17.000000
4.240647 0.910261 -0.295581 25.000000
4.231714 0.894768 -0.294662 18.000000
4.225655 0.879950 -0.293973 30.000000
4.213685 0.863973 -0.292825 30.000000
4.220224 0.851832 -0.293131 19.000000
4.210105 0.836352 -0.292136 36.000000
4.206780 0.822282 -0.291677 31.000000
4.206346 0.808806 -0.291447 35.000000
4.208807 0.795898 -0.291447 31.000000
4.209270 0.782616 -0.291294 34.000000
4.209689 0.769340 -0.291141 41.000000
4.201234 0.754479 -0.290299 55.000000
4.204512 0.741760 -0.290376 45.000000
4.208732 0.729198 -0.290529 32.000000
4.208984 0.715948 -0.290376 31.000000
4.209194 0.702703 -0.290223 41.000000
4.210346 0.689624 -0.290146 38.000000
4.208504 0.676070 -0.289840 39.000000
4.211543 0.663311 -0.289917 66.000000
4.211587 0.650082 -0.289764 58.000000
4.215534 0.637457 -0.289917 34.000000
4.217470 0.624521 -0.289917 38.000000
4.218379 0.611435 -0.289840 54.000000
4.225171 0.599192 -0.290223 31.000000
4.230939 0.586776 -0.290529 45.000000
4.223828 0.572585 -0.289840 80.000000
4.247310 0.562509 -0.291524 56.000000
4.250993 0.549732 -0.291677 66.000000
4.268486 0.538690 -0.292902 36.000000
4.275067 0.526202 -0.293285 33.000000
4.282601 0.513798 -0.293744 35.000000
4.245082 0.911642 -0.349150 16.000000
4.231293 0.895111 -0.347642 27.000000
4.222318 0.879689 -0.346577 34.000000
4.219142 0.865530 -0.346045 30.000000
4.217872 0.851794 -0.345690 27.000000
4.211673 0.837102 -0.344892 32.000000
4.223019 0.825897 -0.345690 14.000000
4.211839 0.810304 -0.344448 39.000000
4.219199 0.798304 -0.344892 31.000000
4.225545 0.786084 -0.345246 33.000000
4.230877 0.773654 -0.345513 41.000000
4.233230 0.760670 -0.345513 26.000000
4.234563 0.747506 -0.345424 32.000000
4.234874 0.734171 -0.345246 32.000000
4.234160 0.720674 -0.344980 43.000000
4.230456 0.706696 -0.344448 30.000000
4.225724 0.692587 -0.343827 31.000000
4.215044 0.677565 -0.342674 33.000000
4.215135 0.664321 -0.342496 35.000000
4.209278 0.650170 -0.341786 53.000000
4.209283 0.636955 -0.341609 33.000000
4.212203 0.624184 -0.341698 39.000000
4.214098 0.611258 -0.341698 28.000000
4.220885 0.599026 -0.342141 45.000000
4.227636 0.586758 -0.342585 34.000000
4.229416 0.573785 -0.342585 43.000000
4.237081 0.561591 -0.343117 39.000000
4.246686 0.549612 -0.343827 47.000000
4.256258 0.537578 -0.344537 25.000000
4.258876 0.524639 -0.344625 31.000000
4.271345 0.512876 -0.345601 19.000000
4.279823 0.500579 -0.346222 13.000000
4.242825 0.911501 -0.403785 26.000000
4.240735 0.897449 -0.403279 27.000000
4.227886 0.881182 -0.401659 31.000000
4.228621 0.867806 -0.401457 37.000000
4.226388 0.853843 -0.400950 21.000000
4.222157 0.839512 -0.400242 37.000000
4.227643 0.827129 -0.400546 27.000000
4.224298 0.813025 -0.399938 32.000000
4.227750 0.800247 -0.400039 32.000000
4.233120 0.787819 -0.400343 42.000000
4.240410 0.775725 -0.400849 29.000000
4.242770 0.762712 -0.400849 39.000000
4.241171 0.748999 -0.400444 56.000000
4.241488 0.735643 -0.400242 37.000000
4.241764 0.722292 -0.400039 64.000000
4.233167 0.707468 -0.398926 31.000000
4.233354 0.694155 -0.398723 46.000000
4.216802 0.678158 -0.396800 33.000000
4.211001 0.663976 -0.395990 53.000000
4.206136 0.649988 -0.395282 55.000000
4.198275 0.635589 -0.394269 30.000000
4.199221 0.622560 -0.394168 39.000000
4.202096 0.609817 -0.394269 50.000000
4.205917 0.597202 -0.394472 55.000000
4.215612 0.585393 -0.395282 38.000000
4.221331 0.572993 -0.395687 41.000000
4.228000 0.560695 -0.396193 49.000000
4.233647 0.548233 -0.396598 65.000000
4.247153 0.536742 -0.397812 52.000000
4.260628 0.525173 -0.399027 37.000000
4.265182 0.512456 -0.399331 42.000000
4.294400 0.502614 -0.402165 23.000000
4.232369 0.896108 -0.454165 13.000000
4.232181 0.882510 -0.453826 16.000000
4.241681 0.870920 -0.454617 21.000000
4.238490 0.856722 -0.453939 36.000000
4.239149 0.843327 -0.453713 36.000000
4.238791 0.829745 -0.453374 47.000000
4.244244 0.817300 -0.453713 38.000000
4.246731 0.804275 -0.453713 40.000000
4.255040 0.792334 -0.454391 34.000000
4.267224 0.781064 -0.455522 37.000000
4.272534 0.768496 -0.455861 25.000000
4.279764 0.756248 -0.456426 35.000000
4.274232 0.741756 -0.455522 34.000000
4.269631 0.727472 -0.454730 36.000000
4.263023 0.712895 -0.453713 46.000000
4.259307 0.698848 -0.453035 21.000000
4.246716 0.683411 -0.451339 19.000000
4.223275 0.666355 -0.448401 46.000000
4.216462 0.652030 -0.447383 31.000000
4.217460 0.638942 -0.447270 30.000000
4.208590 0.624397 -0.446027 25.000000
4.213435 0.611910 -0.446366 33.000000
4.218244 0.599400 -0.446705 28.000000
4.228920 0.587686 -0.447723 28.000000
4.243503 0.576446 -0.449192 31.000000
4.252145 0.564339 -0.449983 31.000000
4.257799 0.551802 -0.450435 26.000000
4.266372 0.539608 -0.451226 41.000000
4.278854 0.527854 -0.452470 23.000000
4.288346 0.515672 -0.453374 26.000000
4.298790 0.503553 -0.454391 13.000000
4.234703 0.882605 -0.508292 9.000000
4.245165 0.871206 -0.509295 18.000000
4.247818 0.858178 -0.509295 23.000000
4.241673 0.843398 -0.508166 18.000000
4.244241 0.830381 -0.508166 28.000000
4.249691 0.817919 -0.508543 37.000000
4.258029 0.805986 -0.509295 23.000000
4.263408 0.793464 -0.509670 33.000000
4.277533 0.782526 -0.511174 40.000000
4.286748 0.770630 -0.512052 42.000000
4.298862 0.759203 -0.513305 37.000000
4.304103 0.746520 -0.513681 42.000000
4.302461 0.732644 -0.513180 45.000000
4.286097 0.716329 -0.510799 20.000000
4.279463 0.701729 -0.509670 17.000000
4.266904 0.686229 -0.507791 25.000000
4.257229 0.671278 -0.506287 44.000000
4.241621 0.655482 -0.504031 45.000000
4.241651 0.642168 -0.503780 42.000000
4.239675 0.628569 -0.503278 41.000000
4.235693 0.614702 -0.502527 45.000000
4.235595 0.601425 -0.502276 46.000000
4.236437 0.588290 -0.502151 50.000000
4.241171 0.575692 -0.502527 58.000000
4.253736 0.564115 -0.503905 35.000000
4.261349 0.551828 -0.504657 45.000000
4.270896 0.539749 -0.505660 49.000000
4.283363 0.527982 -0.507039 58.000000
4.287918 0.515194 -0.507415 40.000000
4.244763 0.873091 -0.562967 10.000000
4.234800 0.857510 -0.561181 15.000000
4.237411 0.844514 -0.561181 35.000000
4.242898 0.832081 -0.561593 36.000000
4.248349 0.819623 -0.562005 35.000000
4.262522 0.808800 -0.563655 41.000000
4.270825 0.796809 -0.564479 30.000000
4.282993 0.785488 -0.565854 36.000000
4.300004 0.774978 -0.567915 36.000000
4.307239 0.762646 -0.568603 49.000000
4.322245 0.751633 -0.570389 29.000000
4.322577 0.738035 -0.570115 23.000000
4.305284 0.721498 -0.567366 9.000000
4.283369 0.677358 -0.563380 26.000000
4.267807 0.661485 -0.560906 25.000000
4.265900 0.647794 -0.560356 23.000000
4.261989 0.633829 -0.559531 29.000000
4.251171 0.618897 -0.557745 38.000000
4.246185 0.604874 -0.556782 31.000000
4.247040 0.591708 -0.556645 28.000000
4.245891 0.578274 -0.556233 31.000000
4.252554 0.565898 -0.556920 42.000000
4.263111 0.553997 -0.558157 36.000000
4.275599 0.542285 -0.559669 33.000000
4.298870 0.531839 -0.562693 22.000000
4.270693 0.862033 -0.618794 21.000000
4.271378 0.848541 -0.618496 24.000000
4.265227 0.833723 -0.617153 30.000000
4.262910 0.819699 -0.616407 37.000000
4.264434 0.806432 -0.616258 37.000000
4.269804 0.793889 -0.616705 31.000000
4.280973 0.782387 -0.618048 42.000000
4.303791 0.772926 -0.621181 33.000000
4.311984 0.760751 -0.622076 37.000000
4.326963 0.749716 -0.624016 30.000000
4.370183 0.743413 -0.630282 13.000000
4.256968 0.657100 -0.611334 22.000000
4.252120 0.642999 -0.610290 37.000000
4.252117 0.629661 -0.609992 31.000000
4.247179 0.615618 -0.608947 38.000000
4.245131 0.602028 -0.608351 38.000000
