ply
format ascii 1.0
element vertex 1250
property float x
property float y
property float z
property float intensity
end_header
3.961692 -1.268052 0.840175 49.000000
3.957783 -1.280201 0.840175 36.000000
3.956636 -1.293251 0.840747 55.000000
3.952650 -1.305384 0.840747 37.000000
3.943970 -1.315952 0.839794 45.000000
3.936193 -1.326793 0.839033 56.000000
3.930245 -1.338230 0.838652 47.000000
3.925192 -1.349963 0.838461 44.000000
3.923815 -1.362964 0.839033 69.000000
3.920541 -1.375321 0.839223 60.000000
3.918154 -1.387997 0.839604 66.000000
3.916650 -1.401003 0.840175 58.000000
3.915104 -1.414012 0.840747 74.000000
3.908903 -1.425344 0.840366 67.000000
3.902669 -1.436652 0.839985 65.000000
3.898243 -1.448619 0.839985 58.000000
3.893780 -1.460572 0.839985 60.000000
3.892954 -1.473900 0.840747 62.000000
3.892082 -1.487237 0.841509 75.000000
3.890249 -1.500230 0.842080 56.000000
3.887458 -1.512869 0.842461 53.000000
3.888281 -1.526940 0.843604 66.000000
3.889055 -1.541031 0.844747 63.000000
3.888867 -1.554775 0.845699 72.000000
3.892273 -1.570002 0.847413 72.000000
3.891076 -1.583415 0.848175 77.000000
3.878934 -1.592365 0.846651 50.000000
3.874938 -1.604633 0.846842 55.000000
3.860937 -1.612732 0.844937 43.000000
4.099496 -0.800776 0.791643 7.000000
4.063243 -0.806640 0.785391 41.000000
4.062678 -0.819492 0.785748 48.000000
4.065928 -0.833138 0.786820 42.000000
4.064316 -0.845808 0.786999 40.000000
4.066515 -0.859291 0.787892 63.000000
4.064822 -0.871969 0.788070 59.000000
4.059244 -0.883808 0.787534 51.000000
4.050749 -0.894983 0.786463 50.000000
4.044144 -0.906545 0.785748 49.000000
4.032709 -0.916984 0.784141 62.000000
4.029876 -0.929352 0.784141 52.000000
4.027964 -0.941935 0.784319 52.000000
4.026970 -0.954742 0.784676 47.000000
4.026892 -0.967782 0.785212 63.000000
4.022948 -0.979899 0.785034 50.000000
4.027565 -0.994124 0.786463 45.000000
4.024496 -1.006475 0.786463 45.000000
4.017574 -1.017851 0.785748 49.000000
4.015385 -1.030416 0.785927 30.000000
4.005539 -1.040998 0.784676 58.000000
3.999472 -1.052530 0.784141 52.000000
3.994323 -1.064288 0.783783 41.000000
3.987239 -1.075513 0.783069 44.000000
3.983921 -1.087740 0.783069 35.000000
3.981513 -1.100220 0.783247 52.000000
3.981909 -1.113490 0.783962 40.000000
3.983208 -1.127041 0.784855 35.000000
3.983515 -1.140339 0.785570 40.000000
3.980943 -1.152829 0.785748 44.000000
3.978332 -1.165314 0.785927 43.000000
3.975681 -1.177793 0.786105 47.000000
3.972049 -1.189985 0.786105 41.000000
3.964613 -1.201024 0.785391 43.000000
3.958087 -1.212317 0.784855 39.000000
3.954349 -1.224454 0.784855 42.000000
3.953391 -1.237462 0.785391 44.000000
3.948638 -1.249288 0.785212 46.000000
3.944787 -1.261397 0.785212 34.000000
3.942770 -1.274099 0.785570 44.000000
3.940713 -1.286800 0.785927 45.000000
3.938616 -1.299500 0.786284 56.000000
3.932744 -1.310955 0.785927 48.000000
3.924041 -1.321444 0.785034 34.000000
3.926489 -1.335695 0.786284 49.000000
3.926095 -1.349015 0.786999 35.000000
3.924726 -1.362021 0.787534 47.000000
3.924243 -1.375358 0.788249 42.000000
3.921860 -1.388048 0.788606 40.000000
3.921289 -1.401398 0.789321 48.000000
3.922524 -1.415426 0.790393 43.000000
3.916314 -1.426780 0.790035 51.000000
3.909148 -1.437769 0.789499 47.000000
3.905641 -1.450098 0.789678 59.000000
3.901174 -1.462073 0.789678 54.000000
3.899430 -1.475080 0.790214 47.000000
3.894886 -1.487036 0.790214 57.000000
3.892142 -1.499686 0.790571 63.000000
3.892108 -1.513403 0.791464 54.000000
3.891110 -1.526775 0.792179 46.000000
3.888237 -1.539430 0.792536 42.000000
3.886237 -1.552447 0.793072 43.000000
3.879631 -1.563627 0.792715 45.000000
3.874816 -1.575522 0.792715 54.000000
3.879066 -1.591137 0.794501 24.000000
3.867803 -1.600396 0.793251 28.000000
3.859243 -1.610739 0.792536 30.000000
3.861537 -1.625626 0.793965 8.000000
4.076777 -0.797548 0.736863 10.000000
4.056903 -0.806596 0.733858 30.000000
4.051510 -0.818453 0.733357 51.000000
4.053810 -0.831869 0.734192 51.000000
4.050272 -0.844101 0.734025 43.000000
4.043806 -0.855708 0.733357 38.000000
4.047909 -0.869558 0.734526 50.000000
4.043296 -0.881553 0.734192 56.000000
4.045386 -0.895017 0.735027 53.000000
4.044545 -0.907855 0.735361 49.000000
4.035011 -0.918729 0.734192 40.000000
4.033134 -0.931325 0.734359 39.000000
4.037939 -0.945491 0.735694 77.000000
4.033100 -0.957419 0.735361 63.000000
4.023433 -0.968176 0.734192 41.000000
4.023318 -0.981215 0.734693 58.000000
4.020288 -0.993554 0.734693 61.000000
4.016265 -1.005644 0.734526 48.000000
4.014116 -1.018203 0.734693 56.000000
4.005244 -1.029043 0.733691 56.000000
4.000159 -1.040830 0.733357 48.000000
3.999808 -1.053850 0.733858 54.000000
3.994650 -1.065609 0.733524 48.000000
3.993266 -1.078372 0.733858 62.000000
3.990890 -1.090878 0.734025 52.000000
3.987524 -1.103117 0.734025 44.000000
3.986970 -1.116142 0.734526 51.000000
3.987322 -1.129442 0.735194 67.000000
3.979098 -1.140313 0.734359 45.000000
3.976528 -1.152790 0.734526 70.000000
3.972973 -1.164984 0.734526 49.000000
3.971271 -1.177728 0.734860 63.000000
3.972361 -1.191321 0.735694 47.000000
3.969631 -1.203788 0.735861 44.000000
3.964977 -1.215672 0.735694 37.000000
3.959345 -1.227247 0.735361 38.000000
3.954620 -1.239094 0.735194 48.000000
3.951740 -1.251519 0.735361 29.000000
3.945064 -1.262735 0.734860 34.000000
3.941172 -1.274833 0.734860 50.000000
3.940054 -1.287836 0.735361 44.000000
3.941702 -1.301772 0.736362 46.000000
3.939560 -1.314482 0.736696 67.000000
3.936444 -1.326877 0.736863 41.000000
3.934221 -1.339583 0.737197 50.000000
3.932890 -1.352608 0.737698 54.000000
3.931516 -1.365637 0.738199 59.000000
3.927308 -1.377692 0.738199 57.000000
3.923063 -1.389735 0.738199 52.000000
3.919710 -1.402096 0.738366 65.000000
3.913535 -1.413445 0.738032 62.000000
3.908253 -1.425108 0.737865 74.000000
3.903863 -1.437091 0.737865 58.000000
3.900360 -1.449405 0.738032 62.000000
3.897741 -1.462056 0.738366 66.000000
3.898770 -1.476100 0.739367 81.000000
3.893302 -1.487703 0.739200 53.000000
3.889640 -1.499995 0.739367 53.000000
3.888695 -1.513350 0.740035 59.000000
3.883116 -1.524914 0.739868 65.000000
3.878420 -1.536820 0.739868 64.000000
3.876433 -1.549809 0.740369 54.000000
3.871660 -1.561694 0.740369 59.000000
3.870504 -1.575050 0.741037 64.000000
3.866566 -1.587292 0.741204 52.000000
3.859856 -1.598393 0.740870 72.000000
3.858574 -1.611746 0.741537 39.000000
3.825440 -1.611717 0.736362 16.000000
4.051526 -0.805045 0.681297 36.000000
4.050005 -0.817667 0.681452 40.000000
4.050381 -0.830684 0.681917 40.000000
4.048780 -0.843308 0.682071 47.000000
4.049074 -0.856339 0.682536 52.000000
4.044496 -0.868343 0.682226 51.000000
4.043743 -0.881168 0.682536 51.000000
4.042950 -0.893996 0.682846 50.000000
4.041152 -0.906612 0.683001 42.000000
4.035461 -0.918348 0.682536 46.000000
4.031662 -0.930502 0.682381 54.000000
4.030713 -0.943317 0.682691 35.000000
4.032606 -0.956820 0.683465 50.000000
4.026770 -0.968494 0.683001 39.000000
4.026659 -0.981545 0.683465 43.000000
4.029383 -0.995316 0.684395 29.000000
4.020561 -1.006234 0.683465 49.000000
4.016497 -1.018321 0.683310 38.000000
4.014310 -1.030885 0.683465 54.000000
3.992963 -1.038469 0.680523 24.000000
3.997401 -1.052728 0.681762 51.000000
3.993198 -1.064732 0.681607 55.000000
3.981328 -1.074660 0.680213 49.000000
3.983731 -1.088433 0.681142 46.000000
3.982277 -1.101176 0.681452 51.000000
3.981734 -1.114187 0.681917 33.000000
3.979248 -1.126667 0.682071 34.000000
3.978621 -1.139686 0.682536 41.000000
3.977004 -1.152437 0.682846 53.000000
3.975346 -1.165189 0.683156 34.000000
3.968911 -1.176537 0.682691 28.000000
3.967175 -1.189276 0.683001 47.000000
3.964453 -1.201728 0.683156 43.000000
3.966415 -1.215623 0.684085 48.000000
3.962667 -1.227786 0.684085 43.000000
3.959824 -1.240232 0.684240 47.000000
3.961652 -1.254165 0.685169 50.000000
3.960608 -1.267216 0.685634 57.000000
3.958581 -1.279970 0.685943 46.000000
3.956514 -1.292722 0.686253 54.000000
3.949715 -1.303925 0.685789 43.000000
3.946633 -1.316349 0.685943 52.000000
3.938832 -1.327189 0.685324 43.000000
3.930065 -1.337675 0.684550 54.000000
3.925009 -1.349404 0.684395 46.000000
3.919917 -1.361116 0.684240 64.000000
3.916655 -1.373462 0.684395 51.000000
3.911491 -1.385142 0.684240 50.000000
3.910014 -1.398134 0.684704 44.000000
3.906636 -1.410459 0.684859 46.000000
3.904146 -1.423114 0.685169 68.000000
3.900689 -1.435427 0.685324 43.000000
3.900897 -1.449108 0.686098 47.000000
3.901983 -1.463151 0.687028 46.000000
3.898399 -1.475464 0.687183 54.000000
3.894777 -1.487770 0.687337 51.000000
3.891117 -1.500068 0.687492 67.000000
3.884654 -1.511282 0.687183 59.000000
3.880000 -1.523193 0.687183 46.000000
3.873471 -1.534361 0.686873 52.000000
3.868746 -1.546238 0.686873 48.000000
3.865816 -1.558839 0.687183 36.000000
3.863761 -1.571809 0.687647 50.000000
3.858920 -1.583655 0.687647 36.000000
3.849480 -1.593597 0.686873 36.000000
3.849131 -1.607303 0.687647 38.000000
3.821421 -1.609516 0.683775 10.000000
4.073946 -0.796259 0.633555 7.000000
4.057892 -0.806059 0.631553 24.000000
4.057341 -0.818895 0.631839 39.000000
4.048022 -0.829950 0.630838 42.000000
4.046425 -0.842566 0.630981 38.000000
4.042853 -0.854772 0.630838 50.000000
4.039244 -0.866964 0.630695 60.000000
4.037532 -0.879563 0.630838 47.000000
4.038681 -0.892799 0.631410 51.000000
4.036888 -0.905401 0.631553 52.000000
4.033127 -0.917563 0.631410 54.000000
4.027399 -0.929265 0.630981 49.000000
4.021638 -0.940941 0.630552 39.000000
4.020658 -0.953731 0.630838 25.000000
4.013864 -0.965138 0.630266 49.000000
4.013769 -0.978150 0.630695 43.000000
4.013632 -0.991170 0.631124 43.000000
4.016333 -1.004919 0.631982 41.000000
4.014191 -1.017479 0.632125 43.000000
4.012968 -1.030281 0.632411 46.000000
4.007873 -1.042090 0.632125 49.000000
4.003699 -1.054130 0.631982 49.000000
3.997577 -1.065644 0.631553 54.000000
3.992378 -1.077388 0.631267 41.000000
3.988099 -1.089371 0.631124 57.000000
3.985692 -1.101865 0.631267 47.000000
3.982293 -1.114087 0.631267 48.000000
3.978856 -1.126300 0.631267 69.000000
3.974430 -1.138229 0.631124 52.000000
3.967117 -1.149317 0.630552 43.000000
3.964522 -1.161760 0.630695 46.000000
3.962837 -1.174480 0.630981 38.000000
3.957319 -1.186064 0.630695 57.000000
3.952714 -1.197913 0.630552 47.000000
3.952806 -1.211193 0.631124 55.000000
3.947181 -1.222729 0.630838 51.000000
3.943410 -1.234833 0.630838 31.000000
3.944322 -1.248417 0.631553 37.000000
3.940473 -1.260512 0.631553 49.000000
3.942239 -1.274420 0.632411 45.000000
3.936428 -1.285895 0.632125 40.000000
3.933404 -1.298276 0.632268 53.000000
3.927525 -1.309711 0.631982 57.000000
3.921613 -1.321123 0.631696 40.000000
3.916604 -1.332830 0.631553 45.000000
3.909688 -1.343875 0.631124 53.000000
3.903677 -1.355215 0.630838 54.000000
3.901369 -1.367839 0.631124 54.000000
3.897154 -1.379802 0.631124 47.000000
3.898494 -1.393749 0.631982 59.000000
3.894200 -1.405703 0.631982 69.000000
3.891729 -1.418321 0.632268 73.000000
3.889217 -1.430937 0.632554 64.000000
3.885737 -1.443207 0.632697 65.000000
3.884072 -1.456163 0.633126 50.000000
3.880512 -1.468422 0.633269 51.000000
3.878762 -1.481379 0.633698 58.000000
3.882512 -1.496473 0.634985 67.000000
3.883437 -1.510529 0.635842 66.000000
3.881549 -1.523520 0.636271 61.000000
3.879618 -1.536514 0.636700 65.000000
3.874885 -1.548409 0.636700 68.000000
3.870117 -1.560289 0.636700 52.000000
3.864394 -1.571783 0.636557 64.000000
3.860470 -1.584007 0.636700 40.000000
3.854677 -1.595465 0.636557 49.000000
3.851591 -1.608045 0.636843 48.000000
3.847552 -1.620238 0.636986 59.000000
3.838008 -1.630101 0.636271 41.000000
4.109414 -0.790374 0.587251 21.000000
4.076809 -0.797078 0.583188 37.000000
4.068511 -0.808422 0.582402 39.000000
4.062124 -0.820115 0.581878 35.000000
4.052791 -0.831179 0.580961 70.000000
4.051192 -0.843811 0.581092 40.000000
4.049554 -0.856441 0.581223 44.000000
4.048846 -0.869277 0.581485 53.000000
4.047129 -0.881906 0.581616 45.000000
4.047308 -0.894961 0.582009 56.000000
4.040674 -0.906505 0.581485 45.000000
4.035941 -0.918457 0.581223 42.000000
4.029240 -0.929943 0.580699 46.000000
4.021542 -0.941170 0.580043 47.000000
4.018636 -0.953503 0.580043 46.000000
4.015691 -0.965828 0.580043 61.000000
4.011746 -0.977908 0.579912 44.000000
4.010652 -0.990687 0.580174 63.000000
4.005670 -1.002506 0.579912 49.000000
4.002576 -1.014790 0.579912 52.000000
3.999444 -1.027065 0.579912 34.000000
3.992436 -1.038332 0.579388 61.000000
3.989232 -1.050576 0.579388 54.000000
3.986948 -1.063065 0.579519 46.000000
3.989410 -1.076842 0.580305 49.000000
3.989913 -1.090122 0.580830 38.000000
3.987505 -1.102622 0.580961 49.000000
3.987922 -1.115920 0.581485 45.000000
3.984479 -1.128149 0.581485 41.000000
3.981000 -1.140368 0.581485 57.000000
3.974626 -1.151748 0.581092 44.000000
3.970122 -1.163658 0.580961 57.000000
3.960831 -1.174141 0.580174 48.000000
3.959109 -1.186857 0.580437 40.000000
3.957347 -1.199573 0.580699 58.000000
3.955543 -1.212290 0.580961 52.000000
3.953700 -1.225006 0.581223 48.000000
3.951815 -1.237723 0.581485 46.000000
3.947999 -1.249841 0.581485 66.000000
3.946978 -1.262854 0.581878 50.000000
3.942142 -1.274652 0.581747 40.000000
3.938213 -1.286741 0.581747 53.000000
3.932364 -1.298195 0.581485 34.000000
3.933065 -1.311822 0.582140 54.000000
3.927143 -1.323249 0.581878 58.000000
3.923065 -1.335291 0.581878 58.000000
3.918950 -1.347321 0.581878 61.000000
3.914798 -1.359338 0.581878 57.000000
3.911544 -1.371670 0.582009 57.000000
3.911990 -1.385319 0.582664 48.000000
3.909588 -1.397982 0.582926 48.000000
3.908078 -1.410980 0.583320 66.000000
3.903731 -1.422963 0.583320 50.000000
3.897486 -1.434248 0.583057 57.000000
3.893068 -1.446199 0.583057 60.000000
3.886756 -1.457439 0.582795 57.000000
3.875777 -1.466900 0.581878 40.000000
3.877741 -1.481261 0.582795 66.000000
3.876878 -1.494577 0.583320 65.000000
3.876894 -1.508262 0.583975 66.000000
3.878708 -1.522685 0.584892 61.000000
3.877705 -1.536039 0.585416 53.000000
3.873894 -1.548296 0.585547 51.000000
3.871884 -1.561286 0.585940 57.000000
3.863403 -1.571663 0.585416 47.000000
3.858563 -1.583508 0.585416 51.000000
3.854603 -1.595718 0.585547 46.000000
3.846030 -1.606008 0.585023 61.000000
3.843825 -1.618955 0.585416 44.000000
3.843402 -1.632678 0.586071 48.000000
3.874824 -1.660082 0.591313 23.000000
4.113920 -0.790224 0.536040 5.000000
4.046182 -0.790111 0.528072 30.000000
4.062243 -0.806188 0.530332 53.000000
4.056831 -0.818059 0.529975 48.000000
4.047493 -0.829108 0.529142 70.000000
4.042014 -0.840916 0.528786 42.000000
4.039415 -0.853313 0.528786 48.000000
4.037749 -0.865909 0.528905 56.000000
4.038954 -0.879136 0.529380 51.000000
4.036238 -0.891524 0.529380 53.000000
4.035422 -0.904336 0.529618 58.000000
4.034565 -0.917152 0.529856 52.000000
4.028830 -0.928857 0.529499 57.000000
4.024994 -0.940987 0.529380 49.000000
4.023054 -0.953560 0.529499 50.000000
4.018178 -0.965435 0.529261 45.000000
4.015198 -0.977758 0.529261 36.000000
4.011215 -0.989834 0.529142 51.000000
4.005270 -1.001414 0.528786 50.000000
4.000253 -1.013210 0.528548 49.000000
3.997126 -1.025478 0.528548 35.000000
3.990117 -1.036739 0.528072 59.000000
3.990758 -1.049985 0.528548 48.000000
3.989437 -1.062734 0.528786 57.000000
3.983282 -1.074194 0.528429 34.000000
3.983799 -1.087454 0.528905 60.000000
3.982359 -1.100199 0.529142 61.000000
3.977052 -1.111878 0.528905 59.000000
3.976489 -1.124884 0.529261 60.000000
3.973019 -1.137078 0.529261 69.000000
3.969512 -1.149262 0.529261 56.000000
3.967873 -1.161992 0.529499 47.000000
3.964289 -1.174160 0.529499 59.000000
3.961620 -1.186601 0.529618 67.000000
3.957961 -1.198750 0.529618 56.000000
3.953315 -1.210597 0.529499 42.000000
3.949582 -1.222720 0.529499 55.000000
3.944865 -1.234535 0.529380 66.000000
3.939165 -1.246033 0.529142 50.000000
3.937215 -1.258717 0.529380 45.000000
3.932390 -1.270485 0.529261 49.000000
3.931306 -1.283467 0.529618 59.000000
3.932065 -1.297076 0.530213 41.000000
3.929009 -1.309447 0.530332 51.000000
3.925914 -1.321811 0.530451 63.000000
3.926541 -1.335447 0.531045 49.000000
3.919608 -1.346520 0.530689 59.000000
3.917335 -1.359189 0.530926 50.000000
3.908461 -1.369561 0.530332 80.000000
3.907049 -1.382538 0.530689 61.000000
3.905595 -1.395520 0.531045 68.000000
3.904097 -1.408505 0.531402 71.000000
3.903490 -1.421835 0.531878 58.000000
3.901905 -1.434831 0.532234 60.000000
3.898416 -1.447140 0.532353 65.000000
3.893957 -1.459094 0.532353 54.000000
3.889463 -1.471033 0.532353 55.000000
3.883076 -1.482251 0.532116 74.000000
3.876657 -1.493444 0.531878 79.000000
3.872982 -1.505690 0.531997 56.000000
3.869269 -1.517928 0.532116 68.000000
3.867364 -1.530887 0.532472 69.000000
3.865416 -1.543848 0.532829 69.000000
3.857898 -1.554588 0.532472 58.000000
3.843911 -1.562679 0.531283 33.000000
3.850124 -1.578983 0.532710 47.000000
3.846179 -1.591167 0.532829 50.000000
3.841279 -1.602959 0.532829 50.000000
3.841835 -1.617046 0.533543 43.000000
4.050298 -0.804069 0.477969 30.000000
4.048787 -0.816688 0.478076 36.000000
4.044315 -0.828707 0.477862 31.000000
4.044673 -0.841719 0.478183 39.000000
4.043045 -0.854329 0.478289 41.000000
4.040405 -0.866729 0.478289 44.000000
4.038698 -0.879332 0.478396 36.000000
4.034039 -0.891290 0.478183 52.000000
4.032256 -0.903879 0.478289 59.000000
4.030434 -0.916466 0.478396 49.000000
4.029541 -0.929274 0.478610 40.000000
4.023766 -0.940953 0.478289 41.000000
4.020860 -0.953293 0.478289 36.000000
4.015017 -0.964927 0.477969 44.000000
4.009140 -0.976534 0.477649 52.000000
4.007090 -0.989068 0.477755 53.000000
4.004037 -1.001357 0.477755 49.000000
4.003838 -1.014369 0.478076 55.000000
4.004559 -1.027637 0.478503 52.000000
4.001387 -1.039918 0.478503 57.000000
3.999139 -1.052442 0.478610 43.000000
3.996852 -1.064963 0.478716 62.000000
3.990686 -1.076443 0.478396 44.000000
3.989284 -1.089205 0.478610 54.000000
3.984006 -1.100909 0.478396 46.000000
3.983482 -1.113930 0.478716 44.000000
3.984830 -1.127500 0.479250 45.000000
3.982308 -1.139994 0.479357 55.000000
3.978792 -1.152206 0.479357 46.000000
3.974284 -1.164128 0.479250 41.000000
3.966880 -1.175185 0.478823 40.000000
3.962304 -1.187064 0.478716 56.000000
3.954837 -1.198061 0.478289 58.000000
3.951143 -1.210189 0.478289 57.000000
3.948361 -1.222599 0.478396 61.000000
3.944592 -1.234707 0.478396 52.000000
3.941733 -1.247103 0.478503 48.000000
3.938835 -1.259493 0.478610 58.000000
3.933061 -1.270960 0.478396 47.000000
3.931034 -1.283638 0.478610 44.000000
3.929909 -1.296627 0.478930 52.000000
3.925913 -1.308677 0.478930 52.000000
3.924706 -1.321668 0.479250 51.000000
3.924398 -1.334984 0.479678 45.000000
3.919344 -1.346694 0.479571 53.000000
3.916133 -1.359038 0.479678 48.000000
3.911007 -1.370718 0.479571 58.000000
3.905846 -1.382378 0.479464 50.000000
3.905331 -1.395693 0.479891 53.000000
3.899160 -1.406993 0.479678 64.000000
3.896694 -1.419630 0.479891 52.000000
3.895120 -1.432608 0.480211 48.000000
3.890706 -1.444551 0.480211 63.000000
3.889049 -1.457528 0.480532 47.000000
3.887349 -1.470508 0.480852 37.000000
3.880033 -1.481363 0.480532 50.000000
3.877325 -1.493975 0.480745 57.000000
3.872723 -1.505864 0.480745 62.000000
3.866234 -1.517012 0.480532 61.000000
3.862486 -1.529232 0.480639 65.000000
3.857777 -1.541075 0.480639 54.000000
3.853030 -1.552903 0.480639 66.000000
3.855616 -1.567713 0.481493 57.000000
3.852628 -1.580289 0.481706 29.000000
3.850518 -1.593242 0.482027 49.000000
3.849282 -1.606580 0.482454 44.000000
3.851665 -1.621469 0.483308 25.000000
3.867235 -1.656033 0.486298 5.000000
4.047215 -0.803941 0.428359 26.000000
4.047657 -0.816944 0.428644 44.000000
4.040256 -0.828360 0.428169 58.000000
4.043543 -0.841967 0.428739 53.000000
4.038019 -0.853752 0.428454 64.000000
4.035381 -0.866136 0.428454 56.000000
4.033677 -0.878724 0.428549 59.000000
4.032907 -0.891524 0.428739 51.000000
4.030152 -0.903893 0.428739 40.000000
4.028331 -0.916473 0.428834 45.000000
4.024530 -0.928604 0.428739 60.000000
4.020693 -0.940720 0.428644 49.000000
4.017788 -0.953051 0.428644 62.000000
4.013877 -0.965141 0.428549 52.000000
4.008963 -0.976980 0.428359 69.000000
4.004980 -0.989036 0.428264 56.000000
4.001927 -1.001319 0.428264 54.000000
3.998836 -1.013592 0.428264 46.000000
3.995708 -1.025855 0.428264 50.000000
3.992542 -1.038109 0.428264 68.000000
3.989338 -1.050353 0.428264 61.000000
3.987059 -1.062843 0.428359 53.000000
3.982818 -1.074811 0.428264 74.000000
3.982383 -1.087811 0.428549 65.000000
3.979986 -1.100289 0.428644 48.000000
3.980427 -1.113566 0.429024 66.000000
3.980824 -1.126856 0.429403 53.000000
3.978305 -1.139338 0.429498 71.000000
3.970966 -1.150431 0.429119 83.000000
3.967417 -1.162608 0.429119 69.000000
3.960014 -1.173644 0.428739 63.000000
3.952580 -1.184645 0.428359 54.000000
3.946069 -1.195901 0.428074 61.000000
3.942381 -1.208001 0.428074 66.000000
3.942461 -1.221268 0.428454 62.000000
3.942495 -1.234546 0.428834 63.000000
3.938689 -1.246636 0.428834 41.000000
3.937691 -1.259623 0.429119 47.000000
3.936650 -1.272616 0.429403 48.000000
3.933673 -1.284996 0.429498 53.000000
3.931603 -1.297682 0.429688 57.000000
3.924770 -1.308794 0.429403 48.000000
3.920736 -1.320829 0.429403 59.000000
3.915723 -1.332531 0.429309 58.000000
3.907851 -1.343244 0.428929 67.000000
3.900889 -1.354248 0.428644 53.000000
3.896717 -1.366210 0.428644 64.000000
3.893445 -1.378490 0.428739 63.000000
3.890135 -1.390764 0.428834 57.000000
3.885850 -1.402692 0.428834 85.000000
3.881528 -1.414607 0.428834 73.000000
3.877170 -1.426509 0.428834 57.000000
3.872775 -1.438397 0.428834 78.000000
3.873938 -1.452367 0.429403 60.000000
3.872257 -1.465301 0.429688 63.000000
3.876114 -1.480368 0.430543 71.000000
3.874341 -1.493326 0.430828 71.000000
3.873453 -1.506648 0.431208 60.000000
3.870666 -1.519251 0.431398 72.000000
3.864135 -1.530387 0.431208 51.000000
3.855724 -1.540758 0.430828 48.000000
3.850979 -1.552580 0.430828 61.000000
3.848042 -1.565137 0.431018 48.000000
3.845064 -1.577690 0.431208 42.000000
3.839286 -1.589099 0.431113 51.000000
3.837148 -1.602020 0.431398 53.000000
3.834968 -1.614943 0.431683 55.000000
4.055771 -0.805156 0.377005 17.000000
4.053281 -0.817596 0.377005 32.000000
4.049778 -0.829827 0.376922 41.000000
4.047213 -0.842248 0.376922 37.000000
4.041685 -0.854042 0.376675 39.000000
4.040020 -0.866647 0.376757 37.000000
4.033447 -0.878189 0.376427 39.000000
4.033653 -0.891204 0.376675 43.000000
4.033818 -0.904229 0.376922 55.000000
4.033940 -0.917264 0.377169 43.000000
4.027222 -0.928739 0.376840 48.000000
4.023384 -0.940863 0.376757 39.000000
4.021448 -0.953432 0.376840 41.000000
4.018504 -0.965766 0.376840 52.000000
4.016490 -0.978326 0.376922 45.000000
4.016373 -0.991360 0.377169 47.000000
4.015246 -1.004161 0.377334 52.000000
4.011180 -1.016230 0.377252 48.000000
4.009009 -1.028780 0.377334 67.000000
3.997153 -1.038817 0.376592 52.000000
3.989128 -1.049807 0.376180 44.000000
3.983000 -1.061270 0.375933 61.000000
3.972990 -1.071668 0.375355 36.000000
3.970645 -1.084114 0.375438 39.000000
3.972103 -1.097618 0.375850 42.000000
3.971596 -1.110605 0.376098 47.000000
3.975841 -1.124956 0.376757 60.000000
3.974288 -1.137697 0.376922 52.000000
3.972693 -1.150439 0.377087 45.000000
3.971057 -1.163182 0.377252 38.000000
3.968426 -1.175643 0.377334 59.000000
3.963845 -1.187526 0.377252 44.000000
3.959230 -1.199393 0.377169 60.000000
3.953626 -1.210950 0.377005 48.000000
3.950844 -1.223369 0.377087 46.000000
3.947072 -1.235484 0.377087 52.000000
3.944213 -1.247888 0.377169 55.000000
3.939417 -1.259679 0.377087 42.000000
3.935534 -1.271759 0.377087 49.000000
3.933508 -1.284446 0.377252 56.000000
3.929549 -1.296508 0.377252 38.000000
3.923662 -1.307927 0.377087 52.000000
3.921520 -1.320595 0.377252 51.000000
3.918393 -1.332941 0.377334 47.000000
3.918998 -1.346576 0.377747 51.000000
3.915790 -1.358919 0.377829 37.000000
3.915364 -1.372245 0.378159 56.000000
3.910196 -1.383918 0.378077 39.000000
3.905932 -1.395908 0.378077 48.000000
3.901631 -1.407885 0.378077 58.000000
3.892612 -1.418142 0.377664 46.000000
3.882631 -1.428013 0.377169 44.000000
3.877297 -1.439571 0.377087 56.000000
3.871929 -1.451110 0.377005 52.000000
3.871187 -1.464393 0.377334 54.000000
3.872262 -1.478396 0.377829 52.000000
3.868639 -1.490627 0.377912 51.000000
3.867762 -1.503934 0.378241 64.000000
3.866841 -1.517250 0.378571 50.000000
3.861242 -1.528739 0.378489 51.000000
3.854682 -1.539838 0.378324 55.000000
3.851789 -1.552402 0.378489 46.000000
3.847931 -1.564587 0.378571 48.000000
3.847723 -1.578277 0.378984 46.000000
3.846546 -1.591599 0.379313 51.000000
3.842565 -1.603776 0.379396 44.000000
3.840382 -1.616718 0.379643 42.000000
3.850998 -1.635115 0.381045 7.000000
4.041433 -0.804255 0.326824 15.000000
4.038947 -0.816650 0.326824 33.000000
4.038377 -0.829438 0.326965 50.000000
4.037766 -0.842231 0.327106 33.000000
4.035163 -0.854614 0.327106 48.000000
4.041300 -0.868875 0.327742 42.000000
4.054209 -0.884667 0.328872 40.000000
4.061216 -0.899255 0.329578 41.000000
4.058438 -0.911711 0.329578 46.000000
4.058539 -0.924821 0.329790 56.000000
4.058599 -0.937941 0.330002 51.000000
4.070271 -0.953798 0.331061 39.000000
4.069267 -0.966742 0.331203 31.000000
4.069191 -0.979921 0.331415 33.000000
4.056475 -0.990038 0.330708 41.000000
4.037923 -0.998652 0.329578 53.000000
4.059032 -1.017090 0.331344 35.000000
4.036555 -1.024635 0.329931 47.000000
4.033392 -1.037014 0.329931 49.000000
4.043707 -1.052898 0.330920 39.000000
4.046246 -1.066823 0.331344 39.000000
4.025605 -1.074606 0.330073 45.000000
4.025178 -1.087731 0.330284 33.000000
4.010275 -1.096920 0.329437 45.000000
3.996315 -1.106294 0.328660 38.000000
3.997705 -1.119894 0.329013 41.000000
3.989452 -1.130794 0.328660 42.000000
3.992676 -1.144951 0.329154 53.000000
4.010223 -1.163303 0.330708 42.000000
4.012378 -1.177284 0.331132 46.000000
4.009704 -1.189872 0.331203 45.000000
4.011768 -1.203887 0.331626 47.000000
3.998509 -1.213295 0.330920 48.000000
4.000490 -1.227311 0.331344 32.000000
3.989084 -1.237216 0.330779 50.000000
3.978606 -1.247362 0.330284 28.000000
3.990927 -1.264681 0.331485 38.000000
3.987978 -1.277223 0.331556 39.000000
3.967906 -1.284234 0.330355 28.000000
3.961103 -1.295472 0.330143 21.000000
3.956163 -1.307306 0.330073 23.000000
3.952133 -1.319437 0.330073 30.000000
3.984932 -1.343978 0.332827 18.000000
3.996844 -1.361661 0.334028 35.000000
4.016230 -1.382025 0.335793 32.000000
4.028933 -1.400230 0.337065 26.000000
4.027442 -1.413574 0.337277 26.000000
4.024967 -1.426589 0.337418 28.000000
4.016814 -1.437587 0.337135 31.000000
4.041470 -1.460405 0.339325 48.000000
4.019164 -1.466307 0.337983 37.000000
4.015583 -1.478975 0.338053 39.000000
4.042819 -1.503098 0.340455 48.000000
4.028848 -1.511992 0.339749 40.000000
4.009263 -1.518695 0.338618 27.000000
4.023221 -1.538108 0.340031 44.000000
4.011038 -1.547573 0.339466 43.000000
3.999764 -1.557340 0.338972 40.000000
3.986611 -1.566323 0.338336 28.000000
4.029084 -1.597282 0.341938 7.000000
4.005896 -1.630914 0.341302 7.000000
4.284055 -0.974945 0.290902 15.000000
4.251862 -0.981345 0.289159 42.000000
4.257579 -0.996434 0.289682 36.000000
4.259359 -1.010644 0.289972 37.000000
4.254297 -1.023239 0.289856 34.000000
4.259867 -1.038415 0.290379 49.000000
4.268291 -1.054353 0.291076 51.000000
4.272783 -1.069383 0.291541 52.000000
4.278192 -1.084696 0.292063 30.000000
4.293215 -1.102535 0.293167 39.000000
4.297542 -1.117713 0.293632 72.000000
4.306642 -1.134198 0.294387 52.000000
4.310859 -1.149464 0.294852 66.000000
4.322733 -1.166848 0.295781 104.000000
4.328762 -1.182737 0.296362 64.000000
4.334735 -1.198673 0.296943 85.000000
4.338728 -1.214119 0.297407 61.000000
4.338825 -1.228513 0.297640 59.000000
4.333116 -1.241268 0.297524 69.000000
4.329288 -1.254556 0.297524 70.000000
4.331166 -1.269518 0.297872 43.000000
4.310023 -1.277691 0.296827 93.000000
4.308951 -1.291768 0.297001 53.000000
4.304968 -1.304981 0.297001 54.000000
4.300944 -1.318183 0.297001 52.000000
4.297833 -1.331667 0.297059 58.000000
4.296586 -1.345742 0.297233 61.000000
4.299098 -1.361027 0.297640 46.000000
4.293001 -1.373601 0.297524 64.000000
4.290667 -1.387380 0.297640 53.000000
4.281645 -1.398987 0.297349 71.000000
4.282073 -1.413681 0.297640 53.000000
4.264458 -1.422388 0.296827 81.000000
4.263858 -1.436740 0.297059 58.000000
4.246200 -1.445310 0.296246 76.000000
4.238914 -1.457357 0.296071 84.000000
4.225935 -1.467407 0.295549 70.000000
4.218587 -1.479373 0.295374 79.000000
4.207441 -1.489975 0.294968 66.000000
4.201910 -1.502540 0.294910 77.000000
4.194464 -1.514407 0.294735 71.000000
4.187922 -1.526585 0.294619 88.000000
4.175725 -1.536667 0.294155 70.000000
4.153210 -1.542864 0.293051 34.000000
4.150327 -1.556300 0.293167 37.000000
4.148333 -1.570086 0.293341 29.000000
4.348376 -1.061996 0.242627 8.000000
4.318914 -1.068859 0.241379 33.000000
4.323367 -1.084046 0.241749 45.000000
4.324862 -1.098533 0.241980 43.000000
4.326308 -1.113040 0.242211 62.000000
4.316106 -1.124546 0.241887 97.000000
4.314568 -1.138291 0.241980 93.000000
4.305264 -1.149978 0.241702 50.000000
4.298823 -1.162399 0.241564 79.000000
4.291382 -1.174528 0.241379 51.000000
4.304125 -1.192218 0.242165 92.000000
4.309105 -1.207841 0.242581 102.000000
4.281352 -1.214248 0.241425 50.000000
4.289129 -1.230680 0.241980 84.000000
4.273820 -1.240495 0.241425 61.000000
4.260409 -1.250790 0.240963 49.000000
4.257509 -1.264138 0.241009 59.000000
4.265093 -1.280639 0.241564 88.000000
4.249672 -1.290238 0.241009 55.000000
4.250470 -1.304734 0.241240 51.000000
4.268392 -1.324572 0.242303 85.000000
4.251916 -1.333778 0.241702 51.000000
4.247804 -1.346816 0.241702 46.000000
4.246506 -1.360756 0.241841 35.000000
4.247063 -1.375315 0.242072 48.000000
4.252318 -1.391442 0.242535 84.000000
4.233802 -1.399782 0.241841 43.000000
4.238015 -1.415610 0.242257 108.000000
4.227973 -1.426691 0.241980 56.000000
4.226413 -1.440622 0.242119 90.000000
4.223863 -1.454231 0.242211 102.000000
4.217494 -1.466527 0.242119 62.000000
4.212975 -1.479459 0.242119 43.000000
4.215007 -1.494713 0.242442 72.000000
4.204758 -1.505618 0.242165 81.000000
4.211393 -1.522584 0.242720 71.000000
4.245179 -1.549531 0.244615 24.000000
4.212283 -1.552193 0.243228 6.000000
4.380078 -1.125663 0.188829 13.000000
4.346621 -1.131289 0.187780 35.000000
4.322835 -1.139269 0.187069 66.000000
4.304835 -1.148659 0.186561 40.000000
4.295502 -1.160297 0.186358 49.000000
4.286139 -1.171888 0.186155 38.000000
4.268075 -1.181032 0.185647 65.000000
4.258657 -1.192504 0.185444 149.000000
4.257863 -1.206381 0.185546 62.000000
4.250299 -1.218336 0.185410 46.000000
4.251340 -1.232763 0.185579 93.000000
4.238907 -1.243267 0.185275 38.000000
4.234115 -1.255982 0.185241 45.000000
4.230242 -1.268966 0.185241 45.000000
4.229198 -1.282809 0.185343 41.000000
4.230975 -1.297537 0.185546 32.000000
4.239384 -1.314359 0.185986 97.000000
4.231517 -1.326164 0.185850 52.000000
4.237908 -1.342460 0.186223 34.000000
4.233770 -1.355456 0.186223 44.000000
4.231493 -1.369054 0.186290 59.000000
4.228223 -1.382340 0.186324 39.000000
4.222064 -1.394678 0.186257 43.000000
4.217766 -1.407625 0.186257 132.000000
4.215321 -1.421197 0.186324 47.000000
4.209049 -1.433478 0.186257 125.000000
4.213137 -1.449311 0.186561 58.000000
4.214335 -1.464199 0.186764 44.000000
4.217367 -1.479769 0.187035 37.000000
4.220344 -1.495372 0.187306 14.000000
4.312757 -1.136210 0.132376 32.000000
4.293795 -1.145317 0.132030 40.000000
4.281573 -1.156142 0.131835 50.000000
4.275112 -1.168482 0.131770 31.000000
4.249343 -1.175468 0.131272 55.000000
4.242829 -1.187691 0.131207 81.000000
4.243975 -1.202063 0.131315 120.000000
4.230656 -1.212326 0.131099 59.000000
4.226917 -1.225300 0.131099 73.000000
4.225056 -1.238825 0.131142 79.000000
4.217401 -1.250645 0.131056 67.000000
4.214502 -1.263865 0.131077 59.000000
4.215389 -1.278238 0.131186 58.000000
4.212404 -1.291458 0.131207 72.000000
4.214152 -1.306149 0.131337 86.000000
4.212033 -1.319669 0.131380 76.000000
4.208918 -1.332887 0.131402 53.000000
4.204809 -1.345794 0.131402 64.000000
4.200660 -1.358688 0.131402 74.000000
4.190769 -1.369707 0.131272 45.000000
4.197940 -1.386316 0.131532 135.000000
4.193667 -1.399189 0.131532 67.000000
4.192198 -1.413005 0.131597 78.000000
4.193522 -1.427792 0.131727 62.000000
4.205195 -1.446174 0.132094 32.000000
4.191294 -1.455791 0.131878 37.000000
4.283726 -1.143823 0.077049 25.000000
4.264752 -1.152783 0.076901 52.000000
4.252514 -1.163486 0.076818 38.000000
4.245070 -1.175460 0.076781 48.000000
4.232779 -1.186049 0.076697 53.000000
4.216614 -1.195482 0.076577 63.000000
4.221577 -1.210895 0.076660 129.000000
4.202477 -1.219381 0.076512 44.000000
4.196797 -1.231705 0.076494 56.000000
4.197791 -1.245998 0.076540 64.000000
4.193949 -1.258871 0.076540 61.000000
4.191024 -1.272022 0.076549 49.000000
4.190926 -1.286048 0.076586 57.000000
4.189825 -1.299789 0.076614 62.000000
4.187726 -1.313235 0.076633 57.000000
4.186537 -1.326983 0.076660 51.000000
4.183398 -1.340127 0.076670 60.000000
4.183073 -1.354187 0.076707 73.000000
4.178898 -1.367014 0.076707 73.000000
4.176584 -1.380456 0.076725 103.000000
4.177071 -1.394847 0.076771 47.000000
4.180351 -1.410213 0.076845 57.000000
4.181684 -1.424968 0.076901 47.000000
4.178238 -1.438116 0.076910 34.000000
4.179474 -1.452898 0.076966 51.000000
4.183488 -1.468696 0.077049 24.000000
4.259021 -1.136052 0.021615 31.000000
4.249722 -1.147550 0.021635 36.000000
4.242323 -1.159529 0.021648 47.000000
4.233926 -1.171207 0.021665 43.000000
4.226461 -1.183114 0.021678 38.000000
4.214152 -1.193625 0.021708 53.000000
4.202778 -1.204346 0.021734 77.000000
4.196182 -1.216400 0.021744 62.000000
4.188592 -1.228144 0.021758 52.000000
4.184804 -1.240988 0.021758 70.000000
4.180020 -1.253534 0.021761 73.000000
4.173283 -1.265483 0.021771 66.000000
4.169381 -1.278280 0.021771 62.000000
4.165440 -1.291066 0.021771 51.000000
4.162413 -1.304137 0.021768 60.000000
4.160299 -1.317505 0.021761 47.000000
4.159095 -1.331176 0.021751 52.000000
4.159750 -1.345467 0.021734 51.000000
4.158454 -1.359154 0.021724 46.000000
4.159013 -1.373472 0.021708 61.000000
4.161420 -1.388439 0.021685 51.000000
4.164722 -1.403753 0.021658 41.000000
4.168917 -1.419422 0.021628 51.000000
4.171162 -1.434480 0.021605 60.000000
4.174299 -1.449893 0.021578 42.000000
4.178325 -1.465669 0.021549 31.000000
4.246101 -1.132191 -0.032605 37.000000
4.234886 -1.143127 -0.032480 46.000000
4.227501 -1.155060 -0.032417 60.000000
4.218155 -1.166425 -0.032323 55.000000
4.209743 -1.178013 -0.032244 38.000000
4.198412 -1.188743 -0.032118 65.000000
4.189939 -1.200240 -0.032040 66.000000
4.183356 -1.212254 -0.031993 70.000000
4.177699 -1.224520 -0.031961 47.000000
4.173922 -1.237331 -0.031961 52.000000
4.169149 -1.249844 -0.031946 39.000000
4.165294 -1.262629 -0.031946 48.000000
4.159489 -1.274815 -0.031914 52.000000
4.154603 -1.287275 -0.031899 50.000000
4.150635 -1.300015 -0.031899 51.000000
4.149487 -1.313648 -0.031946 50.000000
4.148293 -1.327287 -0.031993 64.000000
4.147056 -1.340930 -0.032040 49.000000
4.147675 -1.355200 -0.032118 39.000000
4.149194 -1.369800 -0.032213 43.000000
4.151612 -1.384738 -0.032323 42.000000
4.160609 -1.401940 -0.032543 77.000000
4.165753 -1.417920 -0.032700 62.000000
4.160438 -1.430369 -0.032684 81.000000
4.185310 -1.453296 -0.033171 44.000000
4.197815 -1.472087 -0.033454 32.000000
4.207417 -1.489967 -0.033689 14.000000
4.268608 -1.124591 -0.085913 17.000000
4.244853 -1.132277 -0.085330 32.000000
4.229778 -1.142170 -0.084997 45.000000
4.223361 -1.154352 -0.084914 45.000000
4.216909 -1.166505 -0.084831 38.000000
4.207534 -1.177821 -0.084664 38.000000
4.198130 -1.189091 -0.084498 41.000000
4.182930 -1.198664 -0.084165 48.000000
4.174432 -1.210101 -0.084026 60.000000
4.166862 -1.221779 -0.083915 68.000000
4.159261 -1.233421 -0.083804 47.000000
4.154500 -1.245888 -0.083776 64.000000
4.147788 -1.257759 -0.083693 62.000000
4.142954 -1.270185 -0.083665 49.000000
4.139992 -1.283186 -0.083693 55.000000
4.134128 -1.295284 -0.083638 77.000000
4.130135 -1.307961 -0.083638 57.000000
4.126102 -1.320626 -0.083638 75.000000
4.129641 -1.335737 -0.083860 57.000000
4.130274 -1.349952 -0.083998 55.000000
4.136556 -1.366063 -0.084304 39.000000
4.140880 -1.381592 -0.084553 73.000000
4.149885 -1.398756 -0.084942 57.000000
4.162608 -1.417276 -0.085441 43.000000
4.168639 -1.433613 -0.085746 32.000000
4.170832 -1.448690 -0.085941 36.000000
4.171084 -1.463132 -0.086079 33.000000
4.212751 -1.492264 -0.087439 5.000000
4.222331 -1.139737 -0.139603 26.000000
4.201465 -1.147944 -0.138878 50.000000
4.197923 -1.160828 -0.138878 51.000000
4.188569 -1.172086 -0.138636 36.000000
4.178224 -1.183025 -0.138354 56.000000
4.171693 -1.195012 -0.138233 58.000000
4.168007 -1.207805 -0.138233 78.000000
4.157570 -1.218619 -0.137951 69.000000
4.155728 -1.231936 -0.138031 86.000000
4.148101 -1.243532 -0.137870 114.000000
4.143310 -1.255962 -0.137830 88.000000
4.138482 -1.268375 -0.137789 76.000000
4.132662 -1.280474 -0.137709 73.000000
4.126807 -1.292549 -0.137628 69.000000
4.121870 -1.304903 -0.137588 54.000000
4.113089 -1.316019 -0.137386 35.000000
4.117588 -1.331399 -0.137749 41.000000
4.119183 -1.345888 -0.137991 36.000000
4.119778 -1.360086 -0.138192 44.000000
4.124116 -1.375565 -0.138555 27.000000
4.131239 -1.392040 -0.139039 40.000000
4.143975 -1.410505 -0.139764 42.000000
4.155691 -1.428736 -0.140450 32.000000
4.166390 -1.446724 -0.141094 31.000000
4.232571 -1.130581 -0.192591 23.000000
4.226190 -1.142780 -0.192434 24.000000
4.205325 -1.150999 -0.191492 37.000000
4.186375 -1.159634 -0.190654 59.000000
4.179913 -1.171665 -0.190497 50.000000
4.167651 -1.182033 -0.190026 62.000000
4.156325 -1.192612 -0.189607 41.000000
4.147851 -1.203967 -0.189346 65.000000
4.140305 -1.215563 -0.189136 52.000000
4.135599 -1.227975 -0.189084 71.000000
4.124160 -1.238362 -0.188665 36.000000
4.127986 -1.253328 -0.189084 42.000000
4.125076 -1.266279 -0.189136 52.000000
4.119264 -1.278338 -0.189032 27.000000
4.119135 -1.292164 -0.189241 60.000000
4.124671 -1.307811 -0.189764 44.000000
4.121591 -1.320763 -0.189817 56.000000
4.125120 -1.335861 -0.190235 85.000000
4.127647 -1.350683 -0.190602 68.000000
4.130121 -1.365533 -0.190968 63.000000
4.137280 -1.381991 -0.191596 38.000000
4.137752 -1.396273 -0.191858 41.000000
4.142902 -1.412180 -0.192381 41.000000
4.142327 -1.426183 -0.192591 41.000000
4.139818 -1.439540 -0.192695 32.000000
4.135382 -1.452234 -0.192695 23.000000
4.234448 -1.115179 -0.246729 21.000000
4.217508 -1.124564 -0.245823 35.000000
4.203441 -1.134636 -0.245112 36.000000
4.184538 -1.143317 -0.244076 42.000000
4.170431 -1.153223 -0.243365 40.000000
4.155343 -1.162785 -0.242588 51.000000
4.152716 -1.175800 -0.242653 39.000000
4.145251 -1.187435 -0.242394 39.000000
4.141589 -1.200147 -0.242394 41.000000
4.135972 -1.212286 -0.242265 45.000000
4.141801 -1.227806 -0.242912 37.000000
4.132279 -1.238787 -0.242523 54.000000
4.126550 -1.250880 -0.242394 52.000000
4.116968 -1.261779 -0.242006 66.000000
4.113078 -1.274404 -0.242006 49.000000
4.108196 -1.286718 -0.241941 51.000000
4.107083 -1.300220 -0.242135 51.000000
4.104025 -1.313118 -0.242200 39.000000
4.101876 -1.326317 -0.242329 42.000000
4.106325 -1.341686 -0.242912 52.000000
4.108822 -1.356468 -0.243365 88.000000
4.114108 -1.372225 -0.244012 73.000000
4.113660 -1.386116 -0.244270 49.000000
4.116946 -1.401303 -0.244788 50.000000
4.123008 -1.417496 -0.245500 48.000000
4.123353 -1.431776 -0.245823 32.000000
4.123649 -1.446071 -0.246147 37.000000
4.121075 -1.459382 -0.246276 26.000000
4.231850 -1.102617 -0.298337 17.000000
4.215913 -1.112291 -0.297341 30.000000
4.204774 -1.123164 -0.296729 30.000000
4.192645 -1.133718 -0.296040 33.000000
4.175683 -1.142895 -0.294969 36.000000
4.154860 -1.150914 -0.293591 41.000000
4.145548 -1.162042 -0.293131 40.000000
4.140045 -1.174211 -0.292978 51.000000
4.138340 -1.187457 -0.293131 52.000000
4.138508 -1.201258 -0.293438 35.000000
4.130976 -1.212827 -0.293131 49.000000
4.132971 -1.227196 -0.293591 61.000000
4.132051 -1.240730 -0.293820 32.000000
4.121547 -1.251375 -0.293285 44.000000
4.112922 -1.262552 -0.292902 30.000000
4.106172 -1.274278 -0.292672 58.000000
4.100341 -1.286274 -0.292519 32.000000
4.098276 -1.299449 -0.292672 41.000000
4.095220 -1.312321 -0.292749 42.000000
4.093071 -1.325492 -0.292902 48.000000
4.106044 -1.343620 -0.294280 112.000000
4.091489 -1.352771 -0.293438 59.000000
4.092048 -1.366896 -0.293820 82.000000
4.095394 -1.381992 -0.294433 56.000000
4.100573 -1.397764 -0.295198 37.000000
4.124551 -1.420068 -0.297495 26.000000
4.113581 -1.430425 -0.296959 37.000000
4.120463 -1.447000 -0.297877 40.000000
4.125403 -1.462964 -0.298643 29.000000
4.201208 -1.107984 -0.349416 25.000000
4.183354 -1.117012 -0.348085 33.000000
4.179908 -1.129841 -0.348085 45.000000
4.174500 -1.142134 -0.347908 30.000000
4.156577 -1.150947 -0.346577 50.000000
4.152068 -1.163425 -0.346489 44.000000
4.147521 -1.175886 -0.346400 46.000000
4.145808 -1.189155 -0.346577 40.000000
4.144054 -1.202424 -0.346755 51.000000
4.143212 -1.215973 -0.347021 34.000000
4.144237 -1.230097 -0.347464 50.000000
4.147121 -1.244810 -0.348085 57.000000
4.149002 -1.259264 -0.348618 48.000000
4.146070 -1.272279 -0.348707 46.000000
4.148807 -1.287060 -0.349328 47.000000
4.151492 -1.301869 -0.349949 90.000000
4.144629 -1.313696 -0.349682 69.000000
4.136785 -1.325190 -0.349328 49.000000
4.125120 -1.335420 -0.348618 47.000000
4.118163 -1.347140 -0.348352 41.000000
4.113065 -1.359455 -0.348263 55.000000
4.103207 -1.370174 -0.347731 55.000000
4.100871 -1.383393 -0.347908 54.000000
4.099436 -1.396932 -0.348174 54.000000
4.106432 -1.413393 -0.349239 30.000000
4.103959 -1.426639 -0.349416 27.000000
4.101442 -1.439884 -0.349594 30.000000
4.103577 -1.454790 -0.350215 20.000000
4.197203 -1.106580 -0.403886 31.000000
4.181292 -1.116119 -0.402570 47.000000
4.182650 -1.130238 -0.403076 39.000000
4.172445 -1.141230 -0.402368 46.000000
4.166048 -1.153230 -0.402064 45.000000
4.164406 -1.166542 -0.402266 55.000000
4.161765 -1.179584 -0.402368 49.000000
4.159083 -1.192620 -0.402469 55.000000
4.157315 -1.205928 -0.402671 41.000000
4.153596 -1.218677 -0.402671 45.000000
4.157469 -1.233676 -0.403481 57.000000
4.156523 -1.247283 -0.403785 35.000000
4.158389 -1.261760 -0.404392 36.000000
4.163059 -1.277136 -0.405303 35.000000
4.202835 -1.303446 -0.409960 156.000000
4.169386 -1.307116 -0.406822 51.000000
4.161561 -1.318700 -0.406417 43.000000
4.142336 -1.326611 -0.404797 35.000000
4.135406 -1.338395 -0.404494 38.000000
4.125607 -1.349222 -0.403886 37.000000
4.115780 -1.360001 -0.403279 44.000000
4.110644 -1.372307 -0.403178 43.000000
4.107358 -1.385230 -0.403279 52.000000
4.107798 -1.399427 -0.403785 62.000000
4.107248 -1.413317 -0.404190 48.000000
4.103833 -1.426238 -0.404291 46.000000
4.106009 -1.441126 -0.405000 33.000000
4.124075 -1.461687 -0.407429 18.000000
4.181873 -1.115838 -0.454391 43.000000
4.181307 -1.129440 -0.454730 52.000000
4.179739 -1.142787 -0.454956 51.000000
4.178129 -1.156135 -0.455182 55.000000
4.175519 -1.169216 -0.455296 52.000000
4.174780 -1.182833 -0.455635 64.000000
4.171132 -1.195636 -0.455635 50.000000
4.167444 -1.208427 -0.455635 48.000000
4.159904 -1.220088 -0.455182 41.000000
4.159951 -1.233975 -0.455635 43.000000
4.156145 -1.246732 -0.455635 37.000000
4.167513 -1.264093 -0.457443 56.000000
4.154117 -1.273959 -0.456313 25.000000
4.188149 -1.298470 -0.460834 71.000000
4.178457 -1.309529 -0.460156 47.000000
4.174419 -1.322343 -0.460156 50.000000
4.162773 -1.332719 -0.459252 43.000000
4.152048 -1.343342 -0.458460 50.000000
4.142241 -1.354221 -0.457782 47.000000
4.132406 -1.365053 -0.457104 35.000000
4.122543 -1.375837 -0.456426 63.000000
4.118303 -1.388478 -0.456426 59.000000
4.116846 -1.402067 -0.456765 53.000000
4.112525 -1.414691 -0.456765 51.000000
4.108165 -1.427302 -0.456765 53.000000
4.108454 -1.441544 -0.457330 63.000000
4.131171 -1.463767 -0.460608 16.000000
4.197582 -1.120463 -0.510673 29.000000
4.189335 -1.132043 -0.510046 37.000000
4.185843 -1.144890 -0.510046 45.000000
4.184223 -1.158256 -0.510297 40.000000
4.182561 -1.171622 -0.510548 39.000000
4.178947 -1.184448 -0.510548 59.000000
4.177201 -1.197810 -0.510799 48.000000
4.174459 -1.210896 -0.510924 39.000000
4.169772 -1.223418 -0.510799 48.000000
4.171707 -1.237897 -0.511550 29.000000
4.167889 -1.250690 -0.511550 26.000000
4.170679 -1.265486 -0.512428 27.000000
4.174950 -1.308859 -0.514558 17.000000
4.172806 -1.322260 -0.514809 42.000000
4.166840 -1.334451 -0.514558 44.000000
4.159894 -1.346313 -0.514183 45.000000
4.152915 -1.358145 -0.513807 43.000000
4.142134 -1.368702 -0.512929 44.000000
4.130387 -1.378892 -0.511927 48.000000
4.126137 -1.391558 -0.511927 48.000000
4.124666 -1.405169 -0.512303 52.000000
4.120336 -1.417817 -0.512303 66.000000
4.132836 -1.436309 -0.514558 29.000000
4.114367 -1.444057 -0.512679 48.000000
4.128621 -1.463296 -0.515185 15.000000
4.192306 -1.117061 -0.563655 17.000000
4.188859 -1.129917 -0.563655 32.000000
4.188239 -1.143546 -0.564067 23.000000
4.187575 -1.157182 -0.564479 57.000000
4.183051 -1.169757 -0.564342 54.000000
4.175630 -1.181506 -0.563792 60.000000
4.176747 -1.195674 -0.564479 44.000000
4.174962 -1.209034 -0.564754 55.000000
4.175986 -1.223229 -0.565441 60.000000
4.176012 -1.237161 -0.565991 57.000000
4.173146 -1.250251 -0.566129 51.000000
4.187301 -1.268507 -0.568740 35.000000
4.195028 -1.327267 -0.572176 34.000000
4.186219 -1.338622 -0.571489 48.000000
4.177380 -1.349936 -0.570802 61.000000
4.166628 -1.360593 -0.569840 50.000000
4.153028 -1.370265 -0.568465 48.000000
4.138469 -1.379553 -0.566953 63.000000
4.128585 -1.390346 -0.566129 75.000000
4.124300 -1.403006 -0.566129 61.000000
4.119039 -1.415331 -0.565991 63.000000
4.120292 -1.429910 -0.566816 36.000000
4.119625 -1.443855 -0.567366 36.000000
4.224867 -1.142422 -0.621778 26.000000
4.216574 -1.154075 -0.621032 25.000000
4.195859 -1.162259 -0.618346 35.000000
4.186561 -1.173526 -0.617451 48.000000
4.181990 -1.186095 -0.617302 45.000000
4.180232 -1.199465 -0.617600 42.000000
4.185080 -1.214763 -0.618943 41.000000
4.187026 -1.229266 -0.619838 51.000000
4.190819 -1.244356 -0.621032 46.000000
4.186034 -1.256923 -0.620883 42.000000
4.184997 -1.270621 -0.621330 10.000000
4.233189 -1.342187 -0.631475 20.000000
4.210217 -1.349138 -0.628491 28.000000
4.188183 -1.356265 -0.625657 43.000000
4.178363 -1.367264 -0.624762 40.000000
4.165699 -1.377285 -0.623419 38.000000
4.148322 -1.385676 -0.621330 41.000000
4.135619 -1.395554 -0.619987 42.000000
4.132254 -1.408554 -0.620137 50.000000
4.120432 -1.418651 -0.618943 61.000000
4.120731 -1.432909 -0.619689 39.000000
4.129378 -1.450127 -0.621778 22.000000
4.292446 -1.144553 -0.686327 19.000000
4.227934 -1.141250 -0.676017 66.000000
4.221557 -1.153435 -0.675534 89.000000
4.211340 -1.164539 -0.674406 72.000000
4.202995 -1.176124 -0.673601 57.000000
4.202216 -1.189820 -0.674084 46.000000
4.198546 -1.202706 -0.674084 72.000000
4.194836 -1.215582 -0.674084 78.000000
4.193928 -1.229279 -0.674567 66.000000
4.195815 -1.243823 -0.675534 44.000000
4.198596 -1.258675 -0.676662 15.000000
4.261194 -1.363421 -0.691482 22.000000
4.217551 -1.363732 -0.684716 50.000000
4.187081 -1.368079 -0.680206 65.000000
4.157560 -1.372563 -0.675856 102.000000
4.152394 -1.384999 -0.675695 115.000000
4.161219 -1.402145 -0.677950 55.000000
4.160634 -1.416177 -0.678595 54.000000
4.147870 -1.426047 -0.677145 79.000000
4.148137 -1.440385 -0.677950 77.000000
4.148355 -1.454737 -0.678756 37.000000
4.239418 -1.132408 -0.731626 30.000000
4.230218 -1.143868 -0.730588 40.000000
4.220989 -1.155282 -0.729550 53.000000
4.209830 -1.166125 -0.728166 65.000000
4.204337 -1.178504 -0.727821 85.000000
4.205439 -1.192740 -0.728685 55.000000
4.204600 -1.206450 -0.729204 67.000000
4.207501 -1.221264 -0.730415 75.000000
4.208460 -1.235553 -0.731280 60.000000
4.210315 -1.250139 -0.732318 32.000000
4.239718 -1.358582 -0.742868 19.000000
4.225222 -1.368248 -0.740966 46.000000
4.208834 -1.377226 -0.738717 52.000000
4.199914 -1.388587 -0.737852 58.000000
4.190027 -1.399595 -0.736814 66.000000
4.177314 -1.409611 -0.735258 65.000000
4.167376 -1.420515 -0.734220 71.000000
