ply
format ascii 1.0
element vertex 1282
property float x
property float y
property float z
property float intensity
end_header
1.992456 0.327832 0.399906 81.000000
1.990538 0.321248 0.399370 52.000000
1.993458 0.315447 0.399728 71.000000
1.993444 0.309179 0.399549 72.000000
1.999247 0.303800 0.400442 62.000000
2.004063 0.298243 0.401157 62.000000
2.006915 0.292377 0.401514 74.000000
2.010725 0.286634 0.402050 80.000000
2.011595 0.280464 0.402050 76.000000
2.013421 0.274424 0.402229 93.000000
2.016204 0.268505 0.402586 114.000000
2.013116 0.261811 0.401871 96.000000
2.009029 0.255015 0.400978 75.000000
2.010778 0.248971 0.401157 86.000000
2.012509 0.242919 0.401335 73.000000
2.013245 0.236743 0.401335 86.000000
2.012985 0.230454 0.401157 83.000000
2.012704 0.224168 0.400978 76.000000
2.013382 0.217992 0.400978 83.000000
2.018934 0.212328 0.401871 64.000000
2.015661 0.205734 0.401157 71.000000
2.014324 0.199356 0.400800 77.000000
2.020803 0.193737 0.401871 89.000000
2.019428 0.187355 0.401514 76.000000
2.019994 0.181159 0.401514 77.000000
2.021520 0.175045 0.401693 70.000000
2.019106 0.168598 0.401157 77.000000
2.024518 0.162796 0.402050 85.000000
2.025008 0.156584 0.402050 88.000000
2.020572 0.150007 0.401157 103.000000
2.023968 0.144016 0.401693 83.000000
2.022436 0.137673 0.401335 87.000000
2.023831 0.131531 0.401514 102.000000
2.027171 0.125503 0.402050 93.000000
2.028529 0.119341 0.402229 65.000000
2.034780 0.113445 0.403300 86.000000
2.040031 0.107459 0.404193 89.000000
2.042317 0.101297 0.404551 85.000000
2.044584 0.095122 0.404908 68.000000
2.047815 0.088976 0.405444 80.000000
2.044146 0.082535 0.404729 96.000000
2.044389 0.076264 0.404729 79.000000
2.040680 0.069857 0.404015 77.000000
2.039902 0.063566 0.403836 94.000000
2.036153 0.057197 0.403122 79.000000
2.036319 0.050950 0.403122 69.000000
2.037449 0.044724 0.403300 82.000000
2.041512 0.038547 0.404015 70.000000
2.041621 0.032283 0.404015 87.000000
2.044662 0.026056 0.404551 66.000000
2.044732 0.019783 0.404551 85.000000
2.045767 0.013516 0.404729 77.000000
2.050718 0.007257 0.405623 76.000000
2.048763 0.000964 0.405265 89.000000
2.051708 -0.005329 0.405801 70.000000
2.051682 -0.011624 0.405801 81.000000
2.053605 -0.017936 0.406158 88.000000
2.060427 -0.024319 0.407409 56.000000
2.063294 -0.030684 0.407945 72.000000
2.062206 -0.036996 0.407766 65.000000
2.063067 -0.043344 0.407945 57.000000
2.060957 -0.049625 0.407587 57.000000
2.057844 -0.055867 0.407052 69.000000
2.055696 -0.062121 0.406694 55.000000
2.053529 -0.068361 0.406337 50.000000
2.054293 -0.074697 0.406516 71.000000
2.058970 -0.081194 0.407409 53.000000
2.061660 -0.087636 0.407945 60.000000
2.067279 -0.094231 0.409016 49.000000
2.068946 -0.100669 0.409374 53.000000
2.048975 -0.105995 0.405801 21.000000
2.053552 -0.112551 0.406694 14.000000
2.076977 -0.133024 0.411160 6.000000
2.067815 -0.151557 0.409731 10.000000
2.057038 -0.163461 0.407945 7.000000
1.994538 0.351968 0.376438 48.000000
1.991723 0.345172 0.375770 51.000000
1.988885 0.338396 0.375102 62.000000
1.989913 0.332292 0.375102 66.000000
1.991897 0.326346 0.375269 42.000000
1.991915 0.320076 0.375102 56.000000
1.988992 0.313347 0.374435 55.000000
1.994816 0.307999 0.375269 67.000000
2.000625 0.302618 0.376104 62.000000
2.008371 0.297494 0.377273 71.000000
2.012201 0.291757 0.377773 63.000000
2.012111 0.285443 0.377606 78.000000
2.012977 0.279269 0.377606 79.000000
2.013824 0.273091 0.377606 73.000000
2.014653 0.266912 0.377606 81.000000
2.011551 0.260221 0.376939 89.000000
2.009406 0.253677 0.376438 64.000000
2.010174 0.247511 0.376438 69.000000
2.011903 0.241461 0.376605 73.000000
2.018510 0.235977 0.377606 62.000000
2.019224 0.229783 0.377606 78.000000
2.018940 0.223478 0.377439 80.000000
2.020596 0.217389 0.377606 69.000000
2.024195 0.211498 0.378107 73.000000
2.021892 0.204987 0.377606 63.000000
2.024474 0.198977 0.377940 63.000000
2.025075 0.192765 0.377940 83.000000
2.020748 0.186097 0.377106 66.000000
2.023273 0.180072 0.377439 67.000000
2.022834 0.173779 0.377273 69.000000
2.019428 0.167244 0.376605 69.000000
2.019931 0.161048 0.376605 84.000000
2.019433 0.154774 0.376438 73.000000
2.020881 0.148651 0.376605 77.000000
2.024278 0.142660 0.377106 53.000000
2.024706 0.136449 0.377106 74.000000
2.028067 0.130428 0.377606 65.000000
2.028458 0.124205 0.377606 81.000000
2.032766 0.118213 0.378274 88.000000
2.036072 0.112140 0.378775 78.000000
2.033453 0.105738 0.378274 61.000000
2.039677 0.099791 0.379276 66.000000
2.039973 0.093533 0.379276 69.000000
2.043206 0.087402 0.379777 65.000000
2.047405 0.081292 0.380444 70.000000
2.045674 0.074937 0.380111 79.000000
2.042938 0.068560 0.379610 70.000000
2.042154 0.062261 0.379443 80.000000
2.042335 0.055996 0.379443 59.000000
2.046440 0.049828 0.380111 61.000000
2.047569 0.043571 0.380277 68.000000
2.047693 0.037289 0.380277 70.000000
2.046812 0.030991 0.380111 56.000000
2.048869 0.024736 0.380444 64.000000
2.051893 0.018478 0.380945 67.000000
2.048982 0.012164 0.380444 64.000000
2.049010 0.005878 0.380444 70.000000
2.047046 -0.000409 0.380111 51.000000
2.046050 -0.006687 0.379944 58.000000
2.049963 -0.012987 0.380611 53.000000
2.049914 -0.019276 0.380611 74.000000
2.051816 -0.025588 0.380945 69.000000
2.054686 -0.031927 0.381446 77.000000
2.054578 -0.038231 0.381446 61.000000
2.055437 -0.044555 0.381613 69.000000
2.058248 -0.050932 0.382114 68.000000
2.061038 -0.057327 0.382615 64.000000
2.063810 -0.063740 0.383115 64.000000
2.062619 -0.070038 0.382948 51.000000
2.063380 -0.076402 0.383115 57.000000
2.066091 -0.082849 0.383616 66.000000
2.068783 -0.089313 0.384117 46.000000
2.068499 -0.095659 0.384117 55.000000
2.064256 -0.101813 0.383449 37.000000
2.067873 -0.108350 0.384117 41.000000
2.071469 -0.114910 0.384785 52.000000
2.073075 -0.121378 0.385119 60.000000
2.081550 -0.128279 0.386621 33.000000
2.075243 -0.134286 0.385620 42.000000
2.080724 -0.141048 0.386621 10.000000
1.993061 0.371697 0.351551 59.000000
1.997107 0.366114 0.352016 67.000000
2.003082 0.360860 0.352791 61.000000
2.005153 0.354885 0.352945 81.000000
2.009152 0.349239 0.353410 68.000000
2.006319 0.342409 0.352791 57.000000
2.009309 0.336578 0.353100 73.000000
2.012282 0.330732 0.353410 85.000000
2.013287 0.324557 0.353410 66.000000
2.009394 0.317609 0.352636 92.000000
2.011335 0.311593 0.352791 80.000000
2.011305 0.305273 0.352636 108.000000
2.014186 0.299391 0.352945 88.000000
2.015095 0.293210 0.352945 106.000000
2.013051 0.286610 0.352481 75.000000
2.013921 0.280432 0.352481 97.000000
2.017709 0.274652 0.352945 103.000000
2.017562 0.268330 0.352791 92.000000
2.019356 0.262266 0.352945 86.000000
2.023091 0.256442 0.353410 91.000000
2.021908 0.249992 0.353100 80.000000
2.024627 0.244023 0.353410 89.000000
2.025366 0.237811 0.353410 105.000000
2.023141 0.231260 0.352945 97.000000
2.021877 0.224834 0.352636 92.000000
2.024522 0.218842 0.352945 101.000000
2.023219 0.212424 0.352636 86.000000
2.024844 0.206315 0.352791 89.000000
2.028417 0.200393 0.353255 87.000000
2.029022 0.194169 0.353255 86.000000
2.027641 0.187761 0.352945 78.000000
2.029191 0.181628 0.353100 79.000000
2.028755 0.175316 0.352945 101.000000
2.030267 0.169173 0.353100 90.000000
2.032747 0.163101 0.353410 86.000000
2.030282 0.156637 0.352945 80.000000
2.032724 0.150553 0.353255 84.000000
2.037118 0.144595 0.353875 104.000000
2.038538 0.138411 0.354030 95.000000
2.039938 0.132220 0.354184 93.000000
2.038363 0.125840 0.353875 86.000000
2.039725 0.119643 0.354030 93.000000
2.042056 0.113494 0.354339 99.000000
2.036475 0.106919 0.353410 94.000000
2.037780 0.100719 0.353565 88.000000
2.041040 0.094604 0.354030 89.000000
2.041321 0.088341 0.354030 85.000000
2.047505 0.082315 0.354959 77.000000
2.050709 0.076143 0.355424 82.000000
2.048959 0.069784 0.355114 87.000000
2.051138 0.063558 0.355424 100.000000
2.055274 0.057375 0.356043 72.000000
2.051490 0.050971 0.355424 105.000000
2.051636 0.044677 0.355424 102.000000
2.053739 0.038419 0.355733 82.000000
2.052860 0.032103 0.355578 75.000000
2.058875 0.025878 0.356508 82.000000
2.060921 0.019580 0.356817 82.000000
2.060971 0.013257 0.356817 98.000000
2.060014 0.006931 0.356663 98.000000
2.060026 0.000611 0.356663 83.000000
2.062982 -0.005718 0.357127 69.000000
2.061967 -0.012041 0.356972 86.000000
2.062908 -0.018376 0.357127 76.000000
2.067781 -0.024765 0.357902 63.000000
2.068683 -0.031124 0.358057 83.000000
2.070554 -0.037506 0.358366 63.000000
2.075367 -0.043964 0.359141 74.000000
2.074235 -0.050307 0.358986 72.000000
2.075058 -0.056698 0.359141 84.000000
2.076849 -0.063124 0.359450 63.000000
2.074672 -0.069429 0.359141 76.000000
2.071487 -0.075685 0.358676 77.000000
2.078155 -0.082315 0.359760 84.000000
2.074932 -0.088563 0.359296 74.000000
2.074651 -0.094928 0.359296 81.000000
2.076323 -0.101390 0.359605 50.000000
2.076002 -0.107759 0.359605 48.000000
2.077634 -0.114237 0.359915 72.000000
2.081219 -0.120840 0.360535 57.000000
2.078866 -0.127103 0.360225 55.000000
2.083396 -0.133798 0.360999 58.000000
2.083961 -0.140256 0.361154 48.000000
2.087463 -0.146927 0.361774 69.000000
2.087988 -0.153403 0.361929 47.000000
2.090463 -0.160035 0.362393 70.000000
2.090947 -0.166526 0.362548 57.000000
2.061874 -0.170573 0.358057 19.000000
2.066262 -0.177321 0.358831 12.000000
2.051932 -0.182432 0.356663 7.000000
2.062948 -0.202567 0.358676 7.000000
2.051173 -0.220488 0.357127 10.000000
1.991503 0.383380 0.326875 43.000000
1.996559 0.378007 0.327447 63.000000
1.998682 0.372062 0.327590 64.000000
1.999814 0.365928 0.327590 61.000000
1.998005 0.359264 0.327161 63.000000
2.003971 0.353996 0.327876 57.000000
2.006022 0.348016 0.328019 61.000000
2.007081 0.341860 0.328019 60.000000
2.010072 0.336028 0.328304 67.000000
2.010117 0.329699 0.328161 73.000000
2.015028 0.324162 0.328733 54.000000
2.018945 0.318442 0.329162 69.000000
2.018934 0.312095 0.329019 57.000000
2.016947 0.305453 0.328590 78.000000
2.017874 0.299264 0.328590 69.000000
2.016824 0.292786 0.328304 56.000000
2.014774 0.286178 0.327876 72.000000
2.014662 0.279859 0.327733 81.000000
2.011589 0.273142 0.327161 80.000000
2.016341 0.267492 0.327733 49.000000
2.014208 0.260921 0.327304 65.000000
2.015981 0.254865 0.327447 85.000000
2.021664 0.249288 0.328161 96.000000
2.026350 0.243559 0.328733 81.000000
2.027088 0.237341 0.328733 82.000000
2.031740 0.231571 0.329305 73.000000
2.035392 0.225666 0.329734 64.000000
2.039026 0.219740 0.330163 60.000000
2.041659 0.213691 0.330449 66.000000
2.040336 0.207225 0.330163 90.000000
2.038992 0.200769 0.329877 73.000000
2.038614 0.194418 0.329734 63.000000
2.032302 0.187522 0.328733 65.000000
2.028925 0.180932 0.328161 73.000000
2.026512 0.174451 0.327733 76.000000
2.026052 0.168150 0.327590 80.000000
2.023598 0.161695 0.327161 55.000000
2.030005 0.155944 0.328019 68.000000
2.034422 0.150009 0.328590 72.000000
2.033886 0.143697 0.328447 52.000000
2.041229 0.137927 0.329448 67.000000
2.043618 0.131793 0.329734 75.000000
2.049940 0.125890 0.330592 60.000000
2.052292 0.119716 0.330878 63.000000
2.049685 0.113254 0.330449 79.000000
2.052000 0.107069 0.330735 89.000000
2.055284 0.100921 0.331164 73.000000
2.058550 0.094753 0.331593 60.000000
2.057842 0.088394 0.331450 80.000000
2.054148 0.081920 0.330878 60.000000
2.056368 0.075691 0.331164 62.000000
2.057580 0.069416 0.331307 71.000000
2.058772 0.063134 0.331450 85.000000
2.058956 0.056818 0.331450 60.000000
2.057142 0.050451 0.331164 82.000000
2.057287 0.044140 0.331164 57.000000
2.063350 0.037940 0.332022 61.000000
2.060488 0.031563 0.331593 67.000000
2.064534 0.025292 0.332165 64.000000
2.064602 0.018958 0.332165 76.000000
2.063660 0.012617 0.332022 63.000000
2.066658 0.006296 0.332451 62.000000
2.069637 -0.000043 0.332880 72.000000
2.069627 -0.006392 0.332880 78.000000
2.066629 -0.012725 0.332451 48.000000
2.066580 -0.019065 0.332451 66.000000
2.065522 -0.025394 0.332308 51.000000
2.068403 -0.031774 0.332737 56.000000
2.069286 -0.038138 0.332880 61.000000
2.072128 -0.044548 0.333309 61.000000
2.072971 -0.050929 0.333452 65.000000
2.074783 -0.057342 0.333737 78.000000
2.077565 -0.063797 0.334166 58.000000
2.078349 -0.070203 0.334309 51.000000
2.079113 -0.076615 0.334452 52.000000
2.077879 -0.082954 0.334309 65.000000
2.072671 -0.089119 0.333595 65.000000
2.071399 -0.095432 0.333452 68.000000
2.073074 -0.101883 0.333737 61.000000
2.069786 -0.108089 0.333309 72.000000
2.069444 -0.114439 0.333309 57.000000
2.072048 -0.120959 0.333737 66.000000
2.074631 -0.127495 0.334166 74.000000
2.076205 -0.133986 0.334452 47.000000
2.077760 -0.140488 0.334738 58.000000
2.082255 -0.147208 0.335453 55.000000
2.087716 -0.154029 0.336311 44.000000
2.093155 -0.160885 0.337169 45.000000
2.092651 -0.167306 0.337169 48.000000
2.093115 -0.173807 0.337312 44.000000
2.094544 -0.180396 0.337598 47.000000
2.099896 -0.187346 0.338456 47.000000
2.099311 -0.193787 0.338456 48.000000
2.089839 -0.199386 0.337169 36.000000
2.074442 -0.204349 0.335024 27.000000
2.062974 -0.209618 0.333452 6.000000
2.017318 0.408330 0.306159 80.000000
2.014672 0.401365 0.305635 65.000000
2.013948 0.394802 0.305372 71.000000
2.018071 0.389184 0.305766 62.000000
2.018281 0.382806 0.305635 75.000000
2.018471 0.376431 0.305503 65.000000
2.023517 0.370950 0.306028 62.000000
2.013913 0.362809 0.304586 93.000000
2.012088 0.356111 0.304193 94.000000
2.014148 0.350106 0.304324 83.000000
2.012281 0.343425 0.303931 92.000000
2.012347 0.337087 0.303800 102.000000
2.015328 0.331232 0.304062 98.000000
2.016335 0.325048 0.304062 82.000000
2.019281 0.319169 0.304324 99.000000
2.022210 0.313276 0.304586 96.000000
2.021202 0.306773 0.304324 100.000000
2.022133 0.300571 0.304324 69.000000
2.024027 0.294508 0.304455 115.000000
2.026884 0.288576 0.304717 73.000000
2.026778 0.282220 0.304586 109.000000
2.028616 0.276134 0.304717 88.000000
2.025523 0.269387 0.304193 81.000000
2.023391 0.262789 0.303800 73.000000
2.024187 0.256580 0.303800 95.000000
2.023981 0.250248 0.303669 97.000000
2.024739 0.244037 0.303669 75.000000
2.028432 0.238170 0.304062 83.000000
2.033093 0.232395 0.304586 82.000000
2.039709 0.226813 0.305372 91.000000
2.041381 0.220661 0.305503 76.000000
2.044020 0.214604 0.305766 96.000000
2.048614 0.208733 0.306290 78.000000
2.047271 0.202252 0.306028 79.000000
2.044922 0.195688 0.305635 92.000000
2.052423 0.190051 0.306552 59.000000
2.043122 0.182872 0.305241 99.000000
2.044661 0.176688 0.305372 88.000000
2.045193 0.170414 0.305372 86.000000
2.045706 0.164139 0.305372 77.000000
2.046200 0.157862 0.305372 95.000000
2.049641 0.151803 0.305766 72.000000
2.044164 0.145094 0.304979 82.000000
2.047567 0.139022 0.305372 81.000000
2.050951 0.132932 0.305766 82.000000
2.048381 0.126456 0.305372 80.000000
2.049749 0.120229 0.305503 97.000000
2.050108 0.113940 0.305503 102.000000
2.052428 0.107753 0.305766 104.000000
2.061661 0.101895 0.306945 84.000000
2.058993 0.095432 0.306552 86.000000
2.062247 0.089243 0.306945 87.000000
2.065483 0.083035 0.307338 82.000000
2.065728 0.076697 0.307338 72.000000
2.072889 0.070594 0.308255 84.000000
2.073096 0.064234 0.308255 81.000000
2.068329 0.057737 0.307600 98.000000
2.068496 0.051391 0.307600 86.000000
2.065670 0.044980 0.307207 96.000000
2.068772 0.038698 0.307600 89.000000
2.065907 0.032305 0.307207 94.000000
2.066988 0.025979 0.307338 63.000000
2.068049 0.019646 0.307469 79.000000
2.073057 0.013333 0.308124 74.000000
2.075071 0.006979 0.308387 85.000000
2.075082 0.000613 0.308387 84.000000
2.075074 -0.005754 0.308387 72.000000
2.075047 -0.012120 0.308387 77.000000
2.075991 -0.018495 0.308518 86.000000
2.076916 -0.024876 0.308649 91.000000
2.078813 -0.031278 0.308911 85.000000
2.079698 -0.037674 0.309042 73.000000
2.084528 -0.044160 0.309697 88.000000
2.087356 -0.050628 0.310090 74.000000
2.085209 -0.056977 0.309828 65.000000
2.086015 -0.063404 0.309959 82.000000
2.086802 -0.069837 0.310090 73.000000
2.086578 -0.076239 0.310090 55.000000
2.085344 -0.082601 0.309959 91.000000
2.082109 -0.088871 0.309566 72.000000
2.079846 -0.095167 0.309304 85.000000
2.085485 -0.101839 0.310090 72.000000
2.087143 -0.108339 0.310352 76.000000
2.089771 -0.114906 0.310745 67.000000
2.093367 -0.121547 0.311269 81.000000
2.095953 -0.128151 0.311663 74.000000
2.101486 -0.134963 0.312449 76.000000
2.101062 -0.141410 0.312449 57.000000
2.101607 -0.147925 0.312580 85.000000
2.103120 -0.154518 0.312842 70.000000
2.106590 -0.161273 0.313366 60.000000
2.106086 -0.167735 0.313366 72.000000
2.105561 -0.174195 0.313366 58.000000
2.104029 -0.180569 0.313235 50.000000
2.109390 -0.187551 0.314021 41.000000
2.107818 -0.193931 0.313890 50.000000
2.108200 -0.200491 0.314021 69.000000
2.103628 -0.206570 0.313497 48.000000
2.107916 -0.213523 0.314152 52.000000
2.106265 -0.219886 0.314021 40.000000
2.111495 -0.226983 0.314808 59.000000
2.107832 -0.233133 0.314415 55.000000
2.113017 -0.240272 0.315201 18.000000
2.124086 -0.248136 0.316773 7.000000
2.124299 -0.254769 0.316904 5.000000
2.007836 0.425372 0.280116 64.000000
2.009131 0.419210 0.280116 52.000000
2.011380 0.413245 0.280235 53.000000
2.014585 0.407467 0.280473 51.000000
2.012905 0.400701 0.280116 68.000000
2.009253 0.393567 0.279521 67.000000
2.013376 0.387966 0.279878 85.000000
2.017483 0.382343 0.280235 47.000000
2.020598 0.376517 0.280473 67.000000
2.025650 0.371034 0.280948 92.000000
2.021893 0.363935 0.280354 74.000000
2.023978 0.357904 0.280473 70.000000
2.026044 0.351863 0.280592 83.000000
2.029072 0.345980 0.280829 69.000000
2.033062 0.340247 0.281186 67.000000
2.035075 0.334170 0.281305 63.000000
2.034131 0.327608 0.281067 72.000000
2.035126 0.321365 0.281067 71.000000
2.034140 0.314815 0.280829 67.000000
2.035097 0.308573 0.280829 81.000000
2.030141 0.301450 0.280116 81.000000
2.026144 0.294503 0.279521 76.000000
2.025073 0.288005 0.279283 75.000000
2.020046 0.280967 0.278570 59.000000
2.024834 0.275305 0.279046 71.000000
2.026653 0.269223 0.279165 79.000000
2.027470 0.263004 0.279165 66.000000
2.032207 0.257284 0.279640 71.000000
2.034957 0.251292 0.279878 89.000000
2.036704 0.245167 0.279997 74.000000
2.038433 0.239034 0.280116 90.000000
2.039157 0.232779 0.280116 80.000000
2.039861 0.226522 0.280116 61.000000
2.037585 0.219941 0.279759 69.000000
2.041213 0.214001 0.280116 65.000000
2.040872 0.207637 0.279997 81.000000
2.042488 0.201472 0.280116 59.000000
2.045073 0.195395 0.280354 92.000000
2.045662 0.189120 0.280354 76.000000
2.047222 0.182932 0.280473 63.000000
2.047773 0.176651 0.280473 83.000000
2.051274 0.170616 0.280829 88.000000
2.050798 0.164242 0.280711 86.000000
2.049313 0.157796 0.280473 69.000000
2.054738 0.151877 0.281067 82.000000
2.051233 0.145289 0.280592 77.000000
2.053650 0.139131 0.280829 67.000000
2.055058 0.132894 0.280948 75.000000
2.051492 0.126342 0.280473 83.000000
2.052861 0.120106 0.280592 95.000000
2.056194 0.113974 0.280948 83.000000
2.058517 0.107770 0.281186 76.000000
2.061813 0.101603 0.281543 76.000000
2.062115 0.095277 0.281543 67.000000
2.068349 0.089210 0.282257 65.000000
2.070597 0.082945 0.282494 58.000000
2.076795 0.076815 0.283208 78.000000
2.078014 0.070478 0.283327 82.000000
2.075243 0.064008 0.282970 66.000000
2.078407 0.057726 0.283327 72.000000
2.077582 0.051324 0.283208 82.000000
2.073759 0.044862 0.282732 87.000000
2.075872 0.038537 0.282970 75.000000
2.071017 0.032089 0.282375 62.000000
2.071105 0.025735 0.282375 78.000000
2.075146 0.019420 0.282851 73.000000
2.072217 0.013033 0.282494 76.000000
2.073240 0.006679 0.282613 62.000000
2.072258 0.000318 0.282494 82.000000
2.070264 -0.006035 0.282257 79.000000
2.073214 -0.012403 0.282613 68.000000
2.067209 -0.018713 0.281900 60.000000
2.067142 -0.025055 0.281900 74.000000
2.073012 -0.031484 0.282613 69.000000
2.072906 -0.037843 0.282613 69.000000
2.079729 -0.044347 0.283446 68.000000
2.083553 -0.050822 0.283921 55.000000
2.080410 -0.057134 0.283565 85.000000
2.085187 -0.063665 0.284159 57.000000
2.087959 -0.070160 0.284516 69.000000
2.089718 -0.076637 0.284754 60.000000
2.093442 -0.083204 0.285230 60.000000
2.093177 -0.089626 0.285230 60.000000
2.091900 -0.096002 0.285111 52.000000
2.094571 -0.102564 0.285468 63.000000
2.100196 -0.109295 0.286181 73.000000
2.093903 -0.115414 0.285468 71.000000
2.096512 -0.122009 0.285824 56.000000
2.097119 -0.128500 0.285943 57.000000
2.095724 -0.134870 0.285824 58.000000
2.098273 -0.141498 0.286181 63.000000
2.097829 -0.147935 0.286181 53.000000
2.094394 -0.154153 0.285824 62.000000
2.097872 -0.160879 0.286300 58.000000
2.094399 -0.167080 0.285943 72.000000
2.094866 -0.173586 0.286062 70.000000
2.098280 -0.180350 0.286538 66.000000
2.102663 -0.187224 0.287132 57.000000
2.104056 -0.193855 0.287370 62.000000
2.108393 -0.200777 0.287965 79.000000
2.106779 -0.207148 0.287846 60.000000
2.110085 -0.214009 0.288322 54.000000
2.109419 -0.220482 0.288322 47.000000
2.111694 -0.227269 0.288678 51.000000
2.110987 -0.233747 0.288678 41.000000
2.111247 -0.240334 0.288797 45.000000
2.114444 -0.247269 0.289273 68.000000
2.109732 -0.253284 0.288797 30.000000
2.113873 -0.260359 0.289392 56.000000
2.113064 -0.266843 0.289392 48.000000
2.163444 -0.279923 0.295576 15.000000
2.164543 -0.286818 0.295814 6.000000
2.003579 0.444455 0.254896 47.000000
2.003962 0.438094 0.254789 54.000000
2.006269 0.432153 0.254896 58.000000
2.005640 0.425583 0.254682 67.000000
2.009856 0.420038 0.255003 66.000000
2.010161 0.413670 0.254896 63.000000
2.014344 0.408092 0.255216 84.000000
2.018512 0.402493 0.255536 65.000000
2.022665 0.396872 0.255857 76.000000
2.025826 0.391042 0.256070 84.000000
2.027992 0.385010 0.256177 86.000000
2.030142 0.378969 0.256284 81.000000
2.033251 0.373097 0.256498 88.000000
2.033407 0.366681 0.256391 91.000000
2.033544 0.360268 0.256284 71.000000
2.033659 0.353857 0.256177 97.000000
2.032775 0.347281 0.255964 71.000000
2.033831 0.341043 0.255964 90.000000
2.032906 0.334480 0.255750 85.000000
2.029996 0.327608 0.255323 95.000000
2.030992 0.321379 0.255323 92.000000
2.033933 0.315451 0.255536 83.000000
2.032925 0.308911 0.255323 100.000000
2.031896 0.302380 0.255109 77.000000
2.032815 0.296145 0.255109 95.000000
2.031745 0.289627 0.254896 83.000000
2.034593 0.283666 0.255109 99.000000
2.038410 0.277825 0.255430 105.000000
2.037281 0.271308 0.255216 82.000000
2.040076 0.265312 0.255430 92.000000
2.043839 0.259427 0.255750 82.000000
2.046599 0.253400 0.255964 92.000000
2.050329 0.247476 0.256284 94.000000
2.048116 0.240837 0.255964 80.000000
2.049833 0.234665 0.256070 104.000000
2.050543 0.228375 0.256070 84.000000
2.051234 0.222083 0.256070 80.000000
2.050917 0.215685 0.255964 89.000000
2.050580 0.209292 0.255857 82.000000
2.052202 0.203097 0.255964 85.000000
2.054795 0.196990 0.256177 82.000000
2.052419 0.190410 0.255857 78.000000
2.053984 0.184201 0.255964 89.000000
2.053549 0.177813 0.255857 101.000000
2.057057 0.171759 0.256177 72.000000
2.057575 0.165447 0.256177 85.000000
2.055098 0.158905 0.255857 67.000000
2.060534 0.152966 0.256391 86.000000
2.064961 0.146925 0.256818 84.000000
2.066394 0.140657 0.256925 100.000000
2.065824 0.134252 0.256818 91.000000
2.070195 0.128159 0.257245 87.000000
2.071571 0.121865 0.257352 79.000000
2.074914 0.115675 0.257672 75.000000
2.075259 0.109308 0.257672 86.000000
2.070619 0.102696 0.257138 100.000000
2.069931 0.096296 0.257031 95.000000
2.073197 0.090075 0.257352 67.000000
2.071476 0.083634 0.257138 78.000000
2.075698 0.077426 0.257565 87.000000
2.075926 0.071057 0.257565 85.000000
2.078121 0.064750 0.257779 89.000000
2.085268 0.058568 0.258526 81.000000
2.084444 0.052145 0.258420 71.000000
2.084593 0.045750 0.258420 76.000000
2.086712 0.039392 0.258633 89.000000
2.082846 0.032927 0.258206 91.000000
2.083932 0.026550 0.258313 69.000000
2.087981 0.020194 0.258740 80.000000
2.087039 0.013781 0.258633 80.000000
2.089060 0.007385 0.258847 92.000000
2.089072 0.000976 0.258847 78.000000
2.093043 -0.005444 0.259274 103.000000
2.092022 -0.011860 0.259167 64.000000
2.089987 -0.018260 0.258954 88.000000
2.085944 -0.024625 0.258526 71.000000
2.084865 -0.031009 0.258420 67.000000
2.084760 -0.037405 0.258420 63.000000
2.087618 -0.043864 0.258740 80.000000
2.086479 -0.050245 0.258633 82.000000
2.089297 -0.056727 0.258954 69.000000
2.093088 -0.063258 0.259381 70.000000
2.098847 -0.069878 0.260021 76.000000
2.100610 -0.076390 0.260235 68.000000
2.104340 -0.082991 0.260662 77.000000
2.104075 -0.089447 0.260662 81.000000
2.102798 -0.095856 0.260555 76.000000
2.101501 -0.102259 0.260449 82.000000
2.103163 -0.108809 0.260662 82.000000
2.099840 -0.115097 0.260342 79.000000
2.100470 -0.121596 0.260449 71.000000
2.103065 -0.128222 0.260769 62.000000
2.105638 -0.134864 0.261089 64.000000
2.110175 -0.141658 0.261623 68.000000
2.115681 -0.148550 0.262264 74.000000
2.117198 -0.155186 0.262477 54.000000
2.117704 -0.161756 0.262584 51.000000
2.118189 -0.168332 0.262691 75.000000
2.119644 -0.174993 0.262905 51.000000
2.120088 -0.181580 0.263011 66.000000
2.118531 -0.187996 0.262905 83.000000
2.120914 -0.194768 0.263225 74.000000
2.120306 -0.201274 0.263225 75.000000
2.119679 -0.207778 0.263225 52.000000
2.120021 -0.214380 0.263332 71.000000
2.124298 -0.221400 0.263866 52.000000
2.126574 -0.228235 0.264186 54.000000
2.125864 -0.234758 0.264186 46.000000
2.123158 -0.241054 0.263972 54.000000
2.123396 -0.247682 0.264079 56.000000
2.126575 -0.254669 0.264506 46.000000
2.124797 -0.261071 0.264400 34.000000
2.122013 -0.267339 0.264186 57.000000
2.121183 -0.273848 0.264186 30.000000
2.128218 -0.281399 0.265040 8.000000
2.012128 0.458280 0.231566 56.000000
2.010611 0.451449 0.231281 60.000000
2.009071 0.444632 0.230996 76.000000
2.010426 0.438466 0.230996 52.000000
2.010789 0.432086 0.230901 59.000000
2.007236 0.424882 0.230427 54.000000
2.011453 0.419333 0.230711 58.000000
2.010780 0.412758 0.230522 71.000000
2.011061 0.406390 0.230427 65.000000
2.012299 0.400218 0.230427 76.000000
2.015471 0.394426 0.230616 76.000000
2.024491 0.389750 0.231376 65.000000
2.024699 0.383352 0.231281 69.000000
2.027822 0.377504 0.231471 68.000000
2.027992 0.371101 0.231376 68.000000
2.028141 0.364701 0.231281 79.000000
2.030231 0.358651 0.231376 86.000000
2.030341 0.352249 0.231281 85.000000
2.031412 0.346019 0.231281 56.000000
2.029519 0.339291 0.230996 87.000000
2.032515 0.333386 0.231186 95.000000
2.033528 0.327149 0.231186 75.000000
2.035505 0.321064 0.231281 75.000000
2.036481 0.314818 0.231281 65.000000
2.033500 0.307970 0.230901 71.000000
2.031482 0.301290 0.230616 75.000000
2.033382 0.295200 0.230711 79.000000
2.031321 0.288538 0.230427 81.000000
2.037126 0.282993 0.230901 57.000000
2.034040 0.276203 0.230522 67.000000
2.030931 0.269436 0.230142 63.000000
2.035696 0.263718 0.230522 81.000000
2.037483 0.257596 0.230616 79.000000
2.039252 0.251467 0.230711 82.000000
2.043967 0.245687 0.231091 86.000000
2.044711 0.239415 0.231091 68.000000
2.050381 0.233707 0.231566 72.000000
2.050099 0.227305 0.231471 71.000000
2.050787 0.221014 0.231471 71.000000
2.052445 0.214826 0.231566 75.000000
2.052104 0.208427 0.231471 89.000000
2.053725 0.202228 0.231566 75.000000
2.050372 0.195546 0.231186 63.000000
2.053936 0.189531 0.231471 64.000000
2.056490 0.183407 0.231661 66.000000
2.063986 0.177698 0.232326 68.000000
2.065513 0.171448 0.232421 71.000000
2.065037 0.165030 0.232326 59.000000
2.063549 0.158541 0.232136 75.000000
2.067004 0.152430 0.232421 76.000000
2.064483 0.145876 0.232136 65.000000
2.061941 0.139338 0.231851 83.000000
2.059379 0.132818 0.231566 67.000000
2.063751 0.126746 0.231946 73.000000
2.062142 0.120296 0.231756 82.000000
2.066477 0.114191 0.232136 67.000000
2.063836 0.107694 0.231851 90.000000
2.064157 0.101361 0.231851 71.000000
2.063463 0.094982 0.231756 68.000000
2.061756 0.088564 0.231566 60.000000
2.064007 0.082319 0.231756 66.000000
2.064250 0.075986 0.231756 68.000000
2.068453 0.069789 0.232136 72.000000
2.073632 0.063598 0.232611 81.000000
2.075808 0.057292 0.232801 71.000000
2.080950 0.051048 0.233276 76.000000
2.083087 0.044708 0.233466 62.000000
2.086200 0.038373 0.233751 70.000000
2.091285 0.032052 0.234226 62.000000
2.086396 0.025572 0.233751 82.000000
2.087461 0.019181 0.233846 73.000000
2.090496 0.012796 0.234131 58.000000
2.090525 0.006383 0.234131 71.000000
2.092526 -0.000030 0.234321 72.000000
2.092516 -0.006450 0.234321 70.000000
2.087509 -0.012842 0.233846 64.000000
2.090446 -0.019272 0.234131 74.000000
2.089382 -0.025674 0.234036 77.000000
2.085312 -0.032025 0.233656 76.000000
2.090180 -0.038511 0.234131 67.000000
2.092043 -0.044965 0.234321 62.000000
2.094881 -0.051455 0.234606 63.000000
2.094713 -0.057882 0.234606 83.000000
2.096515 -0.064368 0.234795 65.000000
2.101283 -0.070965 0.235270 72.000000
2.103045 -0.077483 0.235460 58.000000
2.101803 -0.083896 0.235365 76.000000
2.100541 -0.090301 0.235270 51.000000
2.100254 -0.096745 0.235270 74.000000
2.105913 -0.103478 0.235840 86.000000
2.106580 -0.109990 0.235935 67.000000
2.105238 -0.116398 0.235840 49.000000
2.104872 -0.122856 0.235840 52.000000
2.104485 -0.129313 0.235840 61.000000
2.105072 -0.135833 0.235935 65.000000
2.106631 -0.142424 0.236125 62.000000
2.109164 -0.149095 0.236410 57.000000
2.105718 -0.155347 0.236125 61.000000
2.105231 -0.161806 0.236125 52.000000
2.104725 -0.168264 0.236125 59.000000
2.108167 -0.175048 0.236505 56.000000
2.115555 -0.182194 0.237265 42.000000
2.112011 -0.188420 0.236980 67.000000
2.113406 -0.195080 0.237170 61.000000
2.119735 -0.202221 0.237835 50.000000
2.119104 -0.208724 0.237835 47.000000
2.120435 -0.215424 0.238025 38.000000
2.119764 -0.221928 0.238025 48.000000
2.114124 -0.227900 0.237550 53.000000
2.116384 -0.234713 0.237835 41.000000
2.116643 -0.241317 0.237930 44.000000
2.110948 -0.247233 0.237455 50.000000
2.105238 -0.253117 0.236980 19.000000
2.011799 0.478768 0.205982 76.000000
2.018109 0.473731 0.206394 56.000000
2.020524 0.467762 0.206477 76.000000
2.022921 0.461783 0.206559 53.000000
2.026273 0.456012 0.206724 73.000000
2.025717 0.449362 0.206559 77.000000
2.025138 0.442719 0.206394 84.000000
2.025513 0.436295 0.206312 75.000000
2.023917 0.429458 0.206064 85.000000
2.019372 0.422025 0.205570 83.000000
2.021633 0.416028 0.205652 87.000000
2.020947 0.409428 0.205487 83.000000
2.023170 0.403421 0.205570 92.000000
2.028311 0.397979 0.205899 85.000000
2.028543 0.391566 0.205817 71.000000
2.033652 0.386083 0.206147 79.000000
2.039725 0.380756 0.206559 107.000000
2.040884 0.374496 0.206559 81.000000
2.039081 0.367703 0.206312 91.000000
2.037255 0.360924 0.206064 113.000000
2.038353 0.354672 0.206064 109.000000
2.036484 0.347914 0.205817 84.000000
2.038525 0.341829 0.205899 86.000000
2.038580 0.335412 0.205817 98.000000
2.039600 0.329156 0.205817 94.000000
2.041585 0.323053 0.205899 88.000000
2.044536 0.317093 0.206064 73.000000
2.042543 0.310370 0.205817 78.000000
2.043486 0.304102 0.205817 87.000000
2.046381 0.298119 0.205982 93.000000
2.049260 0.292120 0.206147 97.000000
2.049159 0.285694 0.206064 89.000000
2.050026 0.279406 0.206064 93.000000
2.051862 0.273247 0.206147 97.000000
2.053678 0.267079 0.206229 101.000000
2.052511 0.260526 0.206064 82.000000
2.056267 0.254595 0.206312 72.000000
2.057039 0.248285 0.206312 114.000000
2.060760 0.242322 0.206559 96.000000
2.063474 0.236225 0.206724 89.000000
2.059237 0.229342 0.206312 95.000000
2.061913 0.223238 0.206477 87.000000
2.062588 0.216911 0.206477 86.000000
2.057295 0.209976 0.205982 99.000000
2.058921 0.203761 0.206064 67.000000
2.057552 0.197253 0.205899 96.000000
2.059140 0.191032 0.205982 89.000000
2.061702 0.184891 0.206147 90.000000
2.062259 0.178565 0.206147 63.000000
2.070743 0.172899 0.206806 75.000000
2.075237 0.166864 0.207136 109.000000
2.074746 0.160420 0.207054 93.000000
2.076222 0.154128 0.207136 71.000000
2.071714 0.147405 0.206724 76.000000
2.076134 0.141318 0.207054 85.000000
2.075564 0.134883 0.206971 67.000000
2.076962 0.128576 0.207054 92.000000
2.079337 0.122320 0.207219 100.000000
2.077712 0.115830 0.207054 92.000000
2.078058 0.109455 0.207054 77.000000
2.080374 0.103178 0.207219 82.000000
2.075704 0.096564 0.206806 86.000000
2.073999 0.090109 0.206642 72.000000
2.072274 0.083666 0.206477 82.000000
2.072521 0.077308 0.206477 83.000000
2.079720 0.071186 0.207054 73.000000
2.081921 0.064867 0.207219 93.000000
2.083107 0.058507 0.207301 82.000000
2.088258 0.052240 0.207713 66.000000
2.092394 0.045920 0.208043 97.000000
2.095514 0.039556 0.208291 85.000000
2.095625 0.033127 0.208291 87.000000
2.090735 0.026635 0.207878 94.000000
2.092799 0.020239 0.208043 77.000000
2.095841 0.013838 0.208291 101.000000
2.098864 0.007418 0.208538 77.000000
2.095887 0.000978 0.208291 83.000000
2.092890 -0.005444 0.208043 90.000000
2.092864 -0.011865 0.208043 81.000000
2.091821 -0.018277 0.207961 81.000000
2.092752 -0.024706 0.208043 77.000000
2.092666 -0.031126 0.208043 77.000000
2.092560 -0.037547 0.208043 73.000000
2.097417 -0.044072 0.208456 89.000000
2.104246 -0.050676 0.209033 66.000000
2.104081 -0.057131 0.209033 71.000000
2.104892 -0.063616 0.209115 81.000000
2.107675 -0.070174 0.209363 87.000000
2.109442 -0.076713 0.209528 82.000000
2.113180 -0.083342 0.209857 82.000000
2.111918 -0.089782 0.209775 90.000000
2.109642 -0.096170 0.209610 77.000000
2.115309 -0.102933 0.210105 71.000000
2.112993 -0.109319 0.209940 72.000000
2.113643 -0.115856 0.210022 83.000000
2.110292 -0.122167 0.209775 65.000000
2.108913 -0.128579 0.209693 65.000000
2.112487 -0.135304 0.210022 75.000000
2.112062 -0.141785 0.210022 81.000000
2.111617 -0.148264 0.210022 76.000000
2.114134 -0.154961 0.210270 77.000000
2.111661 -0.161294 0.210105 77.000000
2.113143 -0.167930 0.210270 89.000000
2.115597 -0.174659 0.210517 67.000000
2.118031 -0.181404 0.210765 60.000000
2.120442 -0.188166 0.211012 56.000000
2.124817 -0.195127 0.211424 57.000000
2.128177 -0.202022 0.211754 55.000000
2.131514 -0.208940 0.212084 42.000000
2.127889 -0.215177 0.211837 71.000000
2.126227 -0.221601 0.211754 55.000000
2.122565 -0.227804 0.211507 49.000000
2.116903 -0.233767 0.211094 40.000000
2.122118 -0.240936 0.211589 9.000000
2.120599 -0.253952 0.211589 7.000000
2.013374 0.496983 0.181897 51.000000
2.014889 0.490804 0.181897 45.000000
2.018325 0.485087 0.182038 60.000000
2.017863 0.478431 0.181897 68.000000
2.020293 0.472466 0.181968 58.000000
2.020761 0.466041 0.181897 65.000000
2.025098 0.460504 0.182109 56.000000
2.033314 0.455820 0.182603 70.000000
2.033729 0.449364 0.182533 54.000000
2.037047 0.443548 0.182674 93.000000
2.038399 0.437297 0.182674 60.000000
2.036803 0.430421 0.182462 72.000000
2.037138 0.423966 0.182392 58.000000
2.036475 0.417313 0.182250 85.000000
2.031879 0.409876 0.181827 70.000000
2.028235 0.402666 0.181473 76.000000
2.031419 0.396826 0.181615 65.000000
2.033607 0.390780 0.181685 65.000000
2.034796 0.384539 0.181685 63.000000
2.041850 0.379391 0.182109 82.000000
2.045947 0.373665 0.182321 61.000000
2.047084 0.367386 0.182321 74.000000
2.048202 0.361104 0.182321 68.000000
2.047334 0.354477 0.182180 65.000000
2.042512 0.347188 0.181756 89.000000
2.042584 0.340755 0.181685 86.000000
2.042636 0.334325 0.181615 78.000000
2.039713 0.327423 0.181332 68.000000
2.043663 0.321630 0.181544 79.000000
2.049569 0.316122 0.181897 76.000000
2.047571 0.309384 0.181685 49.000000
2.053444 0.303833 0.182038 66.000000
2.058315 0.298106 0.182321 71.000000
2.062182 0.292211 0.182533 59.000000
2.060105 0.285471 0.182321 58.000000
2.058006 0.278746 0.182109 72.000000
2.056874 0.272168 0.181968 69.000000
2.058688 0.265984 0.182038 76.000000
2.058506 0.259542 0.181968 84.000000
2.055332 0.252736 0.181685 64.000000
2.056098 0.246429 0.181685 78.000000
2.056844 0.240120 0.181685 66.000000
2.057571 0.233809 0.181685 70.000000
2.058279 0.227495 0.181685 84.000000
2.055992 0.220858 0.181473 60.000000
2.059636 0.214861 0.181685 67.000000
2.057308 0.208238 0.181473 59.000000
2.058930 0.202024 0.181544 68.000000
2.050603 0.194852 0.180908 57.000000
2.057151 0.189111 0.181332 72.000000
2.054741 0.182532 0.181120 59.000000
2.054297 0.176142 0.181050 76.000000
2.057810 0.170087 0.181262 59.000000
2.064288 0.164251 0.181685 76.000000
2.066772 0.158070 0.181827 72.000000
2.072221 0.152096 0.182180 82.000000
2.077653 0.146091 0.182533 78.000000
2.082072 0.139986 0.182815 70.000000
2.079505 0.133404 0.182603 65.000000
2.078909 0.126962 0.182533 79.000000
2.073314 0.120234 0.182109 69.000000
2.076661 0.114038 0.182321 66.000000
2.074013 0.107510 0.182109 58.000000
2.076326 0.101245 0.182250 76.000000
2.074634 0.094782 0.182109 73.000000
2.080894 0.088675 0.182533 77.000000
2.081156 0.082290 0.182533 67.000000
2.087380 0.076127 0.182957 58.000000
2.086607 0.069688 0.182886 72.000000
2.083820 0.063194 0.182674 73.000000
2.086995 0.056884 0.182886 77.000000
2.086163 0.050456 0.182815 65.000000
2.086308 0.044056 0.182815 60.000000
2.083441 0.037599 0.182603 62.000000
2.085541 0.031238 0.182745 68.000000
2.087622 0.024864 0.182886 78.000000
2.090681 0.018488 0.183098 79.000000
2.088733 0.012061 0.182957 76.000000
2.092750 0.005666 0.183239 69.000000
2.091760 -0.000755 0.183168 73.000000
2.094740 -0.007181 0.183380 75.000000
2.088724 -0.013572 0.182957 44.000000
2.089669 -0.019989 0.183027 59.000000
2.101568 -0.026545 0.183875 77.000000
2.097486 -0.032932 0.183592 57.000000
2.104357 -0.039494 0.184087 72.000000
2.103229 -0.045928 0.184016 66.000000
2.103078 -0.052381 0.184016 56.000000
2.107893 -0.058969 0.184369 66.000000
2.105708 -0.065375 0.184228 80.000000
2.102507 -0.071735 0.184016 48.000000
2.104270 -0.078258 0.184157 68.000000
2.108007 -0.084872 0.184440 77.000000
2.109730 -0.091424 0.184581 75.000000
2.107447 -0.097804 0.184440 84.000000
2.115107 -0.104660 0.185005 52.000000
2.107803 -0.110785 0.184510 59.000000
2.111438 -0.117471 0.184793 70.000000
2.114054 -0.124122 0.185005 53.000000
2.108685 -0.130302 0.184652 75.000000
2.114249 -0.137155 0.185075 59.000000
2.113818 -0.143641 0.185075 73.000000
2.114362 -0.150196 0.185146 63.000000
2.125829 -0.157560 0.185994 51.000000
2.118374 -0.163547 0.185499 65.000000
2.119851 -0.170204 0.185640 56.000000
2.125283 -0.177201 0.186064 58.000000
2.122742 -0.183550 0.185923 58.000000
2.126143 -0.190415 0.186205 42.000000
2.130515 -0.197395 0.186559 60.000000
2.132879 -0.204214 0.186770 60.000000
2.139191 -0.211439 0.187265 47.000000
2.139525 -0.218102 0.187335 28.000000
2.139838 -0.224769 0.187406 10.000000
2.139138 -0.231332 0.187406 7.000000
2.036762 0.517463 0.157534 61.000000
2.031561 0.509513 0.157128 59.000000
2.032146 0.503038 0.157070 77.000000
2.031740 0.496328 0.156954 66.000000
2.028400 0.488924 0.156663 58.000000
2.027948 0.482237 0.156547 64.000000
2.030390 0.476241 0.156605 67.000000
2.033787 0.470459 0.156721 89.000000
2.038141 0.464883 0.156896 72.000000
2.045402 0.459940 0.157244 99.000000
2.047778 0.453879 0.157302 91.000000
2.049161 0.447594 0.157302 92.000000
2.052476 0.441725 0.157418 81.000000
2.052845 0.435219 0.157360 106.000000
2.051239 0.428308 0.157186 82.000000
2.051565 0.421812 0.157128 65.000000
2.046979 0.414328 0.156779 92.000000
2.045303 0.407462 0.156605 93.000000
2.045564 0.400993 0.156547 87.000000
2.044823 0.394338 0.156431 95.000000
2.043081 0.387505 0.156257 75.000000
2.043279 0.381052 0.156198 88.000000
2.046402 0.375141 0.156315 89.000000
2.049509 0.369215 0.156431 72.000000
2.048666 0.362578 0.156315 103.000000
2.053703 0.356974 0.156547 90.000000
2.048884 0.349665 0.156198 93.000000
2.049947 0.343378 0.156198 97.000000
2.053946 0.337572 0.156373 89.000000
2.052015 0.330793 0.156198 90.000000
2.050062 0.324029 0.156024 96.000000
2.053019 0.318043 0.156140 86.000000
2.052999 0.311593 0.156082 91.000000
2.056907 0.305733 0.156257 91.000000
2.060800 0.299852 0.156431 78.000000
2.062698 0.293669 0.156489 87.000000
2.064578 0.287476 0.156547 87.000000
2.068418 0.281544 0.156721 95.000000
2.069272 0.275197 0.156721 69.000000
2.072087 0.269104 0.156837 75.000000
2.073893 0.262871 0.156896 95.000000
2.071717 0.256141 0.156721 95.000000
2.074476 0.250022 0.156837 84.000000
2.074242 0.243540 0.156779 100.000000
2.073987 0.237062 0.156721 80.000000
2.077681 0.231028 0.156896 92.000000
2.077388 0.224546 0.156837 90.000000
2.076081 0.217964 0.156721 92.000000
2.079720 0.211896 0.156896 95.000000
2.074399 0.204927 0.156547 74.000000
2.072036 0.198277 0.156373 85.000000
2.072635 0.191919 0.156373 95.000000
2.069237 0.185204 0.156140 97.000000
2.070790 0.178941 0.156198 84.000000
2.076303 0.173001 0.156489 70.000000
2.073839 0.166391 0.156315 74.000000
2.078321 0.160334 0.156547 81.000000
2.078803 0.153957 0.156547 73.000000
2.081257 0.147720 0.156663 82.000000
2.081701 0.141334 0.156663 97.000000
2.081128 0.134882 0.156605 99.000000
2.081532 0.128497 0.156605 85.000000
2.080920 0.122052 0.156547 83.000000
2.082282 0.115722 0.156605 77.000000
2.090602 0.109750 0.157070 93.000000
2.088935 0.103238 0.156954 87.000000
2.091237 0.096921 0.157070 74.000000
2.094516 0.090633 0.157244 93.000000
2.093787 0.084167 0.157186 80.000000
2.096030 0.077817 0.157302 97.000000
2.101248 0.071555 0.157593 83.000000
2.095471 0.064924 0.157244 67.000000
2.096658 0.058522 0.157302 72.000000
2.098824 0.052139 0.157418 68.000000
2.098974 0.045699 0.157418 66.000000
2.096110 0.039204 0.157244 91.000000
2.096220 0.032773 0.157244 80.000000
2.092318 0.026292 0.157012 90.000000
2.096382 0.019910 0.157244 78.000000
2.095435 0.013472 0.157186 86.000000
2.100458 0.007059 0.157476 86.000000
2.100469 0.000615 0.157476 70.000000
2.102458 -0.005835 0.157593 93.000000
2.106423 -0.012309 0.157825 83.000000
2.107374 -0.018780 0.157883 74.000000
2.106308 -0.025234 0.157825 73.000000
2.111212 -0.031772 0.158115 69.000000
2.109108 -0.038212 0.157999 75.000000
2.110977 -0.044725 0.158115 86.000000
2.115820 -0.051323 0.158406 72.000000
2.113657 -0.057759 0.158290 81.000000
2.115465 -0.064305 0.158406 71.000000
2.115258 -0.070795 0.158406 69.000000
2.118024 -0.077394 0.158580 55.000000
2.117776 -0.083891 0.158580 77.000000
2.117509 -0.090388 0.158580 86.000000
2.119216 -0.096976 0.158696 92.000000
2.119906 -0.103526 0.158754 73.000000
2.119578 -0.110029 0.158754 70.000000
2.125212 -0.116861 0.159103 66.000000
2.125840 -0.123439 0.159161 59.000000
2.122462 -0.129777 0.158987 93.000000
2.124046 -0.136416 0.159103 85.000000
2.123617 -0.142932 0.159103 53.000000
2.127152 -0.149728 0.159335 61.000000
2.131661 -0.156620 0.159626 66.000000
2.144110 -0.164152 0.160381 36.000000
2.131655 -0.169776 0.159684 65.000000
2.138088 -0.176892 0.160090 57.000000
2.133557 -0.183109 0.159858 73.000000
2.133980 -0.189742 0.159916 62.000000
2.114500 -0.194547 0.158812 21.000000
2.120849 -0.201696 0.159219 8.000000
2.109292 -0.207127 0.158580 10.000000
2.113613 -0.214101 0.158870 7.000000
2.112946 -0.220584 0.158870 6.000000
2.016181 0.530249 0.131941 44.000000
2.019732 0.524564 0.132034 64.000000
2.024235 0.519111 0.132172 59.000000
2.020976 0.511670 0.131941 88.000000
2.022537 0.505467 0.131941 59.000000
2.039593 0.503096 0.132681 42.000000
2.029482 0.493995 0.132126 70.000000
2.029046 0.487298 0.132034 79.000000
2.034419 0.481994 0.132219 77.000000
2.036860 0.475978 0.132265 46.000000
2.035391 0.469052 0.132126 79.000000
2.039742 0.463471 0.132265 69.000000
2.041155 0.457211 0.132265 70.000000
2.038647 0.450083 0.132080 74.000000
2.038066 0.443401 0.131987 92.000000
2.042347 0.437776 0.132126 64.000000
2.039771 0.430680 0.131941 78.000000
2.040105 0.424217 0.131895 77.000000
2.041397 0.417956 0.131895 91.000000
2.041690 0.411493 0.131849 77.000000
2.047842 0.406202 0.132080 76.000000
2.049078 0.399917 0.132080 79.000000
2.050296 0.393629 0.132080 66.000000
2.052475 0.387522 0.132126 76.000000
2.052672 0.381041 0.132080 60.000000
2.053832 0.374742 0.132080 59.000000
2.058904 0.369146 0.132265 66.000000
2.051174 0.361263 0.131849 83.000000
2.057194 0.355823 0.132080 67.000000
2.055321 0.349006 0.131941 92.000000
2.059338 0.343193 0.132080 90.000000
2.065310 0.337682 0.132311 73.000000
2.065350 0.331186 0.132265 67.000000
2.062410 0.324225 0.132080 79.000000
2.063395 0.317896 0.132080 65.000000
2.059422 0.310816 0.131849 85.000000
2.057401 0.304057 0.131710 66.000000
2.052393 0.296882 0.131433 66.000000
2.056262 0.291005 0.131571 83.000000
2.050219 0.283733 0.131248 62.000000
2.056029 0.278114 0.131479 82.000000
2.052911 0.271279 0.131294 64.000000
2.055715 0.265236 0.131386 79.000000
2.058501 0.259179 0.131479 72.000000
2.057304 0.252618 0.131386 67.000000
2.062036 0.246782 0.131571 74.000000
2.062783 0.240455 0.131571 61.000000
2.069467 0.234804 0.131849 76.000000
2.072163 0.228674 0.131941 59.000000
2.074841 0.222530 0.132034 66.000000
2.074521 0.216059 0.131987 64.000000
2.075174 0.209694 0.131987 90.000000
2.071831 0.202934 0.131802 77.000000
2.076421 0.196957 0.131987 68.000000
2.074032 0.190310 0.131849 53.000000
2.074606 0.183946 0.131849 71.000000
2.078146 0.177838 0.131987 70.000000
2.081668 0.171709 0.132126 55.000000
2.081190 0.165242 0.132080 58.000000
2.086667 0.159239 0.132311 71.000000
2.085153 0.152690 0.132219 70.000000
2.086608 0.146362 0.132265 66.000000
2.085054 0.139825 0.132172 55.000000
2.085473 0.133428 0.132172 62.000000
2.084876 0.126968 0.132126 88.000000
2.087250 0.120687 0.132219 90.000000
2.078634 0.113786 0.131802 57.000000
2.087951 0.107878 0.132219 80.000000
2.089270 0.101520 0.132265 78.000000
2.092565 0.095248 0.132403 66.000000
2.092848 0.088828 0.132403 82.000000
2.092112 0.082367 0.132357 67.000000
2.093353 0.075985 0.132403 76.000000
2.093576 0.069562 0.132403 65.000000
2.096776 0.063231 0.132542 68.000000
2.096960 0.056797 0.132542 61.000000
2.103116 0.050511 0.132820 74.000000
2.105258 0.044101 0.132912 59.000000
2.108380 0.037698 0.133051 67.000000
2.106488 0.031198 0.132958 74.000000
2.103577 0.024699 0.132820 64.000000
2.103643 0.018245 0.132820 65.000000
2.100693 0.011773 0.132681 69.000000
2.098721 0.005321 0.132588 70.000000
2.097728 -0.001117 0.132542 71.000000
2.097715 -0.007553 0.132542 62.000000
2.102676 -0.014019 0.132773 71.000000
2.104621 -0.020488 0.132866 77.000000
2.108544 -0.026994 0.133051 73.000000
2.112447 -0.033524 0.133236 68.000000
2.112334 -0.040005 0.133236 54.000000
2.113200 -0.046507 0.133282 68.000000
2.115045 -0.053039 0.133374 69.000000
2.112875 -0.059472 0.133282 78.000000
2.113681 -0.065985 0.133328 70.000000
2.112470 -0.072435 0.133282 73.000000
2.114234 -0.078990 0.133374 66.000000
2.116976 -0.085595 0.133513 58.000000
2.118700 -0.092175 0.133606 61.000000
2.116411 -0.098583 0.133513 73.000000
2.119092 -0.105222 0.133652 74.000000
2.120754 -0.111827 0.133744 66.000000
2.122396 -0.118443 0.133837 68.000000
2.120028 -0.124838 0.133744 52.000000
2.114650 -0.131035 0.133513 38.000000
2.118226 -0.137780 0.133698 57.000000
2.120783 -0.144480 0.133837 60.000000
2.124316 -0.151267 0.134022 56.000000
2.130815 -0.158298 0.134345 56.000000
2.124343 -0.164375 0.134068 51.000000
2.133787 -0.171688 0.134530 62.000000
2.121304 -0.177242 0.133975 24.000000
2.120750 -0.183749 0.133975 12.000000
2.035020 0.556710 0.107108 52.000000
2.034789 0.549943 0.107041 67.000000
2.033569 0.542925 0.106939 79.000000
2.035225 0.536683 0.106939 73.000000
2.037830 0.530689 0.106973 73.000000
2.036544 0.523688 0.106871 56.000000
2.040079 0.517929 0.106939 63.000000
2.041658 0.511668 0.106939 65.000000
2.043218 0.505402 0.106939 65.000000
2.036992 0.497236 0.106668 85.000000
2.035592 0.490283 0.106567 99.000000
2.036114 0.483804 0.106533 83.000000
2.034670 0.476872 0.106431 88.000000
2.034176 0.470178 0.106364 75.000000
2.034634 0.463713 0.106330 82.000000
2.033122 0.456812 0.106228 85.000000
2.039393 0.451652 0.106398 83.000000
2.040769 0.445393 0.106398 81.000000
2.043103 0.439339 0.106431 76.000000
2.046397 0.433483 0.106499 67.000000
2.044782 0.426591 0.106398 76.000000
2.049018 0.420918 0.106499 79.000000
2.052259 0.415026 0.106567 81.000000
2.055483 0.409118 0.106634 79.000000
2.057709 0.403002 0.106668 85.000000
2.059917 0.396876 0.106702 60.000000
2.062107 0.390740 0.106736 82.000000
2.063296 0.384412 0.106736 75.000000
2.064466 0.378080 0.106736 82.000000
2.068567 0.372275 0.106838 59.000000
2.061826 0.364536 0.106567 87.000000
2.064904 0.358550 0.106634 87.000000
2.063039 0.351710 0.106533 77.000000
2.062137 0.345050 0.106465 89.000000
2.067131 0.339369 0.106601 78.000000
