ply
format ascii 1.0
element vertex 1251
property float x
property float y
property float z
property float intensity
end_header
3.662391 -0.941059 0.673759 56.000000
3.657578 -0.951795 0.673426 35.000000
3.654640 -0.963011 0.673426 45.000000
3.648811 -0.973458 0.672925 42.000000
3.647711 -0.985161 0.673259 41.000000
3.643720 -0.996088 0.673092 44.000000
3.643498 -1.008049 0.673593 38.000000
3.642287 -1.019754 0.673926 37.000000
3.637244 -1.030386 0.673593 32.000000
3.638805 -1.042897 0.674427 57.000000
3.641271 -1.055702 0.675429 48.000000
3.638961 -1.067145 0.675596 46.000000
3.639452 -1.079425 0.676264 50.000000
3.640845 -1.092000 0.677098 36.000000
3.641253 -1.104308 0.677766 37.000000
3.642561 -1.116918 0.678601 41.000000
3.641943 -1.128963 0.679102 37.000000
3.638462 -1.140131 0.679102 32.000000
3.638707 -1.152478 0.679769 42.000000
3.637032 -1.164236 0.680103 37.000000
3.634382 -1.175693 0.680270 31.000000
3.630758 -1.186837 0.680270 28.000000
3.628036 -1.198279 0.680437 42.000000
3.624342 -1.209405 0.680437 33.000000
3.621549 -1.220833 0.680604 39.000000
3.617787 -1.231938 0.680604 43.000000
3.614923 -1.243352 0.680771 40.000000
3.613885 -1.255406 0.681272 35.000000
3.610947 -1.266813 0.681439 28.000000
3.612621 -1.279859 0.682440 35.000000
3.608677 -1.290937 0.682440 44.000000
3.605627 -1.302337 0.682607 29.000000
3.602541 -1.313730 0.682774 34.000000
3.600344 -1.325457 0.683108 41.000000
3.601807 -1.338555 0.684110 29.000000
3.595837 -1.348907 0.683776 28.000000
3.599059 -1.362724 0.685111 32.000000
3.591177 -1.372352 0.684444 28.000000
3.339461 -1.288002 0.639537 8.000000
3.695929 -0.535854 0.619189 11.000000
3.727494 -0.552116 0.624455 21.000000
3.716015 -0.562070 0.622906 34.000000
3.714273 -0.573468 0.622906 42.000000
3.712496 -0.584861 0.622906 27.000000
3.704832 -0.595307 0.621977 54.000000
3.704938 -0.606990 0.622287 40.000000
3.700135 -0.617865 0.621822 36.000000
3.701144 -0.629712 0.622287 44.000000
3.701141 -0.641401 0.622596 40.000000
3.699156 -0.652753 0.622596 45.000000
3.695191 -0.663749 0.622287 36.000000
3.692166 -0.674905 0.622132 44.000000
3.685221 -0.685326 0.621357 34.000000
3.682131 -0.696445 0.621202 44.000000
3.678036 -0.707365 0.620893 48.000000
3.676819 -0.718835 0.621048 42.000000
3.671689 -0.729534 0.620583 39.000000
3.672338 -0.741382 0.621048 38.000000
3.675853 -0.753837 0.621977 40.000000
3.680294 -0.766521 0.623061 48.000000
3.683724 -0.779036 0.623990 41.000000
3.689044 -0.791993 0.625229 35.000000
3.686596 -0.803307 0.625229 40.000000
3.686044 -0.815041 0.625539 41.000000
3.683526 -0.826346 0.625539 32.000000
3.676157 -0.836546 0.624765 38.000000
3.670685 -0.847154 0.624300 48.000000
3.668069 -0.858411 0.624300 51.000000
3.662534 -0.868976 0.623835 34.000000
3.665614 -0.881595 0.624765 32.000000
3.669611 -0.894475 0.625849 31.000000
3.671645 -0.906914 0.626623 27.000000
3.671721 -0.918894 0.627088 46.000000
3.672714 -0.931126 0.627708 33.000000
3.671754 -0.942881 0.628017 41.000000
3.672669 -0.955137 0.628637 26.000000
3.664944 -0.965141 0.627862 39.000000
3.658148 -0.975362 0.627243 28.000000
3.654184 -0.986323 0.627088 27.000000
3.654001 -0.998311 0.627553 31.000000
3.650920 -1.009516 0.627553 45.000000
3.646855 -1.020446 0.627398 30.000000
3.646558 -1.032437 0.627862 37.000000
3.646223 -1.044436 0.628327 41.000000
3.647746 -1.056993 0.629101 50.000000
3.645434 -1.068457 0.629256 35.000000
3.641192 -1.079355 0.629101 39.000000
3.641648 -1.091657 0.629721 36.000000
3.643955 -1.104544 0.630650 22.000000
3.639604 -1.115429 0.630495 41.000000
3.637109 -1.126882 0.630650 25.000000
3.636462 -1.138921 0.631115 45.000000
3.635777 -1.150967 0.631580 36.000000
3.632228 -1.162116 0.631580 26.000000
3.629586 -1.173558 0.631734 37.000000
3.629725 -1.185916 0.632354 41.000000
3.627007 -1.197356 0.632509 33.000000
3.625191 -1.209103 0.632819 38.000000
3.622401 -1.220535 0.632974 40.000000
3.617704 -1.231324 0.632819 38.000000
3.618581 -1.244024 0.633593 36.000000
3.612880 -1.254471 0.633283 40.000000
3.607150 -1.264895 0.632974 39.000000
3.603253 -1.275956 0.632974 55.000000
3.604902 -1.289001 0.633903 38.000000
3.602789 -1.300726 0.634213 47.000000
3.601566 -1.312788 0.634677 32.000000
3.601230 -1.325197 0.635297 49.000000
3.602704 -1.338303 0.636226 50.000000
3.605981 -1.352126 0.637465 45.000000
3.599968 -1.362483 0.637155 40.000000
3.598540 -1.374579 0.637620 43.000000
3.595227 -1.385968 0.637775 30.000000
3.592799 -1.397708 0.638085 27.000000
3.588495 -1.408724 0.638085 32.000000
3.582319 -1.418999 0.637775 52.000000
3.581618 -1.431449 0.638394 25.000000
3.584539 -1.445387 0.639634 36.000000
3.581918 -1.457122 0.639943 35.000000
3.571033 -1.465479 0.638859 20.000000
3.486197 -1.443166 0.625229 6.000000
3.773109 -0.546945 0.584658 7.000000
3.718542 -0.550705 0.576937 31.000000
3.716835 -0.562111 0.576937 43.000000
3.716071 -0.573662 0.577080 45.000000
3.708428 -0.584138 0.576222 41.000000
3.705641 -0.595356 0.576079 26.000000
3.703797 -0.606722 0.576079 40.000000
3.696060 -0.617106 0.575221 43.000000
3.695126 -0.628608 0.575364 48.000000
3.686353 -0.638761 0.574363 46.000000
3.683401 -0.649896 0.574220 25.000000
3.684312 -0.661717 0.574649 45.000000
3.683239 -0.673195 0.574792 40.000000
3.682129 -0.684672 0.574935 38.000000
3.679039 -0.695782 0.574792 45.000000
3.677859 -0.707253 0.574935 51.000000
3.677614 -0.718912 0.575221 42.000000
3.669567 -0.729036 0.574363 56.000000
3.672164 -0.741268 0.575078 50.000000
3.670842 -0.752729 0.575221 39.000000
3.671422 -0.764592 0.575650 38.000000
3.671964 -0.776466 0.576079 56.000000
3.669565 -0.787728 0.576079 40.000000
3.669065 -0.799403 0.576365 41.000000
3.668528 -0.811082 0.576651 46.000000
3.665057 -0.822117 0.576508 43.000000
3.660587 -0.832919 0.576222 46.000000
3.662837 -0.845257 0.576937 51.000000
3.667937 -0.858292 0.578081 39.000000
3.668175 -0.870225 0.578510 42.000000
3.670300 -0.882630 0.579225 29.000000
3.672383 -0.895057 0.579939 30.000000
3.670581 -0.906556 0.580082 38.000000
3.669703 -0.918293 0.580368 33.000000
3.663990 -0.928819 0.579939 44.000000
3.653453 -0.938088 0.578796 43.000000
3.655348 -0.950537 0.579511 32.000000
3.655286 -0.962502 0.579939 35.000000
3.648490 -0.972693 0.579368 47.000000
3.649311 -0.984912 0.579939 50.000000
3.649137 -0.996885 0.580368 47.000000
3.648923 -1.008866 0.580797 47.000000
3.643905 -1.019523 0.580511 56.000000
3.636950 -1.029621 0.579939 54.000000
3.633774 -1.040774 0.579939 50.000000
3.627712 -1.051092 0.579511 52.000000
3.626370 -1.062773 0.579796 48.000000
3.622143 -1.073612 0.579654 48.000000
3.618832 -1.084720 0.579654 42.000000
3.616435 -1.096104 0.579796 42.000000
3.614001 -1.107483 0.579939 45.000000
3.613423 -1.119444 0.580368 41.000000
3.612805 -1.131410 0.580797 40.000000
3.612148 -1.143384 0.581226 34.000000
3.609566 -1.154762 0.581369 34.000000
3.610716 -1.167351 0.582084 27.000000
3.611822 -1.179959 0.582799 44.000000
3.613824 -1.192894 0.583657 33.000000
3.615781 -1.205852 0.584515 34.000000
3.609251 -1.215993 0.584086 45.000000
3.608314 -1.228016 0.584515 39.000000
3.610146 -1.241009 0.585373 32.000000
3.606322 -1.252079 0.585373 39.000000
3.602464 -1.263137 0.585373 38.000000
3.599504 -1.274513 0.585515 37.000000
3.597441 -1.286216 0.585801 45.000000
3.598134 -1.298926 0.586516 52.000000
3.595062 -1.310297 0.586659 58.000000
3.590096 -1.320979 0.586516 58.000000
3.590666 -1.333709 0.587231 29.000000
3.586557 -1.344719 0.587231 45.000000
3.583340 -1.356066 0.587374 45.000000
3.580088 -1.367406 0.587517 46.000000
3.578647 -1.379450 0.587946 45.000000
3.575320 -1.390781 0.588089 50.000000
3.576565 -1.403911 0.588947 32.000000
3.568560 -1.413421 0.588375 27.000000
3.566964 -1.425463 0.588804 32.000000
3.566247 -1.437879 0.589376 30.000000
3.560901 -1.448441 0.589233 8.000000
3.748001 -0.543409 0.534702 17.000000
3.713954 -0.550109 0.530377 33.000000
3.710289 -0.561204 0.530115 35.000000
3.702671 -0.571676 0.529329 42.000000
3.698941 -0.582724 0.529067 37.000000
3.700072 -0.594541 0.529460 47.000000
3.700187 -0.606211 0.529722 39.000000
3.699288 -0.617724 0.529853 49.000000
3.698353 -0.629236 0.529984 44.000000
3.697382 -0.640749 0.530115 50.000000
3.695399 -0.652090 0.530115 45.000000
3.693381 -0.663424 0.530115 43.000000
3.686452 -0.673860 0.529460 31.000000
3.682418 -0.684804 0.529198 37.000000
3.676403 -0.695361 0.528674 43.000000
3.677173 -0.707199 0.529067 50.000000
3.679851 -0.719428 0.529722 34.000000
3.678598 -0.730908 0.529853 48.000000
3.678282 -0.742583 0.530115 44.000000
3.679871 -0.754661 0.530639 35.000000
3.677539 -0.765947 0.530639 51.000000
3.675172 -0.777226 0.530639 43.000000
3.667923 -0.787457 0.529984 43.000000
3.666459 -0.798917 0.530115 33.000000
3.666895 -0.810805 0.530508 44.000000
3.666324 -0.822485 0.530770 39.000000
3.662817 -0.833509 0.530639 35.000000
3.668936 -0.846750 0.531819 36.000000
3.667287 -0.858228 0.531950 44.000000
3.664636 -0.869475 0.531950 49.000000
3.662916 -0.880946 0.532081 37.000000
3.658269 -0.891710 0.531819 37.000000
3.653591 -0.902453 0.531557 35.000000
3.649844 -0.913417 0.531426 45.000000
3.639337 -0.922661 0.530377 41.000000
3.632648 -0.932835 0.529853 40.000000
3.628810 -0.943726 0.529722 40.000000
3.623980 -0.954349 0.529460 38.000000
3.623909 -0.966229 0.529853 47.000000
3.629541 -0.979669 0.531032 35.000000
3.629387 -0.991584 0.531426 32.000000
3.630150 -1.003771 0.531950 45.000000
3.632782 -1.016507 0.532736 46.000000
3.629646 -1.027647 0.532736 57.000000
3.631241 -1.040143 0.533391 43.000000
3.628033 -1.051279 0.533391 33.000000
3.627645 -1.063242 0.533784 42.000000
3.622465 -1.073802 0.533522 39.000000
3.618204 -1.084626 0.533391 46.000000
3.612013 -1.094858 0.532998 40.000000
3.612428 -1.107097 0.533522 37.000000
3.613750 -1.119642 0.534178 36.000000
3.615027 -1.132206 0.534833 53.000000
3.620988 -1.146284 0.536143 38.000000
3.623120 -1.159201 0.536929 32.000000
3.628979 -1.173362 0.538240 47.000000
3.632900 -1.186954 0.539288 37.000000
3.630183 -1.198405 0.539419 37.000000
3.627430 -1.209850 0.539550 38.000000
3.621822 -1.220340 0.539288 39.000000
3.619938 -1.232085 0.539550 28.000000
3.616141 -1.243185 0.539550 50.000000
3.610437 -1.253623 0.539288 42.000000
3.607509 -1.265021 0.539419 38.000000
3.602677 -1.275752 0.539288 55.000000
3.597812 -1.286465 0.539157 40.000000
3.593849 -1.297497 0.539157 53.000000
3.587057 -1.307498 0.538764 49.000000
3.585820 -1.319524 0.539157 40.000000
3.587331 -1.332591 0.539944 38.000000
3.587867 -1.345331 0.540599 31.000000
3.584649 -1.356683 0.540730 37.000000
3.586027 -1.369797 0.541516 40.000000
3.584582 -1.381863 0.541909 45.000000
3.584945 -1.394651 0.542564 35.000000
3.581573 -1.406006 0.542695 39.000000
3.575399 -1.416257 0.542433 35.000000
3.578401 -1.430163 0.543482 20.000000
3.701397 -0.524327 0.482049 33.000000
3.695840 -0.535113 0.481573 40.000000
3.703022 -0.547754 0.482643 48.000000
3.702305 -0.559260 0.482762 50.000000
3.703516 -0.571069 0.483119 41.000000
3.704690 -0.582890 0.483476 33.000000
3.705825 -0.594725 0.483833 53.000000
3.701043 -0.605611 0.483476 47.000000
3.698189 -0.616800 0.483357 52.000000
3.693342 -0.627645 0.483000 49.000000
3.686507 -0.638127 0.482405 41.000000
3.690399 -0.650467 0.483119 43.000000
3.687409 -0.661611 0.483000 40.000000
3.681454 -0.672208 0.482524 55.000000
3.682304 -0.684043 0.482881 41.000000
3.681163 -0.695521 0.483000 53.000000
3.681937 -0.707372 0.483357 44.000000
3.677801 -0.718285 0.483119 62.000000
3.676554 -0.729758 0.483238 48.000000
3.670404 -0.740250 0.482762 44.000000
3.671034 -0.752104 0.483119 46.000000
3.675514 -0.764777 0.483951 72.000000
3.669265 -0.775230 0.483476 54.000000
3.666869 -0.786483 0.483476 51.000000
3.667350 -0.798362 0.483833 46.000000
3.664883 -0.809609 0.483833 64.000000
3.660444 -0.820416 0.483595 40.000000
3.657910 -0.831642 0.483595 55.000000
3.654374 -0.842637 0.483476 49.000000
3.651772 -0.853845 0.483476 65.000000
3.652033 -0.865731 0.483833 68.000000
3.647429 -0.876467 0.483595 50.000000
3.644723 -0.887653 0.483595 42.000000
3.645839 -0.899782 0.484070 53.000000
3.639208 -0.910000 0.483595 52.000000
3.634474 -0.920674 0.483357 52.000000
3.630670 -0.931574 0.483238 43.000000
3.628756 -0.942957 0.483357 47.000000
3.623925 -0.953581 0.483119 44.000000
3.622902 -0.965205 0.483357 37.000000
3.624717 -0.977607 0.483951 48.000000
3.623617 -0.989245 0.484189 57.000000
3.626307 -1.001942 0.484903 41.000000
3.626086 -1.013864 0.485260 62.000000
3.624869 -1.025524 0.485497 78.000000
3.628388 -1.038551 0.486330 50.000000
3.630908 -1.051333 0.487043 49.000000
3.626712 -1.062188 0.486925 51.000000
3.627245 -1.074437 0.487400 44.000000
3.624883 -1.085845 0.487519 44.000000
3.619634 -1.096385 0.487281 43.000000
3.617202 -1.107776 0.487400 37.000000
3.613787 -1.118868 0.487400 45.000000
3.607494 -1.129061 0.487043 49.000000
3.609694 -1.141918 0.487757 44.000000
3.610903 -1.154498 0.488352 43.000000
3.612068 -1.167095 0.488946 42.000000
3.615078 -1.180326 0.489779 44.000000
3.615212 -1.192655 0.490254 47.000000
3.616246 -1.205309 0.490849 31.000000
3.617237 -1.217981 0.491444 48.000000
3.608783 -1.227475 0.490849 44.000000
3.604061 -1.238219 0.490730 38.000000
3.596493 -1.247969 0.490254 38.000000
3.592647 -1.258997 0.490254 45.000000
3.587831 -1.269682 0.490135 56.000000
3.583919 -1.280684 0.490135 57.000000
3.584643 -1.293356 0.490730 59.000000
3.581592 -1.304687 0.490849 47.000000
3.586892 -1.319094 0.492038 61.000000
3.584690 -1.330782 0.492276 62.000000
3.580590 -1.341774 0.492276 62.000000
3.580172 -1.354156 0.492752 53.000000
3.577857 -1.365842 0.492990 44.000000
3.574576 -1.377168 0.493109 52.000000
3.580515 -1.392083 0.494417 31.000000
3.570680 -1.400888 0.493703 35.000000
3.635614 -1.439225 0.502622 6.000000
3.691961 -0.499975 0.434614 21.000000
3.692379 -0.511573 0.434828 38.000000
3.695715 -0.523596 0.435362 30.000000
3.699011 -0.535645 0.435896 34.000000
3.704235 -0.548010 0.436643 36.000000
3.705486 -0.559818 0.436964 41.000000
3.709647 -0.572093 0.437604 46.000000
3.711802 -0.584090 0.438031 42.000000
3.705085 -0.594687 0.437498 57.000000
3.702262 -0.605890 0.437391 47.000000
3.696463 -0.616591 0.436964 34.000000
3.691613 -0.627429 0.436643 50.000000
3.688691 -0.638582 0.436537 37.000000
3.689652 -0.650414 0.436857 39.000000
3.688617 -0.661906 0.436964 50.000000
3.687548 -0.673398 0.437070 34.000000
3.684487 -0.684527 0.436964 51.000000
3.684323 -0.696197 0.437177 53.000000
3.683147 -0.707684 0.437284 43.000000
3.678031 -0.718409 0.436964 46.000000
3.668983 -0.728333 0.436216 41.000000
3.667706 -0.739783 0.436323 40.000000
3.668341 -0.751631 0.436643 51.000000
3.672831 -0.764300 0.437391 38.000000
3.672415 -0.775976 0.437604 45.000000
3.669045 -0.787031 0.437498 41.000000
3.670499 -0.799130 0.437925 43.000000
3.669971 -0.810816 0.438138 49.000000
3.664556 -0.821419 0.437818 37.000000
3.659110 -0.831996 0.437498 42.000000
3.653634 -0.842548 0.437177 56.000000
3.651032 -0.853753 0.437177 47.000000
3.649363 -0.865180 0.437284 41.000000
3.647658 -0.876604 0.437391 40.000000
3.648816 -0.888732 0.437818 44.000000
3.648968 -0.900638 0.438138 55.000000
3.648117 -0.912311 0.438352 54.000000
3.644337 -0.923255 0.438245 46.000000
3.640524 -0.934184 0.438138 42.000000
3.643415 -0.946849 0.438779 48.000000
3.641454 -0.958276 0.438886 44.000000
3.641379 -0.970212 0.439206 41.000000
3.640306 -0.981897 0.439420 29.000000
3.640153 -0.993846 0.439740 46.000000
3.644754 -1.007129 0.440594 55.000000
3.644519 -1.019109 0.440915 43.000000
3.641376 -1.030286 0.440915 32.000000
3.639153 -1.041726 0.441021 57.000000
3.636896 -1.053163 0.441128 50.000000
3.632693 -1.064036 0.441021 41.000000
3.629411 -1.075176 0.441021 41.000000
3.628001 -1.086877 0.441235 38.000000
3.625601 -1.098290 0.441342 34.000000
3.622214 -1.109408 0.441342 53.000000
3.624492 -1.122281 0.441983 52.000000
3.621032 -1.133396 0.441983 33.000000
3.620382 -1.145400 0.442303 37.000000
3.616850 -1.156501 0.442303 23.000000
3.615178 -1.168204 0.442516 28.000000
3.612522 -1.179598 0.442623 36.000000
3.614551 -1.192546 0.443264 43.000000
3.610875 -1.203629 0.443264 51.000000
3.612819 -1.216606 0.443905 41.000000
3.609069 -1.227684 0.443905 37.000000
3.607167 -1.239397 0.444118 52.000000
3.606165 -1.251436 0.444439 47.000000
3.601370 -1.262165 0.444332 37.000000
3.595607 -1.272544 0.444118 50.000000
3.591686 -1.283569 0.444118 52.000000
3.587731 -1.294583 0.444118 45.000000
3.586545 -1.306605 0.444439 47.000000
3.583452 -1.317945 0.444545 45.000000
3.582188 -1.329972 0.444866 34.000000
3.581815 -1.342351 0.445293 37.000000
3.579540 -1.354038 0.445506 37.000000
3.577227 -1.365723 0.445720 31.000000
3.586936 -1.382055 0.447322 28.000000
3.588239 -1.395215 0.447962 26.000000
3.683975 -0.487975 0.389228 38.000000
3.684434 -0.499542 0.389418 51.000000
3.692745 -0.512208 0.390368 41.000000
3.697070 -0.524371 0.390938 26.000000
3.695444 -0.535711 0.390938 51.000000
3.697722 -0.547628 0.391318 38.000000
3.695040 -0.558822 0.391223 54.000000
3.691340 -0.569852 0.391033 64.000000
3.690558 -0.581329 0.391128 49.000000
3.682860 -0.591703 0.390558 50.000000
3.681027 -0.602999 0.390558 55.000000
3.679160 -0.614289 0.390558 63.000000
3.680202 -0.626074 0.390843 38.000000
3.678264 -0.637362 0.390843 56.000000
3.677272 -0.648816 0.390938 53.000000
3.675264 -0.660095 0.390938 43.000000
3.671263 -0.671010 0.390748 44.000000
3.669187 -0.682270 0.390748 56.000000
3.667077 -0.693524 0.390748 40.000000
3.663954 -0.704583 0.390653 44.000000
3.660798 -0.715630 0.390558 54.000000
3.657609 -0.726664 0.390463 48.000000
3.656338 -0.738079 0.390558 47.000000
3.655032 -0.749493 0.390653 54.000000
3.655639 -0.761310 0.390938 56.000000
3.654260 -0.772728 0.391033 40.000000
3.652846 -0.784144 0.391128 57.000000
3.650423 -0.795347 0.391128 61.000000
3.650882 -0.807186 0.391413 56.000000
3.650331 -0.818819 0.391603 59.000000
3.648772 -0.830234 0.391698 40.000000
3.649118 -0.842095 0.391983 54.000000
3.649426 -0.853966 0.392267 44.000000
3.644851 -0.864699 0.392078 56.000000
3.646053 -0.876807 0.392457 42.000000
3.645280 -0.888460 0.392647 51.000000
3.641571 -0.899401 0.392552 61.000000
3.639760 -0.910810 0.392647 56.000000
3.632124 -0.920751 0.392172 52.000000
3.628318 -0.931643 0.392078 56.000000
3.627369 -0.943270 0.392267 52.000000
3.623496 -0.954141 0.392172 44.000000
3.623437 -0.966022 0.392457 55.000000
3.623340 -0.977911 0.392742 49.000000
3.626085 -0.990595 0.393312 60.000000
3.632624 -1.004365 0.394262 45.000000
3.635278 -1.017113 0.394832 66.000000
3.626393 -1.026635 0.394262 31.000000
3.632797 -1.040494 0.395212 64.000000
3.622894 -1.049698 0.394547 62.000000
3.625389 -1.062485 0.395117 64.000000
3.622113 -1.073603 0.395117 64.000000
3.615941 -1.083854 0.394832 58.000000
3.614504 -1.095519 0.395022 57.000000
3.614933 -1.107769 0.395402 51.000000
3.611518 -1.118854 0.395402 61.000000
3.609019 -1.130226 0.395497 59.000000
3.612178 -1.143394 0.396162 57.000000
3.612446 -1.155682 0.396541 45.000000
3.612673 -1.167984 0.396921 67.000000
3.618536 -1.182150 0.397871 53.000000
3.613001 -1.192623 0.397681 58.000000
3.614992 -1.205589 0.398251 37.000000
3.608446 -1.215722 0.397966 50.000000
3.605642 -1.227107 0.398061 52.000000
3.600919 -1.237840 0.397966 54.000000
3.598044 -1.249208 0.398061 56.000000
3.593256 -1.259911 0.397966 50.000000
3.590312 -1.271261 0.398061 59.000000
3.587332 -1.282605 0.398156 64.000000
3.585253 -1.294280 0.398346 53.000000
3.587813 -1.307658 0.399011 59.000000
3.583785 -1.318659 0.399011 46.000000
3.579722 -1.329648 0.399011 47.000000
3.577491 -1.341322 0.399201 39.000000
3.574290 -1.352644 0.399296 39.000000
3.572913 -1.364668 0.399581 43.000000
3.570568 -1.376338 0.399771 31.000000
3.568184 -1.388007 0.399961 22.000000
3.693614 -0.569619 0.344103 24.000000
3.690864 -0.580793 0.344020 40.000000
3.691033 -0.592430 0.344185 44.000000
3.688214 -0.603590 0.344103 36.000000
3.683396 -0.614410 0.343856 36.000000
3.692302 -0.627546 0.344763 42.000000
3.683485 -0.637680 0.344185 34.000000
3.677585 -0.648285 0.343856 41.000000
3.673617 -0.659213 0.343691 34.000000
3.672558 -0.670659 0.343773 34.000000
3.668524 -0.681559 0.343608 40.000000
3.667394 -0.692996 0.343691 38.000000
3.661336 -0.703491 0.343361 37.000000
3.660139 -0.714912 0.343443 39.000000
3.658906 -0.726332 0.343526 41.000000
3.657637 -0.737751 0.343608 60.000000
3.655357 -0.748969 0.343608 61.000000
3.654993 -0.760586 0.343773 42.000000
3.653617 -0.772002 0.343856 44.000000
3.654155 -0.783835 0.344103 40.000000
3.654655 -0.795679 0.344350 47.000000
3.656088 -0.807747 0.344680 44.000000
3.655538 -0.819397 0.344845 59.000000
3.655922 -0.831271 0.345092 47.000000
3.656268 -0.843155 0.345340 38.000000
3.653664 -0.854369 0.345340 48.000000
3.652965 -0.866034 0.345505 51.000000
3.649322 -0.877004 0.345422 42.000000
3.645646 -0.887960 0.345340 40.000000
3.641937 -0.898902 0.345257 41.000000
3.639162 -0.910071 0.345257 42.000000
3.634421 -0.920741 0.345092 40.000000
3.631579 -0.931887 0.345092 60.000000
3.632561 -0.944028 0.345422 51.000000
3.632539 -0.955929 0.345670 49.000000
3.631515 -0.967582 0.345835 45.000000
3.633340 -0.980017 0.346247 31.000000
3.634162 -0.992210 0.346577 30.000000
3.642628 -1.006541 0.347566 37.000000
3.644321 -1.019054 0.347979 49.000000
3.642137 -1.030501 0.348061 41.000000
3.643748 -1.043042 0.348473 39.000000
3.645318 -1.055602 0.348886 49.000000
3.641105 -1.066501 0.348803 55.000000
3.638772 -1.077950 0.348886 46.000000
3.631629 -1.087964 0.348556 41.000000
3.626366 -1.098523 0.348391 35.000000
3.623932 -1.109935 0.348473 44.000000
3.616702 -1.119868 0.348143 42.000000
3.616102 -1.131852 0.348391 48.000000
3.614513 -1.143542 0.348556 40.000000
3.612886 -1.155233 0.348721 46.000000
3.615015 -1.168151 0.349215 39.000000
3.615203 -1.180474 0.349545 49.000000
3.610618 -1.191248 0.349463 59.000000
3.612619 -1.204211 0.349958 42.000000
3.605130 -1.214016 0.349628 47.000000
3.608936 -1.227639 0.350287 28.000000
3.603268 -1.238057 0.350123 40.000000
3.603218 -1.250414 0.350452 42.000000
3.602187 -1.262451 0.350700 38.000000
3.599236 -1.273829 0.350782 52.000000
3.595311 -1.284865 0.350782 44.000000
3.601664 -1.299612 0.351689 32.000000
3.594850 -1.309632 0.351442 37.000000
3.588945 -1.319966 0.351277 58.000000
3.584878 -1.330971 0.351277 39.000000
3.576112 -1.340213 0.350865 48.000000
3.575712 -1.352589 0.351194 36.000000
3.577132 -1.365686 0.351689 28.000000
3.566416 -1.374146 0.351112 36.000000
3.552895 -1.381468 0.350287 14.000000
3.564411 -1.398552 0.351689 8.000000
4.001554 -0.720029 0.322939 14.000000
4.021894 -0.736428 0.324564 20.000000
3.969601 -0.739461 0.320962 22.000000
3.853620 -0.730130 0.312769 22.000000
3.695613 -0.711993 0.301539 46.000000
3.713970 -0.727347 0.303022 33.000000
3.699981 -0.736405 0.302175 35.000000
3.670326 -0.742226 0.300197 44.000000
3.695393 -0.759094 0.302175 35.000000
3.672539 -0.766156 0.300692 31.000000
3.667243 -0.776801 0.300480 42.000000
3.666794 -0.788467 0.300621 44.000000
3.657535 -0.798226 0.300127 24.000000
3.666756 -0.812028 0.300974 50.000000
3.664248 -0.823273 0.300974 28.000000
3.663650 -0.834954 0.301116 46.000000
3.664959 -0.847087 0.301398 46.000000
3.663314 -0.858555 0.301469 46.000000
3.662604 -0.870250 0.301610 39.000000
3.657007 -0.880783 0.301398 34.000000
3.650411 -0.891053 0.301116 48.000000
3.644755 -0.901531 0.300904 50.000000
3.638102 -0.911740 0.300621 43.000000
3.632387 -0.922162 0.300409 62.000000
3.631473 -0.933797 0.300551 40.000000
3.632452 -0.945939 0.300833 41.000000
3.634356 -0.958349 0.301186 44.000000
3.634290 -0.970265 0.301398 65.000000
3.636112 -0.982710 0.301751 55.000000
3.634042 -0.994124 0.301822 50.000000
3.630975 -1.005268 0.301822 65.000000
3.629795 -1.016941 0.301963 51.000000
3.626658 -1.028072 0.301963 66.000000
3.621569 -1.038644 0.301822 49.000000
3.618366 -1.049750 0.301822 50.000000
3.614171 -1.060566 0.301751 44.000000
3.611856 -1.071932 0.301822 58.000000
3.609506 -1.083295 0.301892 52.000000
3.608075 -1.094942 0.302034 56.000000
3.604699 -1.106006 0.302034 48.000000
3.604147 -1.117946 0.302246 49.000000
3.599748 -1.128700 0.302175 39.000000
3.594367 -1.139136 0.302034 48.000000
3.591805 -1.150462 0.302104 54.000000
3.593953 -1.163318 0.302528 53.000000
3.591315 -1.174648 0.302599 69.000000
3.597167 -1.188788 0.303305 50.000000
3.603912 -1.203290 0.304082 31.000000
3.601148 -1.214659 0.304152 54.000000
3.603070 -1.227630 0.304576 55.000000
3.600230 -1.239003 0.304647 48.000000
3.591701 -1.248407 0.304294 38.000000
3.589736 -1.260080 0.304435 46.000000
3.583973 -1.270421 0.304294 59.000000
3.579119 -1.281075 0.304223 57.000000
3.589246 -1.297131 0.305283 33.000000
3.576814 -1.305062 0.304647 47.000000
3.578411 -1.318096 0.305071 47.000000
3.580895 -1.331500 0.305565 31.000000
3.559048 -1.335825 0.304223 16.000000
4.227692 -0.772853 0.285325 14.000000
4.187024 -0.778697 0.283060 26.000000
4.156169 -0.786156 0.281375 40.000000
4.169423 -0.801921 0.282305 29.000000
4.142449 -0.809918 0.280853 52.000000
4.132112 -0.821066 0.280388 57.000000
4.123703 -0.832553 0.280039 71.000000
4.110372 -0.842993 0.279400 56.000000
4.099947 -0.853971 0.278936 49.000000
4.100238 -0.867165 0.279110 65.000000
4.094630 -0.879111 0.278936 68.000000
4.100693 -0.893583 0.279459 129.000000
3.911755 -0.864973 0.268364 34.000000
3.711345 -0.832589 0.256572 33.000000
3.699039 -0.841756 0.255992 47.000000
3.703249 -0.854672 0.256398 29.000000
3.686029 -0.862616 0.255527 42.000000
3.680451 -0.873229 0.255353 44.000000
3.669990 -0.882648 0.254888 46.000000
3.669204 -0.894376 0.255004 35.000000
3.658690 -0.903713 0.254539 43.000000
3.652995 -0.914206 0.254365 35.000000
3.649205 -0.925164 0.254307 43.000000
3.644416 -0.935858 0.254191 52.000000
3.639595 -0.946532 0.254075 45.000000
3.631847 -0.956422 0.253784 36.000000
3.626002 -0.966788 0.253610 44.000000
3.623983 -0.978168 0.253668 50.000000
3.617113 -0.988229 0.253436 50.000000
3.608291 -0.997724 0.253087 67.000000
3.614826 -1.011481 0.253668 36.000000
3.614588 -1.023382 0.253842 45.000000
3.619109 -1.036667 0.254307 37.000000
3.618788 -1.048599 0.254481 40.000000
3.614596 -1.059415 0.254423 34.000000
3.618028 -1.072487 0.254830 41.000000
3.615677 -1.083868 0.254888 49.000000
3.609469 -1.094087 0.254714 44.000000
3.609913 -1.106326 0.254946 38.000000
3.607455 -1.117691 0.255004 45.000000
3.606867 -1.129649 0.255178 39.000000
3.606240 -1.141613 0.255353 47.000000
3.599868 -1.151759 0.255178 31.000000
3.601067 -1.164334 0.255469 58.000000
3.600324 -1.176307 0.255643 63.000000
3.597646 -1.187660 0.255701 38.000000
3.597774 -1.199956 0.255933 51.000000
3.599752 -1.212901 0.256282 60.000000
3.597904 -1.224583 0.256398 41.000000
3.598850 -1.237238 0.256689 54.000000
3.590322 -1.246636 0.256398 33.000000
3.586481 -1.257645 0.256398 43.000000
3.588252 -1.270642 0.256747 37.000000
3.582456 -1.280972 0.256630 47.000000
3.580388 -1.292635 0.256747 39.000000
3.581094 -1.305324 0.257037 30.000000
3.578947 -1.316994 0.257153 35.000000
3.589862 -1.333531 0.258083 12.000000
3.665274 -1.451868 0.264646 7.000000
4.229486 -0.788556 0.234582 13.000000
4.226066 -0.801342 0.234536 14.000000
4.162770 -0.802596 0.231669 36.000000
4.147544 -0.812869 0.231068 40.000000
4.134253 -0.823446 0.230560 58.000000
4.126812 -0.835137 0.230329 35.000000
4.104660 -0.843776 0.229404 44.000000
4.093251 -0.854530 0.228988 38.000000
4.086701 -0.866257 0.228803 71.000000
4.082070 -0.878371 0.228710 84.000000
4.070572 -0.888975 0.228294 37.000000
4.069777 -0.901891 0.228387 52.000000
4.070889 -0.915247 0.228572 64.000000
4.068062 -0.927733 0.228572 36.000000
4.067143 -0.940658 0.228664 49.000000
4.073965 -0.955410 0.229127 74.000000
4.032138 -0.958673 0.227277 26.000000
4.067054 -0.980156 0.229080 57.000000
4.046560 -0.988367 0.228248 46.000000
4.004719 -0.991188 0.226399 29.000000
4.042357 -1.013663 0.228341 65.000000
4.018895 -1.020901 0.227370 63.000000
3.953824 -1.017313 0.224411 37.000000
3.691602 -0.962008 0.212020 34.000000
3.665451 -0.967219 0.210910 35.000000
3.646058 -0.974082 0.210124 47.000000
3.636302 -0.983440 0.209800 44.000000
3.624596 -0.992220 0.209384 47.000000
3.624423 -1.004135 0.209523 33.000000
3.618440 -1.014441 0.209384 24.000000
3.613388 -1.024993 0.209292 39.000000
3.609266 -1.035799 0.209246 29.000000
3.606071 -1.046867 0.209246 40.000000
3.610511 -1.060175 0.209615 43.000000
3.608199 -1.071530 0.209662 40.000000
3.604895 -1.082595 0.209662 54.000000
3.604424 -1.094520 0.209800 53.000000
3.598185 -1.104694 0.209662 54.000000
3.596686 -1.116320 0.209754 51.000000
3.598011 -1.128843 0.209985 62.000000
3.593578 -1.139574 0.209939 44.000000
3.589114 -1.150289 0.209893 62.000000
3.591271 -1.163140 0.210170 57.000000
3.588635 -1.174463 0.210217 45.000000
3.590706 -1.187347 0.210494 57.000000
3.590836 -1.199622 0.210679 36.000000
3.589032 -1.211272 0.210771 46.000000
3.596646 -1.226141 0.211326 25.000000
3.587200 -1.235220 0.211049 52.000000
3.580563 -1.245236 0.210910 44.000000
3.577668 -1.256546 0.210956 39.000000
3.578504 -1.269185 0.211187 31.000000
3.580237 -1.282176 0.211465 27.000000
3.569710 -1.290779 0.211141 34.000000
3.578871 -1.306516 0.211789 30.000000
3.638590 -1.340960 0.214932 5.000000
4.166550 -0.788871 0.179283 30.000000
4.154296 -0.799760 0.178944 30.000000
4.141034 -0.810389 0.178572 35.000000
4.132647 -0.821919 0.178369 26.000000
4.118351 -0.832218 0.177963 23.000000
4.099135 -0.841431 0.177387 28.000000
4.085772 -0.851758 0.177015 52.000000
4.076296 -0.862840 0.176778 37.000000
4.070698 -0.874711 0.176676 27.000000
4.058231 -0.885065 0.176338 49.000000
4.049642 -0.896215 0.176135 53.000000
4.041997 -0.907540 0.175965 49.000000
4.038219 -0.919714 0.175931 36.000000
4.038300 -0.932774 0.176033 42.000000
4.043204 -0.946983 0.176304 56.000000
4.040279 -0.959383 0.176304 56.000000
4.041204 -0.972710 0.176439 25.000000
4.040143 -0.985578 0.176507 31.000000
4.038070 -0.998208 0.176541 45.000000
4.036928 -1.011078 0.176608 32.000000
4.036713 -1.024195 0.176710 32.000000
4.035488 -1.037073 0.176778 34.000000
4.031320 -1.049197 0.176744 44.000000
4.028082 -1.061560 0.176744 55.000000
4.022875 -1.073397 0.176676 47.000000
4.000266 -1.080520 0.175999 24.000000
4.004644 -1.094897 0.176270 18.000000
4.052316 -1.121309 0.178064 44.000000
4.084466 -1.143710 0.179317 68.000000
4.077091 -1.155146 0.179181 54.000000
4.038942 -1.157732 0.177963 43.000000
3.662546 -1.074166 0.164929 24.000000
3.626657 -1.075731 0.163778 43.000000
3.624297 -1.087140 0.163812 35.000000
3.608512 -1.094481 0.163372 33.000000
3.608959 -1.106720 0.163507 41.000000
3.602683 -1.116898 0.163406 29.000000
3.597332 -1.127348 0.163338 34.000000
3.595762 -1.138983 0.163406 32.000000
3.589395 -1.149095 0.163304 36.000000
3.589656 -1.161333 0.163440 38.000000
3.587027 -1.172651 0.163474 44.000000
3.581514 -1.183023 0.163406 45.000000
3.586400 -1.196853 0.163711 47.000000
3.588393 -1.209767 0.163914 52.000000
3.588449 -1.222059 0.164049 51.000000
3.590353 -1.235014 0.164252 40.000000
3.587491 -1.246351 0.164286 35.000000
3.584593 -1.257683 0.164320 42.000000
3.578834 -1.268006 0.164252 38.000000
3.570222 -1.277296 0.164083 44.000000
3.598245 -1.299792 0.165234 15.000000
4.191552 -0.793298 0.128178 13.000000
4.161608 -0.800871 0.127572 22.000000
4.139507 -0.809801 0.127139 35.000000
4.147789 -0.824639 0.127377 20.000000
4.107019 -0.829650 0.126533 33.000000
4.087805 -0.838835 0.126165 48.000000
4.073466 -0.848928 0.125905 57.000000
4.065951 -0.860388 0.125797 51.000000
4.056450 -0.871390 0.125646 44.000000
4.043012 -0.881491 0.125408 22.000000
4.037360 -0.893243 0.125343 31.000000
4.033625 -0.905407 0.125321 54.000000
4.027904 -0.917113 0.125256 49.000000
4.022148 -0.928792 0.125191 43.000000
4.015386 -0.940217 0.125105 32.000000
4.012483 -0.952531 0.125105 23.000000
4.018290 -0.966940 0.125299 37.000000
4.025018 -0.981629 0.125516 34.000000
4.027812 -0.995411 0.125646 43.000000
4.027648 -1.008491 0.125711 37.000000
4.030351 -1.022316 0.125840 24.000000
4.033005 -1.036167 0.125970 25.000000
4.028840 -1.048284 0.125949 48.000000
4.025605 -1.060639 0.125949 59.000000
4.036823 -1.076846 0.126273 21.000000
4.034465 -1.089486 0.126295 11.000000
4.049428 -1.106862 0.126706 27.000000
4.063359 -1.124073 0.127095 41.000000
4.070483 -1.139496 0.127334 29.000000
4.075626 -1.154428 0.127528 41.000000
4.077832 -1.168577 0.127658 45.000000
4.125124 -1.195822 0.128805 6.000000
3.575120 -1.180820 0.117336 19.000000
3.573377 -1.192415 0.117379 44.000000
3.575387 -1.205287 0.117509 44.000000
3.574512 -1.217216 0.117574 35.000000
3.573597 -1.229152 0.117639 29.000000
3.569809 -1.240110 0.117639 42.000000
3.570705 -1.252709 0.117747 31.000000
3.565903 -1.263325 0.117725 36.000000
3.580839 -1.280988 0.118158 10.000000
3.589118 -1.296379 0.118439 5.000000
4.163227 -0.802231 0.075254 14.000000
4.133269 -0.809615 0.074995 30.000000
4.128805 -0.821901 0.074977 27.000000
4.120383 -0.833374 0.074921 22.000000
4.100176 -0.842387 0.074755 35.000000
4.101488 -0.855780 0.074792 19.000000
4.077322 -0.863798 0.074588 34.000000
4.066832 -0.874620 0.074514 37.000000
4.059245 -0.886026 0.074468 52.000000
4.056508 -0.898475 0.074468 43.000000
4.045928 -0.909162 0.074394 44.000000
4.031420 -0.918902 0.074283 24.000000
4.019814 -0.929239 0.074200 23.000000
4.027653 -0.944078 0.074302 31.000000
4.016954 -0.954580 0.074228 40.000000
4.014007 -0.966899 0.074228 40.000000
4.013936 -0.979921 0.074255 24.000000
4.007028 -0.991270 0.074218 45.000000
4.007848 -1.004532 0.074255 45.000000
4.011531 -1.018546 0.074320 42.000000
4.006451 -1.030351 0.074302 32.000000
4.010045 -1.044402 0.074366 17.000000
4.003921 -1.055935 0.074339 14.000000
4.029645 -1.075955 0.074616 22.000000
4.047562 -1.094055 0.074820 45.000000
4.051902 -1.108580 0.074894 37.000000
4.066792 -1.126077 0.075069 52.000000
4.073909 -1.141517 0.075171 47.000000
4.081932 -1.157284 0.075282 25.000000
4.088935 -1.172836 0.075384 20.000000
4.153718 -0.799355 0.022205 24.000000
4.142413 -0.810369 0.022235 19.000000
4.128137 -0.820737 0.022275 20.000000
4.107955 -0.829839 0.022335 31.000000
4.091675 -0.839628 0.022381 28.000000
4.077331 -0.849732 0.022421 45.000000
4.071770 -0.861617 0.022431 41.000000
4.066174 -0.873476 0.022441 51.000000
4.055658 -0.884245 0.022467 42.000000
4.049021 -0.895820 0.022480 50.000000
4.038447 -0.906488 0.022507 52.000000
4.025896 -0.916656 0.022540 54.000000
4.020142 -0.928329 0.022550 48.000000
4.011433 -0.939292 0.022570 61.000000
4.008532 -0.951595 0.022570 54.000000
4.008510 -0.964589 0.022560 53.000000
4.002617 -0.976173 0.022570 57.000000
4.005429 -0.989886 0.022550 81.000000
4.003343 -1.002412 0.022547 54.000000
4.005095 -1.015917 0.022530 50.000000
4.009709 -1.030189 0.022504 47.000000
4.018144 -1.045504 0.022464 40.000000
4.027489 -1.061135 0.022421 31.000000
4.041608 -1.078121 0.022361 27.000000
4.049867 -1.093640 0.022321 31.000000
4.063857 -1.110801 0.022262 31.000000
4.074888 -1.127259 0.022212 29.000000
4.074299 -1.140563 0.022202 46.000000
4.088101 -1.157958 0.022142 15.000000
4.153352 -0.798829 -0.030014 23.000000
4.136163 -0.808688 -0.029778 23.000000
4.122875 -0.819229 -0.029605 25.000000
4.106621 -0.829103 -0.029385 37.000000
4.085448 -0.837879 -0.029087 42.000000
4.070133 -0.847758 -0.028883 31.000000
4.065556 -0.859827 -0.028851 37.000000
4.058989 -0.871456 -0.028789 55.000000
4.049458 -0.882414 -0.028679 63.000000
4.039897 -0.893321 -0.028569 55.000000
4.027382 -0.903522 -0.028412 37.000000
4.023616 -0.915651 -0.028396 63.000000
4.015917 -0.926866 -0.028317 53.000000
4.012081 -0.938955 -0.028302 61.000000
4.010154 -0.951490 -0.028317 50.000000
4.006244 -0.963555 -0.028302 50.000000
4.005212 -0.976315 -0.028333 53.000000
4.002198 -0.988598 -0.028333 78.000000
4.003995 -1.002086 -0.028412 47.000000
4.000902 -1.014366 -0.028412 119.000000
4.013267 -1.030616 -0.028663 69.000000
4.024601 -1.046700 -0.028898 38.000000
4.030072 -1.061335 -0.029040 51.000000
4.044187 -1.078333 -0.029323 42.000000
4.056305 -1.094906 -0.029574 37.000000
4.069323 -1.111827 -0.029841 37.000000
4.085166 -1.129637 -0.030155 35.000000
4.091310 -1.144860 -0.030312 25.000000
4.096437 -1.159859 -0.030453 33.000000
4.112083 -1.177930 -0.030768 13.000000
4.164908 -0.801505 -0.081113 27.000000
4.144771 -0.810830 -0.080613 34.000000
4.127556 -0.820622 -0.080197 27.000000
4.109341 -0.830119 -0.079753 19.000000
4.087190 -0.838709 -0.079198 23.000000
4.068939 -0.847986 -0.078754 28.000000
4.054583 -0.857985 -0.078421 33.000000
4.048999 -0.869791 -0.078338 49.000000
4.040451 -0.880933 -0.078171 47.000000
4.032849 -0.892247 -0.078033 68.000000
4.030092 -0.904615 -0.078033 75.000000
4.023399 -0.916089 -0.077922 65.000000
4.013752 -0.926855 -0.077728 49.000000
4.010889 -0.939165 -0.077728 41.000000
4.007016 -0.951235 -0.077700 59.000000
4.002135 -0.963057 -0.077644 52.000000
4.001104 -0.975804 -0.077700 55.000000
4.001003 -0.988793 -0.077783 59.000000
4.003769 -1.002519 -0.077950 59.000000
4.010365 -1.017252 -0.078227 43.000000
4.013034 -1.031042 -0.078393 45.000000
4.021461 -1.046366 -0.078726 45.000000
4.027900 -1.061243 -0.079004 48.000000
4.036216 -1.076684 -0.079337 34.000000
4.046405 -1.092706 -0.079725 32.000000
4.058463 -1.109328 -0.080169 22.000000
4.063712 -1.124171 -0.080419 21.000000
4.070834 -1.139594 -0.080724 31.000000
4.077899 -1.155071 -0.081029 25.000000
4.087790 -1.171428 -0.081418 14.000000
4.150966 -0.785171 -0.133597 32.000000
4.145594 -0.797336 -0.133477 28.000000
4.137244 -0.808900 -0.133235 30.000000
4.126904 -0.820030 -0.132912 33.000000
4.108698 -0.829522 -0.132267 24.000000
4.100261 -0.840919 -0.132026 25.000000
4.083967 -0.850641 -0.131461 41.000000
4.069607 -0.860684 -0.130978 39.000000
4.061087 -0.871906 -0.130736 42.000000
4.050582 -0.882659 -0.130413 45.000000
4.041026 -0.893571 -0.130131 48.000000
4.033391 -0.904870 -0.129930 59.000000
4.022801 -0.915466 -0.129607 44.000000
4.017054 -0.927129 -0.129486 50.000000
4.014190 -0.939449 -0.129486 65.000000
4.012261 -0.951990 -0.129527 56.000000
4.011265 -0.964763 -0.129607 51.000000
4.011198 -0.977775 -0.129728 54.000000
4.011090 -0.990796 -0.129849 44.000000
4.012877 -1.004310 -0.130051 40.000000
4.014620 -1.017845 -0.130252 50.000000
4.020188 -1.032394 -0.130615 39.000000
4.021836 -1.045981 -0.130816 49.000000
4.025373 -1.060097 -0.131098 29.000000
4.030790 -1.074759 -0.131461 31.000000
4.037120 -1.089725 -0.131864 39.000000
4.052071 -1.107111 -0.132630 21.000000
4.070805 -1.125665 -0.133557 18.000000
4.075992 -1.140572 -0.133920 21.000000
4.085932 -1.156884 -0.134484 30.000000
4.104456 -1.175745 -0.135411 16.000000
4.100830 -1.188332 -0.135411 10.000000
4.154584 -0.774612 -0.184479 17.000000
4.151207 -0.787169 -0.184426 32.000000
4.142888 -0.798768 -0.184112 42.000000
4.129638 -0.809365 -0.183536 21.000000
4.121259 -0.820862 -0.183222 19.000000
4.103059 -0.830337 -0.182385 38.000000
4.088754 -0.840511 -0.181757 31.000000
4.074425 -0.850606 -0.181129 46.000000
4.068865 -0.862481 -0.180972 36.000000
4.059365 -0.873492 -0.180606 53.000000
4.053740 -0.885303 -0.180449 43.000000
4.048079 -0.897088 -0.180292 60.000000
4.043359 -0.909066 -0.180187 49.000000
4.035683 -0.920358 -0.179925 49.000000
4.032840 -0.932735 -0.179925 41.000000
4.028986 -0.944875 -0.179873 42.000000
4.028984 -0.957924 -0.180030 43.000000
4.026026 -0.970280 -0.180030 46.000000
4.025941 -0.983337 -0.180187 62.000000
4.022905 -0.995684 -0.180187 43.000000
4.026612 -1.009719 -0.180553 35.000000
4.025432 -1.022560 -0.180658 47.000000
4.026145 -1.035899 -0.180867 46.000000
4.028746 -1.049755 -0.181181 29.000000
4.033231 -1.064146 -0.181600 25.000000
4.038631 -1.078832 -0.182071 43.000000
4.046872 -1.094342 -0.182699 28.000000
4.057944 -1.110703 -0.183484 29.000000
4.068955 -1.127143 -0.184269 25.000000
4.079902 -1.143660 -0.185054 36.000000
4.078296 -1.156716 -0.185159 17.000000
4.093927 -1.174726 -0.186206 9.000000
4.153928 -0.772539 -0.236764 14.000000
4.145656 -0.784166 -0.236376 19.000000
4.143230 -0.796881 -0.236376 30.000000
4.133911 -0.808248 -0.235923 33.000000
4.124560 -0.819565 -0.235470 23.000000
4.111267 -0.830041 -0.234759 39.000000
4.098926 -0.840645 -0.234111 32.000000
4.093397 -0.852606 -0.233917 33.000000
4.090762 -0.865160 -0.233917 32.000000
4.088088 -0.877706 -0.233917 41.000000
4.084401 -0.890031 -0.233853 40.000000
4.077754 -0.901696 -0.233594 48.000000
4.069126 -0.912891 -0.233206 35.000000
4.061441 -0.924263 -0.232882 35.000000
4.049836 -0.934698 -0.232300 40.000000
4.038205 -0.945071 -0.231717 40.000000
4.032373 -0.956764 -0.231523 52.000000
4.032329 -0.969831 -0.231717 48.000000
4.031274 -0.982671 -0.231847 45.000000
4.032115 -0.995991 -0.232106 42.000000
4.037753 -1.010538 -0.232688 37.000000
4.038503 -1.023903 -0.232947 38.000000
4.045008 -1.038771 -0.233594 32.000000
4.042768 -1.051427 -0.233659 52.000000
4.045313 -1.065350 -0.234047 31.000000
4.049738 -1.079814 -0.234564 43.000000
4.056041 -1.094835 -0.235212 32.000000
4.060363 -1.109378 -0.235729 40.000000
4.071367 -1.125820 -0.236700 38.000000
4.086153 -1.143417 -0.237929 25.000000
4.083586 -1.156219 -0.237994 37.000000
4.127984 -1.182487 -0.241229 12.000000
4.142548 -1.200425 -0.242459 6.000000
4.168110 -0.763906 -0.287926 22.000000
4.158886 -0.775413 -0.287391 24.000000
4.149630 -0.786870 -0.286855 25.000000
4.143280 -0.798844 -0.286549 21.000000
4.129067 -0.809253 -0.285630 22.000000
4.120697 -0.820750 -0.285171 24.000000
4.113274 -0.832401 -0.284788 26.000000
4.102887 -0.843412 -0.284176 38.000000
4.100280 -0.855996 -0.284176 35.000000
4.098610 -0.868778 -0.284252 34.000000
4.100800 -0.882396 -0.284635 33.000000
4.091254 -0.893485 -0.284099 24.000000
4.088494 -0.906033 -0.284099 42.000000
4.086668 -0.918790 -0.284176 36.000000
4.079941 -0.930438 -0.283870 27.000000
4.073181 -0.942053 -0.283563 34.000000
4.063476 -0.952953 -0.283028 49.000000
4.062474 -0.965876 -0.283181 19.000000
4.057552 -0.977868 -0.283028 25.000000
4.050659 -0.989367 -0.282721 54.000000
4.047605 -1.001790 -0.282721 33.000000
4.045479 -1.014445 -0.282798 36.000000
4.042348 -1.026852 -0.282798 36.000000
4.044972 -1.040738 -0.283257 24.000000
4.040796 -1.052891 -0.283181 25.000000
4.038511 -1.065537 -0.283257 38.000000
4.039076 -1.078951 -0.283563 32.000000
4.043447 -1.093417 -0.284176 40.000000
4.048729 -1.108184 -0.284865 27.000000
4.059725 -1.124589 -0.286013 24.000000
4.068738 -1.140534 -0.287008 27.000000
4.071934 -1.154913 -0.287544 18.000000
4.075081 -1.169324 -0.288080 19.000000
4.103076 -1.190984 -0.290605 5.000000
4.142470 -0.758755 -0.337528 24.000000
4.139143 -0.771277 -0.337439 30.000000
4.128928 -0.782488 -0.336729 35.000000
4.127486 -0.795340 -0.336818 24.000000
4.120139 -0.807042 -0.336374 41.000000
4.111783 -0.818511 -0.335842 32.000000
4.103395 -0.829937 -0.335310 49.000000
4.093023 -0.840917 -0.334600 34.000000
4.084574 -0.852249 -0.334068 29.000000
4.083889 -0.865190 -0.334245 32.000000
4.082190 -0.877924 -0.334334 35.000000
4.080450 -0.890657 -0.334423 29.000000
4.088396 -0.905541 -0.335398 49.000000
4.091429 -0.919391 -0.335931 34.000000
4.090531 -0.932382 -0.336108 33.000000
4.091534 -0.945825 -0.336463 55.000000
4.093461 -0.959510 -0.336907 24.000000
4.094374 -0.972986 -0.337262 28.000000
4.100085 -0.987643 -0.338060 33.000000
4.085424 -0.997381 -0.336995 50.000000
4.074610 -1.007996 -0.336286 43.000000
4.064735 -1.018796 -0.335665 59.000000
4.051937 -1.028810 -0.334777 37.000000
4.042973 -1.039747 -0.334245 46.000000
4.035909 -1.051141 -0.333890 38.000000
4.031702 -1.063264 -0.333802 55.000000
4.038043 -1.078199 -0.334689 37.000000
4.044333 -1.093182 -0.335576 62.000000
4.054410 -1.109266 -0.336818 31.000000
4.058666 -1.123827 -0.337528 41.000000
4.069586 -1.140306 -0.338859 34.000000
4.069901 -1.153872 -0.339213 29.000000
4.080703 -1.170474 -0.340544 25.000000
4.096225 -1.188541 -0.342319 13.000000
4.139842 -0.744871 -0.390220 17.000000
4.114050 -0.753274 -0.387791 11.000000
4.136171 -0.770440 -0.390321 28.000000
4.137699 -0.783866 -0.390726 32.000000
4.129412 -0.795429 -0.390119 34.000000
4.125000 -0.807712 -0.389916 24.000000
4.115672 -0.819007 -0.389208 24.000000
4.104363 -0.829858 -0.388297 37.000000
4.094976 -0.841046 -0.387588 32.000000
4.094324 -0.854011 -0.387791 34.000000
4.094605 -0.867186 -0.388094 45.000000
4.091925 -0.879744 -0.388094 34.000000
4.096012 -0.893777 -0.388803 51.000000
4.101021 -0.908057 -0.389613 39.000000
4.111806 -0.923684 -0.391030 30.000000
4.127384 -0.940489 -0.392953 23.000000
4.103153 -0.948225 -0.390726 58.000000
4.112818 -0.963756 -0.392042 53.000000
4.125329 -0.980044 -0.393662 32.000000
4.118434 -0.991765 -0.393257 41.000000
4.112473 -1.003689 -0.392953 25.000000
4.099715 -1.013915 -0.391941 28.000000
4.085969 -1.023831 -0.390827 39.000000
4.071237 -1.033428 -0.389613 24.000000
4.059374 -1.043686 -0.388702 24.000000
4.050376 -1.054633 -0.388094 27.000000
4.044236 -1.066294 -0.387791 46.000000
4.043829 -1.079466 -0.388094 36.000000
4.044340 -1.092904 -0.388499 36.000000
4.055364 -1.109240 -0.390018 36.000000
4.060571 -1.124063 -0.390929 37.000000
4.076265 -1.141877 -0.392953 25.000000
4.106246 -1.163864 -0.396496 15.000000
4.089266 -1.172620 -0.395079 26.000000
4.138204 -1.200390 -0.400647 7.000000
4.193362 -0.754039 -0.446705 20.000000
4.178324 -0.764574 -0.445236 25.000000
4.166190 -0.775570 -0.444106 23.000000
4.152077 -0.786129 -0.442749 27.000000
4.136961 -0.796421 -0.441280 35.000000
4.124748 -0.807200 -0.440150 30.000000
4.121278 -0.819657 -0.440037 45.000000
4.114848 -0.831509 -0.439584 43.000000
4.114223 -0.844529 -0.439810 30.000000
4.118423 -0.858568 -0.440602 34.000000
4.115769 -0.871199 -0.440602 43.000000
4.117933 -0.884866 -0.441167 44.000000
4.133644 -0.901520 -0.443314 23.000000
4.120188 -0.911835 -0.442071 34.000000
4.127065 -0.926649 -0.443201 27.000000
4.139703 -0.942838 -0.445010 16.000000
4.127068 -0.966634 -0.444219 13.000000
4.124083 -0.979291 -0.444219 23.000000
4.113332 -0.990078 -0.443314 22.000000
4.101587 -1.000573 -0.442297 28.000000
4.093676 -1.011959 -0.441732 28.000000
4.078022 -1.021374 -0.440263 31.000000
4.071017 -1.032903 -0.439810 33.000000
4.064942 -1.044645 -0.439471 43.000000
4.064603 -1.057863 -0.439810 36.000000
4.060378 -1.070074 -0.439697 35.000000
4.056116 -1.082270 -0.439584 56.000000
4.049898 -1.093931 -0.439245 38.000000
4.049398 -1.107138 -0.439584 30.000000
4.051728 -1.121146 -0.440263 31.000000
4.046356 -1.133035 -0.440037 14.000000
4.044773 -1.145986 -0.440263 28.000000
4.054609 -1.162224 -0.441845 19.000000
4.207542 -0.757033 -0.501900 15.000000
4.178850 -0.765121 -0.498516 20.000000
4.159901 -0.774854 -0.496385 29.000000
4.147757 -0.785768 -0.495132 31.000000
4.130712 -0.795679 -0.493252 18.000000
4.121436 -0.807016 -0.492375 26.000000
4.122833 -0.820430 -0.492876 18.000000
4.123214 -0.833663 -0.493252 35.000000
4.125496 -0.847306 -0.493879 31.000000
4.132590 -0.861982 -0.495132 34.000000
4.135750 -0.875888 -0.495884 34.000000
4.138864 -0.889822 -0.496636 31.000000
4.139022 -0.903149 -0.497012 28.000000
4.133326 -0.915201 -0.496636 25.000000
4.140860 -0.997159 -0.499895 26.000000
4.130069 -1.007979 -0.498892 26.000000
4.119252 -1.018741 -0.497889 19.000000
4.099746 -1.027279 -0.495759 26.000000
4.083112 -1.036439 -0.494004 24.000000
4.074147 -1.047480 -0.493252 25.000000
4.069954 -1.059725 -0.493127 39.000000
4.067643 -1.072459 -0.493252 36.000000
4.067209 -1.085700 -0.493628 40.000000
4.072480 -1.100500 -0.494756 35.000000
4.069085 -1.112989 -0.494756 48.000000
4.072344 -1.127318 -0.495633 31.000000
4.068867 -1.139807 -0.495633 16.000000
4.038622 -1.144717 -0.492124 7.000000
4.190035 -0.765212 -0.552659 17.000000
4.142872 -0.769737 -0.546337 35.000000
4.140491 -0.782443 -0.546337 36.000000
4.134180 -0.794394 -0.545787 43.000000
4.127834 -0.806314 -0.545237 45.000000
4.132143 -0.820325 -0.546199 28.000000
4.132519 -0.833586 -0.546612 35.000000
4.137705 -0.847852 -0.547711 35.000000
4.144781 -0.862561 -0.549086 31.000000
4.145992 -0.876093 -0.549635 34.000000
4.159749 -0.892342 -0.551972 28.000000
4.164733 -0.906786 -0.553071 17.000000
4.155858 -0.998789 -0.554721 13.000000
4.128715 -1.005672 -0.551285 25.000000
4.113109 -1.015247 -0.549498 24.000000
