ply
format ascii 1.0
element vertex 1250
property float x
property float y
property float z
property float intensity
end_header
3.501840 -0.808798 0.642041 37.000000
3.500302 -0.819762 0.642208 33.000000
3.499690 -0.830952 0.642541 38.000000
3.500000 -0.842376 0.643042 31.000000
3.497399 -0.853110 0.643042 46.000000
3.493808 -0.863599 0.642875 36.000000
3.494968 -0.875271 0.643543 32.000000
3.489399 -0.885263 0.643042 33.000000
3.483802 -0.895229 0.642541 37.000000
3.485810 -0.907153 0.643376 41.000000
3.483964 -0.918094 0.643543 39.000000
3.483989 -0.929540 0.644044 30.000000
3.484929 -0.941251 0.644712 31.000000
3.483927 -0.952458 0.645046 39.000000
3.481939 -0.963405 0.645213 30.000000
3.483714 -0.975410 0.646047 40.000000
3.479757 -0.985825 0.645880 38.000000
3.475768 -0.996225 0.645713 38.000000
3.471748 -1.006609 0.645546 36.000000
3.468644 -1.017256 0.645546 43.000000
3.465506 -1.027893 0.645546 37.000000
3.463281 -1.038803 0.645713 25.000000
3.457247 -1.048565 0.645213 29.000000
3.453071 -1.058878 0.645046 35.000000
3.448864 -1.069175 0.644879 26.000000
3.449332 -1.080930 0.645546 29.000000
3.445059 -1.091210 0.645379 30.000000
3.439817 -1.101173 0.645046 35.000000
3.427979 -1.108993 0.643543 22.000000
3.597779 -0.297923 0.599674 17.000000
3.623424 -0.311245 0.603856 32.000000
3.619500 -0.322097 0.603391 37.000000
3.615543 -0.332928 0.602926 35.000000
3.617455 -0.344300 0.603391 29.000000
3.609499 -0.354719 0.602307 41.000000
3.609377 -0.365891 0.602462 53.000000
3.611185 -0.377271 0.602926 33.000000
3.609029 -0.388242 0.602771 45.000000
3.610766 -0.399639 0.603236 56.000000
3.610505 -0.410827 0.603391 48.000000
3.611190 -0.422131 0.603701 39.000000
3.609878 -0.433208 0.603701 43.000000
3.609512 -0.444402 0.603856 44.000000
3.611072 -0.455845 0.604320 41.000000
3.605738 -0.466414 0.603701 46.000000
3.601352 -0.477085 0.603236 42.000000
3.594976 -0.487467 0.602462 40.000000
3.590529 -0.498087 0.601997 45.000000
3.586049 -0.508683 0.601532 46.000000
3.581538 -0.519257 0.601068 36.000000
3.580906 -0.530388 0.601223 40.000000
3.579262 -0.541371 0.601223 31.000000
3.580513 -0.552802 0.601687 61.000000
3.578800 -0.563784 0.601687 43.000000
3.579980 -0.575232 0.602152 38.000000
3.578198 -0.586212 0.602152 34.000000
3.577357 -0.597350 0.602307 35.000000
3.576482 -0.608488 0.602462 38.000000
3.577518 -0.619964 0.602926 42.000000
3.572681 -0.630422 0.602462 47.000000
3.568785 -0.641030 0.602152 40.000000
3.564858 -0.651621 0.601842 35.000000
3.565756 -0.663096 0.602307 43.000000
3.563705 -0.674033 0.602307 32.000000
3.563560 -0.685336 0.602616 49.000000
3.564350 -0.696835 0.603081 36.000000
3.564133 -0.708152 0.603391 32.000000
3.562912 -0.719279 0.603546 34.000000
3.565527 -0.731200 0.604320 29.000000
3.558432 -0.741127 0.603546 54.000000
3.556141 -0.752041 0.603546 50.000000
3.551885 -0.762532 0.603236 34.000000
3.541807 -0.771742 0.601997 44.000000
3.539423 -0.782605 0.601997 45.000000
3.537005 -0.793460 0.601997 51.000000
3.532628 -0.803869 0.601687 33.000000
3.529182 -0.814481 0.601532 37.000000
3.526667 -0.825305 0.601532 51.000000
3.524118 -0.836120 0.601532 48.000000
3.521536 -0.846928 0.601532 44.000000
3.520841 -0.858196 0.601842 45.000000
3.513396 -0.867809 0.601068 32.000000
3.508801 -0.878104 0.600758 34.000000
3.507047 -0.889108 0.600913 41.000000
3.504303 -0.899863 0.600913 30.000000
3.508219 -0.912351 0.601997 38.000000
3.510180 -0.924368 0.602771 54.000000
3.510191 -0.935897 0.603236 51.000000
3.513026 -0.948207 0.604165 40.000000
3.516772 -0.960803 0.605250 38.000000
3.516664 -0.972378 0.605714 49.000000
3.510810 -0.982364 0.605250 47.000000
3.501126 -0.991246 0.604165 45.000000
3.499018 -1.002254 0.604320 37.000000
3.490233 -1.011334 0.603391 33.000000
3.488062 -1.022315 0.603546 35.000000
3.483962 -1.032731 0.603391 43.000000
3.480777 -1.043414 0.603391 38.000000
3.483232 -1.055809 0.604320 45.000000
3.483755 -1.067648 0.604940 45.000000
3.471970 -1.075699 0.603546 46.000000
3.473367 -1.087823 0.604320 35.000000
3.459653 -1.095193 0.602616 33.000000
3.444045 -1.101887 0.600603 21.000000
3.451928 -1.116096 0.602462 27.000000
3.421256 -1.117781 0.597970 17.000000
3.642713 -0.301611 0.561925 14.000000
3.652618 -0.313713 0.563497 26.000000
3.643752 -0.324219 0.562354 35.000000
3.634856 -0.334673 0.561210 30.000000
3.632826 -0.345729 0.561067 37.000000
3.629778 -0.356680 0.560781 38.000000
3.628667 -0.367814 0.560781 43.000000
3.617677 -0.377920 0.559351 32.000000
3.619453 -0.389334 0.559780 39.000000
3.621193 -0.400762 0.560209 33.000000
3.618963 -0.411758 0.560066 38.000000
3.621615 -0.423317 0.560638 31.000000
3.618334 -0.434191 0.560352 50.000000
3.614038 -0.444928 0.559923 35.000000
3.617565 -0.456632 0.560638 34.000000
3.612221 -0.467222 0.560066 37.000000
3.605865 -0.477653 0.559351 40.000000
3.602421 -0.488449 0.559065 37.000000
3.600905 -0.499498 0.559065 33.000000
3.601316 -0.510821 0.559351 35.000000
3.597773 -0.521584 0.559065 41.000000
3.597135 -0.532764 0.559208 27.000000
3.595483 -0.543797 0.559208 43.000000
3.594776 -0.554976 0.559351 23.000000
3.592079 -0.565848 0.559208 30.000000
3.588372 -0.576553 0.558922 48.000000
3.588539 -0.587878 0.559208 44.000000
3.587695 -0.599048 0.559351 32.000000
3.585840 -0.610052 0.559351 46.000000
3.589803 -0.622062 0.560209 33.000000
3.584954 -0.632557 0.559780 49.000000
3.583970 -0.643728 0.559923 38.000000
3.580031 -0.654365 0.559637 35.000000
3.576061 -0.664984 0.559351 33.000000
3.571086 -0.675401 0.558922 34.000000
3.568997 -0.686354 0.558922 47.000000
3.566875 -0.697300 0.558922 60.000000
3.563748 -0.708047 0.558779 44.000000
3.564469 -0.719564 0.559208 37.000000
3.563215 -0.730695 0.559351 40.000000
3.561925 -0.741825 0.559494 38.000000
3.562538 -0.753362 0.559923 32.000000
3.560210 -0.764288 0.559923 37.000000
3.553013 -0.774155 0.559208 28.000000
3.551587 -0.785266 0.559351 43.000000
3.549161 -0.796158 0.559351 57.000000
3.548632 -0.807482 0.559637 46.000000
3.544209 -0.817920 0.559351 35.000000
3.537828 -0.827889 0.558779 39.000000
3.534309 -0.838511 0.558636 37.000000
3.533644 -0.849812 0.558922 40.000000
3.531021 -0.860649 0.558922 35.000000
3.528363 -0.871478 0.558922 42.000000
3.522793 -0.881579 0.558493 36.000000
3.521031 -0.892626 0.558636 35.000000
3.524028 -0.904899 0.559494 39.000000
3.525067 -0.916702 0.560066 38.000000
3.523195 -0.927764 0.560209 32.000000
3.526071 -0.940096 0.561067 40.000000
3.524126 -0.951167 0.561210 32.000000
3.526920 -0.963538 0.562068 45.000000
3.523947 -0.974354 0.562068 43.000000
3.519988 -0.984894 0.561925 46.000000
3.515045 -0.995150 0.561639 43.000000
3.512927 -1.006202 0.561782 39.000000
3.507922 -1.016424 0.561496 50.000000
3.506687 -1.027737 0.561782 36.000000
3.501619 -1.037929 0.561496 47.000000
3.502211 -1.049803 0.562068 48.000000
3.500868 -1.061116 0.562354 42.000000
3.502328 -1.073300 0.563069 47.000000
3.497128 -1.083455 0.562783 50.000000
3.499455 -1.095951 0.563640 34.000000
3.503625 -1.109070 0.564784 29.000000
3.497378 -1.118909 0.564355 31.000000
3.494871 -1.129938 0.564498 38.000000
3.502679 -1.144340 0.566214 25.000000
3.688142 -0.282641 0.523039 17.000000
3.676387 -0.293087 0.521597 26.000000
3.687327 -0.305348 0.523170 66.000000
3.678471 -0.315979 0.522121 60.000000
3.679459 -0.327439 0.522383 84.000000
3.665604 -0.337543 0.520680 58.000000
3.658629 -0.348223 0.519894 46.000000
3.655571 -0.359252 0.519632 50.000000
3.647547 -0.369764 0.518714 33.000000
3.642452 -0.380541 0.518190 45.000000
3.643238 -0.391926 0.518452 46.000000
3.636107 -0.402447 0.517666 53.000000
3.634855 -0.413600 0.517666 45.000000
3.632584 -0.424635 0.517535 41.000000
3.631264 -0.435777 0.517535 52.000000
3.631878 -0.447158 0.517797 44.000000
3.631473 -0.458423 0.517928 37.000000
3.633982 -0.470071 0.518452 44.000000
3.632523 -0.481218 0.518452 41.000000
3.628082 -0.491960 0.518059 35.000000
3.629501 -0.503497 0.518452 54.000000
3.624995 -0.514212 0.518059 40.000000
3.618495 -0.524619 0.517404 47.000000
3.615888 -0.535573 0.517273 38.000000
3.608346 -0.545773 0.516486 45.000000
3.606655 -0.556841 0.516486 69.000000
3.604929 -0.567904 0.516486 48.000000
3.603170 -0.578961 0.516486 29.000000
3.602355 -0.590173 0.516617 56.000000
3.602484 -0.601549 0.516880 31.000000
3.603553 -0.613097 0.517273 37.000000
3.601655 -0.624150 0.517273 46.000000
3.601676 -0.635541 0.517535 42.000000
3.599709 -0.646588 0.517535 51.000000
3.593808 -0.656915 0.517011 47.000000
3.591775 -0.667938 0.517011 47.000000
3.582891 -0.677664 0.516093 40.000000
3.577874 -0.688091 0.515700 40.000000
3.575747 -0.699064 0.515700 40.000000
3.572613 -0.709838 0.515569 48.000000
3.573333 -0.721384 0.515962 39.000000
3.575959 -0.733340 0.516617 49.000000
3.574663 -0.744510 0.516749 40.000000
3.576241 -0.756294 0.517273 55.000000
3.575843 -0.767678 0.517535 47.000000
3.571533 -0.778223 0.517273 48.000000
3.566226 -0.788534 0.516880 36.000000
3.562822 -0.799254 0.516749 39.000000
3.555520 -0.809081 0.516093 41.000000
3.553987 -0.820208 0.516224 55.000000
3.551454 -0.831108 0.516224 38.000000
3.550817 -0.842458 0.516486 53.000000
3.551107 -0.854043 0.516880 51.000000
3.549433 -0.865169 0.517011 47.000000
3.547724 -0.876292 0.517142 40.000000
3.544058 -0.886931 0.517011 54.000000
3.541320 -0.897800 0.517011 47.000000
3.538549 -0.908661 0.517011 57.000000
3.531907 -0.918514 0.516486 41.000000
3.529072 -0.929345 0.516486 58.000000
3.527162 -0.940423 0.516617 48.000000
3.525218 -0.951499 0.516749 49.000000
3.526107 -0.963355 0.517273 49.000000
3.526001 -0.974961 0.517666 47.000000
3.525858 -0.986576 0.518059 27.000000
3.522814 -0.997389 0.518059 41.000000
3.520691 -1.008465 0.518190 39.000000
3.523293 -1.020917 0.518976 61.000000
3.522999 -1.032559 0.519369 45.000000
3.519814 -1.043362 0.519369 44.000000
3.517546 -1.054441 0.519500 44.000000
3.514295 -1.065228 0.519500 48.000000
3.511958 -1.076295 0.519632 40.000000
3.508640 -1.087064 0.519632 41.000000
3.496773 -1.095156 0.518452 34.000000
3.493397 -1.105879 0.518452 41.000000
3.491876 -1.117195 0.518714 56.000000
3.490319 -1.128513 0.518976 36.000000
3.487783 -1.139524 0.519107 37.000000
3.482388 -1.149597 0.518845 50.000000
3.473202 -1.158393 0.518059 7.000000
3.679954 -0.281316 0.476340 23.000000
3.687982 -0.293311 0.477411 37.000000
3.685085 -0.304461 0.477173 26.000000
3.680176 -0.315427 0.476697 57.000000
3.681170 -0.326891 0.476935 42.000000
3.688060 -0.338908 0.477886 25.000000
3.668221 -0.348443 0.475627 53.000000
3.671088 -0.360082 0.476102 40.000000
3.667002 -0.371044 0.475746 41.000000
3.667822 -0.382498 0.475984 44.000000
3.668605 -0.393960 0.476221 47.000000
3.666392 -0.405105 0.476102 39.000000
3.665132 -0.416351 0.476102 53.000000
3.660879 -0.427249 0.475746 47.000000
3.653636 -0.437772 0.475032 30.000000
3.657203 -0.449583 0.475627 39.000000
3.646940 -0.459686 0.474556 49.000000
3.645513 -0.470873 0.474556 29.000000
3.645035 -0.482185 0.474675 44.000000
3.643539 -0.493365 0.474675 41.000000
3.641024 -0.504405 0.474556 38.000000
3.642409 -0.515990 0.474913 44.000000
3.636878 -0.526595 0.474438 47.000000
3.633281 -0.537460 0.474200 35.000000
3.630633 -0.548456 0.474081 56.000000
3.626971 -0.559290 0.473843 36.000000
3.625238 -0.570415 0.473843 39.000000
3.625431 -0.581849 0.474081 38.000000
3.622650 -0.592808 0.473962 46.000000
3.622773 -0.604246 0.474200 46.000000
3.620902 -0.615358 0.474200 33.000000
3.618018 -0.626294 0.474081 40.000000
3.615102 -0.637219 0.473962 53.000000
3.612153 -0.648132 0.473843 43.000000
3.614054 -0.659923 0.474319 32.000000
3.612013 -0.671008 0.474319 38.000000
3.606035 -0.681350 0.473843 47.000000
3.601002 -0.691849 0.473486 51.000000
3.595939 -0.702323 0.473129 40.000000
3.592793 -0.713159 0.473010 37.000000
3.588641 -0.723787 0.472773 47.000000
3.589322 -0.735390 0.473129 46.000000
3.589966 -0.747004 0.473486 50.000000
3.592515 -0.759039 0.474081 44.000000
3.596965 -0.771513 0.474913 31.000000
3.598462 -0.783388 0.475389 42.000000
3.600890 -0.795494 0.475984 32.000000
3.597464 -0.806320 0.475865 42.000000
3.588195 -0.815815 0.475032 40.000000
3.586643 -0.827042 0.475151 60.000000
3.582155 -0.837590 0.474913 41.000000
3.576669 -0.847890 0.474556 54.000000
3.575982 -0.859323 0.474794 44.000000
3.568505 -0.869116 0.474200 39.000000
3.571606 -0.881486 0.474913 50.000000
3.574665 -0.893883 0.475627 35.000000
3.569018 -0.904115 0.475270 42.000000
3.571999 -0.916539 0.475984 41.000000
3.566287 -0.926745 0.475627 46.000000
3.560546 -0.936925 0.475270 51.000000
3.561493 -0.948865 0.475746 46.000000
3.551854 -0.957980 0.474913 35.000000
3.548898 -0.968872 0.474913 37.000000
3.545909 -0.979755 0.474913 44.000000
3.540017 -0.989828 0.474556 49.000000
3.540786 -1.001764 0.475032 55.000000
3.537696 -1.012622 0.475032 40.000000
3.538388 -1.024575 0.475508 56.000000
3.541898 -1.037377 0.476340 41.000000
3.535843 -1.047393 0.475984 50.000000
3.538321 -1.059944 0.476697 52.000000
3.536952 -1.071369 0.476935 35.000000
3.530801 -1.081344 0.476578 56.000000
3.531261 -1.093345 0.477054 49.000000
3.522204 -1.102396 0.476340 29.000000
3.513125 -1.111402 0.475627 30.000000
3.515373 -1.123987 0.476340 31.000000
3.507184 -1.133242 0.475746 27.000000
3.516906 -1.148307 0.477411 11.000000
3.694178 -0.305269 0.432585 17.000000
3.700159 -0.317197 0.433333 37.000000
3.699168 -0.328547 0.433333 46.000000
3.697152 -0.339803 0.433226 46.000000
3.695103 -0.351050 0.433119 56.000000
3.694998 -0.362482 0.433226 39.000000
3.693869 -0.373817 0.433226 44.000000
3.693693 -0.385251 0.433333 46.000000
3.695460 -0.396900 0.433653 48.000000
3.694225 -0.408235 0.433653 38.000000
3.689991 -0.419230 0.433333 58.000000
3.688688 -0.430549 0.433333 56.000000
3.684388 -0.441508 0.433013 47.000000
3.680055 -0.452446 0.432692 41.000000
3.674704 -0.463236 0.432265 53.000000
3.669321 -0.473998 0.431838 41.000000
3.667850 -0.485253 0.431838 39.000000
3.662403 -0.495969 0.431411 38.000000
3.660864 -0.507203 0.431411 52.000000
3.658306 -0.518292 0.431304 46.000000
3.654731 -0.529228 0.431091 39.000000
3.653090 -0.540438 0.431091 52.000000
3.648465 -0.551197 0.430770 51.000000
3.644792 -0.562085 0.430557 51.000000
3.644032 -0.573419 0.430663 47.000000
3.643238 -0.584754 0.430770 49.000000
3.643389 -0.596249 0.430984 38.000000
3.639581 -0.607097 0.430770 39.000000
3.640642 -0.618760 0.431091 38.000000
3.635788 -0.629418 0.430770 42.000000
3.627964 -0.639533 0.430129 54.000000
3.629900 -0.651363 0.430557 50.000000
3.625928 -0.662139 0.430343 31.000000
3.626812 -0.673805 0.430663 42.000000
3.628636 -0.685668 0.431091 42.000000
3.624563 -0.696422 0.430877 54.000000
3.626312 -0.708301 0.431304 54.000000
3.620221 -0.718649 0.430877 53.000000
3.614101 -0.728965 0.430450 56.000000
3.614769 -0.740649 0.430770 42.000000
3.609560 -0.751127 0.430450 50.000000
3.609184 -0.762609 0.430663 49.000000
3.610716 -0.774513 0.431091 39.000000
3.610266 -0.786010 0.431304 38.000000
3.613662 -0.798370 0.431945 51.000000
3.610226 -0.809235 0.431838 49.000000
3.606757 -0.820087 0.431731 42.000000
3.610037 -0.832489 0.432372 38.000000
3.607466 -0.843561 0.432372 45.000000
3.600023 -0.853477 0.431838 43.000000
3.598355 -0.864750 0.431945 32.000000
3.588923 -0.874138 0.431197 40.000000
3.587189 -0.885383 0.431304 41.000000
3.588314 -0.897349 0.431731 42.000000
3.583617 -0.907865 0.431518 55.000000
3.582741 -0.919350 0.431731 47.000000
3.581828 -0.930838 0.431945 43.000000
3.577032 -0.941316 0.431731 37.000000
3.576049 -0.952798 0.431945 44.000000
3.573109 -0.963764 0.431945 51.000000
3.571095 -0.974984 0.432052 51.000000
3.569045 -0.986200 0.432158 43.000000
3.565045 -0.996878 0.432052 43.000000
3.566753 -1.009164 0.432585 53.000000
3.558861 -1.018733 0.432052 38.000000
3.555719 -1.029647 0.432052 45.000000
3.551589 -1.040271 0.431945 50.000000
3.546474 -1.050598 0.431731 55.000000
3.546092 -1.062329 0.432052 41.000000
3.544719 -1.073780 0.432265 55.000000
3.541408 -1.084650 0.432265 49.000000
3.537114 -1.095216 0.432158 35.000000
3.531840 -1.105468 0.431945 35.000000
3.520848 -1.113899 0.431091 30.000000
3.516467 -1.124392 0.430984 33.000000
3.424069 -1.106428 0.420946 9.000000
3.727292 -0.308587 0.391508 10.000000
3.713434 -0.318917 0.390273 34.000000
3.703513 -0.329517 0.389418 37.000000
3.708433 -0.341423 0.389988 44.000000
3.706377 -0.352705 0.389893 60.000000
3.705277 -0.364075 0.389893 36.000000
3.705134 -0.375541 0.389988 71.000000
3.701984 -0.386700 0.389798 60.000000
3.699790 -0.397949 0.389703 73.000000
3.696573 -0.409080 0.389513 63.000000
3.692333 -0.420082 0.389228 40.000000
3.687072 -0.430947 0.388848 36.000000
3.685732 -0.442257 0.388848 48.000000
3.681394 -0.453199 0.388563 41.000000
3.679986 -0.464491 0.388563 53.000000
3.678544 -0.475779 0.388563 60.000000
3.678054 -0.487192 0.388658 44.000000
3.678515 -0.498741 0.388848 45.000000
3.677953 -0.510161 0.388943 47.000000
3.672428 -0.520884 0.388563 33.000000
3.673769 -0.532576 0.388848 59.000000
3.668179 -0.543262 0.388468 37.000000
3.662557 -0.553919 0.388088 50.000000
3.657889 -0.564699 0.387804 42.000000
3.655156 -0.575764 0.387709 44.000000
3.653372 -0.586975 0.387709 61.000000
3.651554 -0.598180 0.387709 66.000000
3.650683 -0.609544 0.387804 44.000000
3.649778 -0.620908 0.387899 41.000000
3.648837 -0.632272 0.387993 36.000000
3.647860 -0.643636 0.388088 38.000000
3.645869 -0.654825 0.388088 46.000000
3.642863 -0.665828 0.387993 40.000000
3.640803 -0.677001 0.387993 50.000000
3.638709 -0.688168 0.387993 49.000000
3.633647 -0.698765 0.387709 50.000000
3.630510 -0.709719 0.387614 39.000000
3.626362 -0.720467 0.387424 64.000000
3.622183 -0.731195 0.387234 50.000000
3.620898 -0.742504 0.387329 42.000000
3.622502 -0.754420 0.387709 40.000000
3.620170 -0.765530 0.387709 52.000000
3.619751 -0.777050 0.387899 54.000000
3.619296 -0.788575 0.388088 56.000000
3.619776 -0.800319 0.388373 54.000000
3.621189 -0.812291 0.388753 65.000000
3.617709 -0.823176 0.388658 56.000000
3.614196 -0.834048 0.388563 46.000000
3.612590 -0.845359 0.388658 54.000000
3.609011 -0.856209 0.388563 48.000000
3.607335 -0.867509 0.388658 61.000000
3.599820 -0.877395 0.388183 42.000000
3.595178 -0.887958 0.387993 53.000000
3.595335 -0.899708 0.388278 59.000000
3.591592 -0.910490 0.388183 42.000000
3.592639 -0.922494 0.388563 42.000000
3.590756 -0.933761 0.388658 36.000000
3.584023 -0.943761 0.388278 48.000000
3.586882 -0.956289 0.388848 45.000000
3.588738 -0.968584 0.389323 58.000000
3.586709 -0.979852 0.389418 36.000000
3.584646 -0.991116 0.389513 52.000000
3.581589 -1.002109 0.389513 43.000000
3.580413 -1.013634 0.389703 60.000000
3.580158 -1.025435 0.389988 49.000000
3.577951 -1.036691 0.390083 69.000000
3.569021 -1.045985 0.389513 65.000000
3.562932 -1.056082 0.389228 49.000000
3.558722 -1.066722 0.389133 62.000000
3.556385 -1.077924 0.389228 50.000000
3.552109 -1.088538 0.389133 54.000000
3.548753 -1.099431 0.389133 50.000000
3.542513 -1.109421 0.388848 32.000000
3.541940 -1.121185 0.389133 43.000000
3.544173 -1.133864 0.389703 32.000000
3.833834 -0.316824 0.353174 6.000000
3.731565 -0.319892 0.344763 40.000000
3.734536 -0.331692 0.345092 26.000000
3.734493 -0.343239 0.345175 54.000000
3.732431 -0.354600 0.345092 48.000000
3.734300 -0.366342 0.345340 37.000000
3.736134 -0.378098 0.345587 46.000000
3.731982 -0.389248 0.345340 38.000000
3.727798 -0.400376 0.345092 54.000000
3.726552 -0.411811 0.345092 49.000000
3.719330 -0.422567 0.344598 52.000000
3.718016 -0.433975 0.344598 56.000000
3.713698 -0.445024 0.344350 39.000000
3.711327 -0.456294 0.344268 46.000000
3.703977 -0.466929 0.343773 39.000000
3.703515 -0.478418 0.343856 58.000000
3.696102 -0.488993 0.343361 58.000000
3.691622 -0.499929 0.343113 37.000000
3.692045 -0.511526 0.343278 54.000000
3.688485 -0.522571 0.343113 56.000000
3.689823 -0.534313 0.343361 42.000000
3.691124 -0.546069 0.343608 45.000000
3.686475 -0.556944 0.343361 39.000000
3.686719 -0.568555 0.343526 44.000000
3.687911 -0.580328 0.343773 67.000000
3.683161 -0.591166 0.343526 47.000000
3.676412 -0.601657 0.343113 60.000000
3.674549 -0.612934 0.343113 53.000000
3.674617 -0.624538 0.343278 40.000000
3.672683 -0.635809 0.343278 43.000000
3.672678 -0.647420 0.343443 53.000000
3.670675 -0.658684 0.343443 41.000000
3.670597 -0.670301 0.343608 43.000000
3.668524 -0.681559 0.343608 48.000000
3.666415 -0.692811 0.343608 47.000000
3.664272 -0.704056 0.343608 31.000000
3.656227 -0.714148 0.343113 64.000000
3.651086 -0.724779 0.342866 46.000000
3.645914 -0.735385 0.342619 36.000000
3.640712 -0.745967 0.342371 47.000000
3.638407 -0.757133 0.342371 50.000000
3.636066 -0.768292 0.342371 45.000000
3.636616 -0.780071 0.342619 53.000000
3.637127 -0.791861 0.342866 41.000000
3.640519 -0.804306 0.343361 39.000000
3.636089 -0.815035 0.343196 44.000000
3.635515 -0.826629 0.343361 45.000000
3.632962 -0.837778 0.343361 49.000000
3.630375 -0.848920 0.343361 54.000000
3.625814 -0.859594 0.343196 58.000000
3.626066 -0.871413 0.343443 51.000000
3.626281 -0.883241 0.343691 38.000000
3.628392 -0.895557 0.344103 51.000000
3.629494 -0.907652 0.344433 46.000000
3.625726 -0.918538 0.344350 30.000000
3.618065 -0.928418 0.343938 44.000000
3.617128 -0.940015 0.344103 54.000000
3.613264 -0.950854 0.344020 41.000000
3.611293 -0.962192 0.344103 48.000000
3.609286 -0.973526 0.344185 63.000000
3.609166 -0.985383 0.344433 44.000000
3.610929 -0.997778 0.344845 43.000000
3.613609 -1.010463 0.345340 45.000000
3.610492 -1.021544 0.345340 44.000000
3.604467 -1.031793 0.345092 43.000000
3.601285 -1.042847 0.345092 46.000000
3.595199 -1.053050 0.344845 40.000000
3.590996 -1.063792 0.344763 54.000000
3.580078 -1.072515 0.344103 38.000000
3.584401 -1.085805 0.344763 49.000000
3.576288 -1.095337 0.344350 53.000000
3.568151 -1.104830 0.343938 34.000000
3.567598 -1.116665 0.344185 50.000000
3.551804 -1.123696 0.343113 38.000000
3.547390 -1.134284 0.343031 14.000000
3.762580 -0.324440 0.302457 27.000000
3.749644 -0.334921 0.301610 31.000000
3.750586 -0.346606 0.301751 46.000000
3.744539 -0.357638 0.301398 26.000000
3.748388 -0.369612 0.301751 48.000000
3.745252 -0.380909 0.301610 42.000000
3.741089 -0.392087 0.301398 27.000000
3.736893 -0.403242 0.301186 39.000000
3.724733 -0.413498 0.300409 48.000000
3.719482 -0.424472 0.300127 35.000000
3.719153 -0.435997 0.300197 37.000000
3.713836 -0.446930 0.299915 41.000000
3.715418 -0.458687 0.300127 42.000000
3.716963 -0.470459 0.300339 38.000000
3.724405 -0.483012 0.300974 39.000000
3.725872 -0.494829 0.301186 46.000000
3.727302 -0.506659 0.301398 54.000000
3.724742 -0.517955 0.301327 35.000000
3.724123 -0.529520 0.301398 38.000000
3.717545 -0.540227 0.301045 41.000000
3.711923 -0.551045 0.300762 55.000000
3.705284 -0.561685 0.300409 39.000000
3.705514 -0.573354 0.300551 50.000000
3.703738 -0.584720 0.300551 42.000000
3.701926 -0.596080 0.300551 50.000000
3.695159 -0.606628 0.300197 43.000000
3.695248 -0.618291 0.300339 51.000000
3.690383 -0.629123 0.300127 43.000000
3.686470 -0.640101 0.299985 40.000000
3.680560 -0.650714 0.299703 34.000000
3.678546 -0.662003 0.299703 45.000000
3.683367 -0.674541 0.300197 52.000000
3.685202 -0.686568 0.300480 47.000000
3.682099 -0.697686 0.300409 40.000000
3.681900 -0.709355 0.300551 51.000000
3.681664 -0.721031 0.300692 38.000000
3.674543 -0.731351 0.300339 56.000000
3.669349 -0.742028 0.300127 37.000000
3.664124 -0.752681 0.299915 49.000000
3.659844 -0.763512 0.299774 44.000000
3.661388 -0.775562 0.300056 51.000000
3.659966 -0.787001 0.300127 37.000000
3.659484 -0.798651 0.300268 48.000000
3.660913 -0.810736 0.300551 50.000000
3.656461 -0.821527 0.300409 50.000000
3.654896 -0.832962 0.300480 52.000000
3.650380 -0.843722 0.300339 38.000000
3.646803 -0.854690 0.300268 43.000000
3.645134 -0.866105 0.300339 45.000000
3.638580 -0.876351 0.300056 39.000000
3.637813 -0.887982 0.300197 42.000000
3.637977 -0.899856 0.300409 41.000000
3.637134 -0.911498 0.300551 48.000000
3.632387 -0.922162 0.300409 57.000000
3.627608 -0.932805 0.300268 30.000000
3.622798 -0.943428 0.300127 53.000000
3.625675 -0.956062 0.300551 50.000000
3.621761 -0.966924 0.300480 59.000000
3.620703 -0.978551 0.300621 43.000000
3.616722 -0.989391 0.300551 35.000000
3.615592 -1.001015 0.300692 46.000000
3.619228 -1.013984 0.301186 56.000000
3.618980 -1.025898 0.301398 38.000000
3.612938 -1.036172 0.301186 53.000000
3.612617 -1.048084 0.301398 60.000000
3.608427 -1.058882 0.301327 40.000000
3.604205 -1.069664 0.301257 41.000000
3.600907 -1.080717 0.301257 50.000000
3.596619 -1.091470 0.301186 53.000000
3.590393 -1.101622 0.300974 29.000000
3.592713 -1.114403 0.301398 45.000000
3.591181 -1.126017 0.301539 45.000000
3.580102 -1.134620 0.300974 29.000000
3.531001 -1.131008 0.297584 13.000000
3.762777 -0.323230 0.255004 29.000000
3.765745 -0.335127 0.255236 31.000000
3.769670 -0.347137 0.255527 40.000000
3.767593 -0.358605 0.255469 58.000000
3.764488 -0.369967 0.255353 50.000000
3.762342 -0.381414 0.255294 53.000000
3.765126 -0.393370 0.255527 28.000000
3.755961 -0.404064 0.255062 41.000000
3.753711 -0.415476 0.255004 28.000000
3.743492 -0.425973 0.254481 33.000000
3.745142 -0.437804 0.254656 45.000000
3.744773 -0.449411 0.254714 38.000000
3.745358 -0.461142 0.254830 38.000000
3.745906 -0.472881 0.254946 36.000000
3.746418 -0.484627 0.255062 30.000000
3.749862 -0.496775 0.255353 33.000000
3.745352 -0.507874 0.255178 38.000000
3.747732 -0.519911 0.255411 31.000000
3.751061 -0.532108 0.255701 39.000000
3.758303 -0.544904 0.256224 32.000000
3.761551 -0.557164 0.256514 38.000000
3.765746 -0.569598 0.256863 26.000000
3.761021 -0.580691 0.256689 37.000000
3.760208 -0.592382 0.256747 41.000000
3.785971 -0.608353 0.258373 25.000000
3.761428 -0.616251 0.257037 30.000000
3.754597 -0.626965 0.256747 33.000000
3.734941 -0.635465 0.255701 50.000000
3.747728 -0.649479 0.256572 42.000000
3.739819 -0.659933 0.256224 35.000000
3.737777 -0.671403 0.256224 38.000000
3.725879 -0.681071 0.255643 39.000000
3.716902 -0.691221 0.255236 38.000000
3.710840 -0.701878 0.255004 43.000000
3.698866 -0.711373 0.254423 35.000000
3.692747 -0.721951 0.254191 44.000000
3.689536 -0.733082 0.254133 33.000000
3.687269 -0.744398 0.254133 40.000000
3.682035 -0.755105 0.253958 37.000000
3.677746 -0.765990 0.253842 44.000000
3.679286 -0.778097 0.254075 31.000000
3.675905 -0.789171 0.254017 30.000000
3.680294 -0.801934 0.254423 41.000000
3.681715 -0.814083 0.254656 37.000000
3.681149 -0.825812 0.254772 37.000000
3.679571 -0.837323 0.254830 35.000000
3.679903 -0.849282 0.255004 40.000000
3.680197 -0.861251 0.255178 40.000000
3.677537 -0.872537 0.255178 33.000000
3.672902 -0.883348 0.255062 35.000000
3.667264 -0.893903 0.254888 36.000000
3.666443 -0.905629 0.255004 35.000000
3.665584 -0.917358 0.255120 35.000000
3.664688 -0.929090 0.255236 42.000000
3.670522 -0.942565 0.255759 22.000000
3.663749 -0.952816 0.255527 35.000000
3.666601 -0.965578 0.255875 24.000000
3.659763 -0.975793 0.255643 37.000000
3.657716 -0.987276 0.255701 26.000000
3.653706 -0.998230 0.255643 38.000000
3.648702 -1.008903 0.255527 36.000000
3.639822 -1.018477 0.255178 43.000000
3.635720 -1.029367 0.255120 34.000000
3.635423 -1.041342 0.255294 34.000000
3.627417 -1.051100 0.255004 46.000000
3.627049 -1.063067 0.255178 33.000000
3.618028 -1.072487 0.254830 35.000000
3.617590 -1.084442 0.255004 23.000000
3.619022 -1.096984 0.255294 38.000000
3.621367 -1.109837 0.255643 25.000000
3.615084 -1.120056 0.255469 44.000000
3.615441 -1.132335 0.255701 37.000000
3.592916 -1.137394 0.254539 18.000000
3.554229 -1.137152 0.252390 11.000000
4.009869 -0.633667 0.223347 16.000000
4.046370 -0.652154 0.225150 24.000000
4.063079 -0.667637 0.226029 38.000000
4.086628 -0.684382 0.227231 66.000000
4.034287 -0.688362 0.224873 35.000000
4.076447 -0.708419 0.226954 69.000000
4.015232 -0.710496 0.224179 42.000000
4.047444 -0.728999 0.225798 65.000000
3.969528 -0.727568 0.222238 30.000000
3.986917 -0.743399 0.223162 43.000000
3.984619 -0.755627 0.223162 46.000000
3.973453 -0.766149 0.222746 46.000000
4.001474 -0.784283 0.224179 51.000000
3.963778 -0.789541 0.222515 43.000000
4.033794 -0.816340 0.225936 79.000000
3.984301 -0.819070 0.223717 51.000000
3.960255 -0.826804 0.222700 41.000000
3.911768 -0.829227 0.220527 22.000000
3.913112 -0.842064 0.220712 23.000000
3.957358 -0.864283 0.222931 36.000000
3.942008 -0.873614 0.222330 27.000000
3.969524 -0.892488 0.223763 45.000000
3.909302 -0.891573 0.221035 24.000000
3.972733 -0.918851 0.224179 47.000000
4.018526 -0.942425 0.226491 80.000000
3.971880 -0.944364 0.224411 45.000000
4.001984 -0.964493 0.225983 52.000000
4.009682 -0.979371 0.226491 47.000000
3.990173 -0.987592 0.225705 41.000000
3.989062 -1.000315 0.225798 31.000000
3.955959 -1.004932 0.224364 23.000000
4.074760 -1.048393 0.230190 10.000000
4.085131 -0.644332 0.175728 18.000000
4.141351 -0.666233 0.177726 37.000000
4.127453 -0.676993 0.177319 36.000000
4.111556 -0.687345 0.176845 44.000000
4.112384 -0.700459 0.176947 25.000000
4.088552 -0.709312 0.176202 34.000000
4.069626 -0.718895 0.175627 40.000000
4.052647 -0.728723 0.175119 72.000000
4.046460 -0.740433 0.174984 56.000000
4.039257 -0.751928 0.174814 50.000000
4.032021 -0.763387 0.174645 34.000000
4.025734 -0.774998 0.174510 21.000000
4.028242 -0.788305 0.174679 41.000000
4.021883 -0.799879 0.174543 39.000000
4.022349 -0.812809 0.174645 44.000000
4.019836 -0.825145 0.174645 40.000000
4.019243 -0.837882 0.174713 70.000000
4.021542 -0.851244 0.174882 73.000000
4.017934 -0.863368 0.174848 69.000000
4.008431 -0.874200 0.174611 26.000000
4.010610 -0.887574 0.174780 25.000000
4.014694 -0.901407 0.175017 46.000000
4.017756 -0.915052 0.175220 79.000000
4.049985 -0.935475 0.176439 125.000000
4.018878 -0.941283 0.175457 33.000000
4.028611 -0.956611 0.175898 28.000000
4.033431 -0.970838 0.176168 28.000000
4.044026 -0.986525 0.176642 40.000000
4.048742 -1.000847 0.176913 28.000000
4.054378 -1.015450 0.177218 35.000000
4.058024 -1.029605 0.177455 22.000000
4.154657 -0.655024 0.126879 8.000000
4.153615 -0.667926 0.126901 31.000000
4.136746 -0.678243 0.126576 23.000000
4.118868 -0.688299 0.126230 21.000000
4.092096 -0.696744 0.125689 25.000000
4.076148 -0.706908 0.125386 18.000000
4.059191 -0.716806 0.125061 19.000000
4.047132 -0.727490 0.124845 21.000000
4.038980 -0.738825 0.124715 17.000000
4.032763 -0.750483 0.124628 31.000000
4.045177 -0.765636 0.124953 25.000000
4.038882 -0.777288 0.124867 38.000000
4.032554 -0.788909 0.124780 44.000000
4.025211 -0.800304 0.124672 22.000000
4.019797 -0.812056 0.124607 31.000000
3.999657 -0.820772 0.124217 10.000000
3.994184 -0.832428 0.124152 22.000000
3.978895 -0.841991 0.123871 16.000000
3.998776 -0.859017 0.124369 34.000000
3.999053 -0.871920 0.124434 29.000000
3.995383 -0.883969 0.124412 50.000000
3.990700 -0.895785 0.124369 50.000000
3.989883 -0.908467 0.124412 52.000000
4.001690 -0.924074 0.124737 38.000000
4.014412 -0.939989 0.125083 16.000000
4.019292 -0.954146 0.125256 30.000000
4.039676 -0.972079 0.125775 32.000000
4.054159 -0.988727 0.126165 44.000000
4.062754 -1.004036 0.126425 26.000000
4.071294 -1.019406 0.126684 24.000000
4.083653 -1.035820 0.127031 21.000000
4.130505 -0.678231 0.074755 16.000000
4.100790 -0.686276 0.074496 38.000000
4.087822 -0.697004 0.074394 39.000000
4.075812 -0.707831 0.074302 28.000000
4.055897 -0.717196 0.074135 32.000000
4.042853 -0.727686 0.074033 42.000000
4.034699 -0.739005 0.073978 34.000000
4.023566 -0.749730 0.073895 29.000000
4.022229 -0.762257 0.073904 25.000000
4.016927 -0.774025 0.073876 27.000000
4.007664 -0.784999 0.073811 26.000000
4.006218 -0.797486 0.073821 31.000000
4.001792 -0.809377 0.073802 36.000000
3.998310 -0.821449 0.073793 27.000000
3.990877 -0.832690 0.073747 40.000000
3.985369 -0.844308 0.073719 41.000000
3.986670 -0.857372 0.073756 41.000000
3.989882 -0.870879 0.073811 35.000000
3.985240 -0.882683 0.073793 20.000000
3.987391 -0.896002 0.073839 29.000000
3.992423 -0.910010 0.073913 31.000000
4.007149 -0.926310 0.074080 43.000000
4.019864 -0.942252 0.074228 34.000000
4.028628 -0.957355 0.074339 20.000000
4.040255 -0.973225 0.074477 37.000000
4.057649 -0.990598 0.074672 23.000000
4.061386 -1.004723 0.074736 30.000000
4.066043 -1.019124 0.074810 19.000000
4.063867 -1.031840 0.074820 10.000000
4.147649 -0.666968 0.022301 12.000000
4.124860 -0.676298 0.022371 17.000000
4.110929 -0.686975 0.022411 29.000000
4.105845 -0.699081 0.022421 20.000000
4.082004 -0.707921 0.022494 26.000000
4.070949 -0.718879 0.022524 26.000000
4.051991 -0.728362 0.022580 35.000000
4.040884 -0.739173 0.022610 48.000000
4.032699 -0.750471 0.022630 39.000000
4.021534 -0.761168 0.022660 63.000000
4.014270 -0.772559 0.022676 47.000000
4.005010 -0.783529 0.022699 59.000000
4.002588 -0.795813 0.022699 41.000000
3.995226 -0.807100 0.022716 49.000000
3.987833 -0.818349 0.022732 59.000000
3.987262 -0.830988 0.022726 57.000000
3.989585 -0.844250 0.022709 52.000000
3.989910 -0.857115 0.022699 52.000000
3.991170 -0.870203 0.022686 47.000000
3.996293 -0.884170 0.022660 42.000000
3.999416 -0.897739 0.022640 55.000000
4.007369 -0.912443 0.022603 88.000000
4.016244 -0.927430 0.022563 53.000000
4.026038 -0.942708 0.022520 26.000000
4.027992 -0.956208 0.022504 72.000000
4.040596 -0.972301 0.022451 39.000000
4.055083 -0.988952 0.022391 30.000000
4.063680 -1.004264 0.022351 35.000000
4.078042 -1.021094 0.022291 17.000000
4.083614 -1.035811 0.022262 14.000000
4.112381 -1.056537 0.022152 9.000000
4.171850 -0.683535 -0.029982 16.000000
4.137188 -0.690893 -0.029464 20.000000
4.096607 -0.697037 -0.028851 35.000000
4.088539 -0.708577 -0.028757 28.000000
4.067637 -0.717814 -0.028459 35.000000
4.055575 -0.728521 -0.028302 41.000000
4.046435 -0.739701 -0.028192 51.000000
4.037266 -0.750832 -0.028082 60.000000
4.032979 -0.762842 -0.028050 36.000000
4.027674 -0.774645 -0.028003 64.000000
4.021353 -0.786230 -0.027940 83.000000
4.014999 -0.797784 -0.027877 51.000000
4.009593 -0.809504 -0.027830 65.000000
4.001214 -0.820596 -0.027736 50.000000
3.995741 -0.832256 -0.027689 57.000000
3.993168 -0.844510 -0.027689 35.000000
3.990558 -0.856757 -0.027689 58.000000
3.987911 -0.868996 -0.027689 34.000000
3.996942 -0.883818 -0.027877 65.000000
4.002016 -0.897828 -0.028003 73.000000
4.009967 -0.912544 -0.028176 64.000000
4.023711 -0.928666 -0.028443 38.000000
4.019869 -0.940778 -0.028427 68.000000
4.038366 -0.958187 -0.028773 41.000000
4.054851 -0.975250 -0.029087 26.000000
4.062525 -0.990291 -0.029260 39.000000
4.070146 -1.005389 -0.029433 28.000000
4.075771 -1.020057 -0.029574 26.000000
4.083283 -1.035260 -0.029747 27.000000
4.085899 -1.049276 -0.029841 18.000000
4.234910 -0.680975 -0.082445 7.000000
4.166706 -0.683147 -0.080585 18.000000
4.140927 -0.691979 -0.079920 19.000000
4.126958 -0.702670 -0.079587 21.000000
4.097204 -0.710553 -0.078810 41.000000
4.080239 -0.720517 -0.078393 27.000000
4.069153 -0.731442 -0.078144 35.000000
4.054107 -0.741588 -0.077783 38.000000
4.046899 -0.753109 -0.077644 36.000000
4.037694 -0.764222 -0.077450 53.000000
4.026495 -0.774908 -0.077200 53.000000
4.019193 -0.786300 -0.077062 49.000000
4.013821 -0.798043 -0.076978 51.000000
4.004494 -0.808969 -0.076784 45.000000
4.002973 -0.821452 -0.076812 33.000000
3.996519 -0.832914 -0.076701 47.000000
3.991989 -0.844758 -0.076645 56.000000
3.991333 -0.857421 -0.076701 53.000000
3.988684 -0.869662 -0.076701 64.000000
3.986973 -0.882111 -0.076729 70.000000
3.998879 -0.897618 -0.077145 42.000000
4.000980 -0.910991 -0.077284 50.000000
4.013752 -0.926855 -0.077728 45.000000
4.027436 -0.943035 -0.078199 36.000000
4.040086 -0.959076 -0.078643 32.000000
4.050732 -0.974736 -0.079032 56.000000
4.063262 -0.990945 -0.079476 31.000000
4.075730 -1.007239 -0.079920 32.000000
4.073591 -1.019980 -0.079947 37.000000
4.090792 -1.037629 -0.080530 30.000000
4.098239 -1.052908 -0.080835 24.000000
4.150136 -1.079808 -0.082417 7.000000
4.145411 -0.666147 -0.132550 26.000000
4.136446 -0.677731 -0.132267 23.000000
4.122521 -0.688442 -0.131784 26.000000
4.109554 -0.699242 -0.131340 18.000000
4.084746 -0.707920 -0.130413 12.000000
4.073699 -0.718885 -0.130051 26.000000
4.060657 -0.729435 -0.129607 32.000000
4.051520 -0.740631 -0.129325 30.000000
4.046282 -0.752509 -0.129204 32.000000
4.039045 -0.763990 -0.129003 45.000000
4.033739 -0.775812 -0.128882 57.000000
4.028398 -0.787608 -0.128761 52.000000
4.023023 -0.799379 -0.128640 43.000000
4.014675 -0.810531 -0.128398 50.000000
4.016084 -0.823647 -0.128559 47.000000
4.008647 -0.834945 -0.128358 44.000000
4.006067 -0.847240 -0.128358 62.000000
4.013218 -0.861624 -0.128761 48.000000
4.010556 -0.873933 -0.128761 56.000000
4.014685 -0.887744 -0.129043 39.000000
4.019742 -0.901807 -0.129365 40.000000
4.019879 -0.914800 -0.129486 31.000000
4.021922 -0.928253 -0.129688 36.000000
4.030729 -0.943321 -0.130171 20.000000
4.029761 -0.956144 -0.130252 33.000000
4.040409 -0.971775 -0.130816 30.000000
4.053911 -0.988191 -0.131502 28.000000
4.065410 -1.004219 -0.132106 28.000000
4.073941 -1.019599 -0.132590 49.000000
4.080479 -1.034549 -0.132993 35.000000
4.094706 -1.051538 -0.133718 19.000000
4.095328 -1.065102 -0.133880 8.000000
4.164521 -0.658061 -0.183955 12.000000
4.144736 -0.667979 -0.183013 22.000000
4.121972 -0.677297 -0.181914 41.000000
4.118890 -0.689775 -0.181862 33.000000
4.100019 -0.699558 -0.180972 26.000000
4.079159 -0.708890 -0.179978 28.000000
4.073031 -0.720706 -0.179768 26.000000
4.060972 -0.731432 -0.179245 40.000000
4.049868 -0.742269 -0.178774 48.000000
4.045609 -0.754325 -0.178669 48.000000
4.044257 -0.766919 -0.178722 53.000000
4.039923 -0.778945 -0.178617 48.000000
4.037514 -0.791336 -0.178617 41.000000
4.032129 -0.803135 -0.178460 54.000000
4.023773 -0.814315 -0.178146 48.000000
4.018321 -0.826053 -0.177989 56.000000
4.011858 -0.837562 -0.177780 46.000000
4.009269 -0.849866 -0.177780 46.000000
4.010548 -0.863002 -0.177989 49.000000
4.010809 -0.875940 -0.178146 48.000000
4.017853 -0.890399 -0.178669 44.000000
4.023871 -0.904690 -0.179140 36.000000
4.025946 -0.918140 -0.179402 39.000000
4.034786 -0.933184 -0.180030 31.000000
4.045516 -0.948747 -0.180763 42.000000
4.052302 -0.963461 -0.181286 40.000000
4.060978 -0.978693 -0.181914 48.000000
4.070569 -0.994224 -0.182594 39.000000
4.079133 -1.009584 -0.183222 50.000000
4.086672 -1.024762 -0.183798 41.000000
4.087381 -1.038278 -0.184008 48.000000
4.088045 -1.051807 -0.184217 50.000000
4.100262 -1.068368 -0.185054 29.000000
4.109519 -1.084251 -0.185735 16.000000
4.144049 -0.665928 -0.234953 25.000000
4.142972 -0.678800 -0.235017 25.000000
4.137917 -0.691014 -0.234823 32.000000
4.135777 -0.703706 -0.234823 30.000000
4.127700 -0.715368 -0.234435 30.000000
4.125485 -0.728028 -0.234435 33.000000
4.117339 -0.739623 -0.234047 35.000000
4.102290 -0.749917 -0.233206 40.000000
4.098008 -0.762134 -0.233076 39.000000
4.091728 -0.773961 -0.232817 42.000000
4.084435 -0.785567 -0.232494 42.000000
4.082006 -0.798095 -0.232494 34.000000
4.069750 -0.808668 -0.231847 48.000000
4.066272 -0.820953 -0.231782 38.000000
4.062757 -0.833224 -0.231717 48.000000
4.052366 -0.844055 -0.231200 48.000000
4.047805 -0.856071 -0.231070 35.000000
4.039305 -0.867228 -0.230682 40.000000
4.037601 -0.879829 -0.230747 41.000000
4.037806 -0.892858 -0.230941 37.000000
4.036994 -0.905679 -0.231070 35.000000
4.038089 -0.918946 -0.231329 46.000000
4.042057 -0.932902 -0.231782 41.000000
4.046949 -0.947119 -0.232300 36.000000
4.055676 -0.962296 -0.233076 37.000000
4.058525 -0.976134 -0.233464 33.000000
4.067145 -0.991418 -0.234241 26.000000
4.075710 -1.006764 -0.235017 22.000000
4.087122 -1.022899 -0.235988 19.000000
4.083965 -1.035433 -0.235988 18.000000
4.095266 -1.051682 -0.236959 27.000000
4.086226 -1.062734 -0.236570 23.000000
4.181663 -0.660764 -0.287620 22.000000
4.185523 -0.674541 -0.288080 16.000000
4.178514 -0.686572 -0.287697 17.000000
4.160653 -0.696757 -0.286472 19.000000
4.146701 -0.707510 -0.285554 35.000000
4.129775 -0.717672 -0.284405 23.000000
4.125590 -0.729991 -0.284252 33.000000
4.113518 -0.740880 -0.283487 21.000000
4.105340 -0.752420 -0.283028 39.000000
4.098112 -0.764099 -0.282645 33.000000
4.091829 -0.775927 -0.282339 31.000000
4.088451 -0.788288 -0.282262 25.000000
4.084056 -0.800444 -0.282109 54.000000
4.074736 -0.811609 -0.281573 15.000000
4.072227 -0.824106 -0.281573 30.000000
4.070656 -0.836796 -0.281650 41.000000
4.064165 -0.848467 -0.281344 47.000000
4.059592 -0.860519 -0.281190 30.000000
4.049135 -0.871293 -0.280578 28.000000
4.048390 -0.884137 -0.280731 32.000000
4.048580 -0.897199 -0.280961 27.000000
4.039971 -0.908305 -0.280502 42.000000
4.037166 -0.920696 -0.280502 34.000000
4.038208 -0.933975 -0.280808 32.000000
4.037265 -0.946814 -0.280961 28.000000
4.042102 -0.961039 -0.281573 20.000000
4.039134 -0.973435 -0.281573 34.000000
4.041941 -0.987240 -0.282032 25.000000
4.048573 -1.002029 -0.282798 42.000000
4.052249 -1.016141 -0.283334 30.000000
4.052012 -1.029304 -0.283563 35.000000
4.058492 -1.044212 -0.284329 20.000000
4.056234 -1.056910 -0.284405 17.000000
4.177552 -0.659663 -0.339125 7.000000
4.159774 -0.669941 -0.337705 19.000000
4.146888 -0.680923 -0.336729 20.000000
4.133973 -0.691833 -0.335753 23.000000
4.125940 -0.703508 -0.335221 32.000000
4.113948 -0.714457 -0.334334 33.000000
4.110757 -0.726902 -0.334245 34.000000
4.107527 -0.739333 -0.334156 43.000000
4.103280 -0.751573 -0.333979 26.000000
4.107809 -0.765436 -0.334600 44.000000
4.105441 -0.778035 -0.334600 41.000000
4.103035 -0.790626 -0.334600 37.000000
4.103522 -0.803785 -0.334866 46.000000
4.093223 -0.814814 -0.334156 78.000000
4.104371 -0.830134 -0.335398 27.000000
4.095951 -0.841519 -0.334866 53.000000
4.093350 -0.854081 -0.334866 39.000000
4.091685 -0.866842 -0.334955 22.000000
4.084137 -0.878343 -0.334511 27.000000
4.076558 -0.889807 -0.334068 29.000000
4.064084 -0.900154 -0.333180 53.000000
4.050613 -0.910215 -0.332205 34.000000
4.041004 -0.921088 -0.331583 38.000000
4.033307 -0.932359 -0.331140 33.000000
4.032367 -0.945184 -0.331317 34.000000
4.032355 -0.958241 -0.331583 38.000000
4.024555 -0.969441 -0.331140 21.000000
4.036076 -0.985329 -0.332471 52.000000
4.041736 -0.999860 -0.333269 33.000000
4.056040 -1.016616 -0.334866 27.000000
4.064487 -1.031997 -0.335931 27.000000
4.104710 -1.055630 -0.339923 11.000000
4.080247 -1.062693 -0.337971 24.000000
4.097193 -1.080542 -0.339834 15.000000
4.115573 -0.649606 -0.386171 8.000000
4.137135 -0.666018 -0.388600 24.000000
4.128200 -0.677581 -0.387892 22.000000
4.124139 -0.689916 -0.387689 33.000000
4.119061 -0.702065 -0.387386 35.000000
4.119828 -0.715208 -0.387689 39.000000
4.117614 -0.727844 -0.387689 31.000000
4.116341 -0.740649 -0.387791 38.000000
4.116986 -0.753811 -0.388094 40.000000
4.119544 -0.767348 -0.388600 40.000000
4.119125 -0.780353 -0.388803 24.000000
4.113781 -0.792423 -0.388499 33.000000
4.111331 -0.805040 -0.388499 49.000000
4.108841 -0.817649 -0.388499 44.000000
4.111190 -0.831236 -0.389005 27.000000
4.103747 -0.842845 -0.388499 48.000000
4.099194 -0.855026 -0.388297 52.000000
4.094605 -0.867186 -0.388094 27.000000
4.087062 -0.878700 -0.387588 20.000000
4.075598 -0.889328 -0.386677 27.000000
4.074793 -0.902258 -0.386880 28.000000
4.066182 -0.913448 -0.386272 30.000000
4.060450 -0.925256 -0.385968 41.000000
4.055654 -0.937262 -0.385766 31.000000
4.052759 -0.949700 -0.385766 35.000000
4.049826 -0.962129 -0.385766 43.000000
4.050725 -0.975480 -0.386171 26.000000
4.051579 -0.988845 -0.386576 37.000000
4.051424 -1.001986 -0.386880 46.000000
4.062807 -1.018034 -0.388398 29.000000
4.080880 -1.035873 -0.390625 20.000000
4.081537 -1.049378 -0.391030 25.000000
4.081187 -1.062646 -0.391334 25.000000
4.199664 -0.675620 -0.445914 11.000000
4.158353 -0.682064 -0.441393 23.000000
4.146441 -0.693180 -0.440263 34.000000
4.145274 -0.706064 -0.440376 22.000000
4.135257 -0.717419 -0.439471 29.000000
4.125209 -0.728719 -0.438567 41.000000
4.128821 -0.742427 -0.439245 33.000000
4.126524 -0.755091 -0.439245 36.000000
4.127118 -0.768293 -0.439584 34.000000
4.131576 -0.782246 -0.440376 32.000000
4.139888 -0.796985 -0.441619 26.000000
4.140349 -0.810255 -0.441958 37.000000
4.147589 -0.824892 -0.443088 27.000000
4.145039 -0.837613 -0.443088 19.000000
4.139529 -0.849726 -0.442749 22.000000
4.129122 -0.860799 -0.441845 30.000000
4.123545 -0.872846 -0.441506 23.000000
4.112105 -0.883613 -0.440489 25.000000
4.095785 -0.893259 -0.438906 29.000000
4.088174 -0.904747 -0.438341 31.000000
4.078593 -0.915761 -0.437550 32.000000
4.068984 -0.926724 -0.436759 39.000000
4.058376 -0.937414 -0.435854 34.000000
4.052579 -0.949180 -0.435515 47.000000
4.052548 -0.962298 -0.435854 37.000000
4.057305 -0.976587 -0.436759 26.000000
4.054289 -0.989030 -0.436759 43.000000
4.054130 -1.002179 -0.437098 26.000000
4.062602 -1.017510 -0.438454 34.000000
4.071017 -1.032903 -0.439810 25.000000
4.073603 -1.046872 -0.440489 22.000000
4.078064 -1.061367 -0.441393 10.000000
4.174602 -0.685185 -0.496260 21.000000
4.160738 -0.696028 -0.494756 27.000000
4.160539 -0.709122 -0.495007 19.000000
4.145636 -0.719681 -0.493377 33.000000
4.136569 -0.731189 -0.492500 31.000000
4.135283 -0.744052 -0.492625 29.000000
4.134933 -0.757092 -0.492876 32.000000
4.147221 -0.772495 -0.494756 22.000000
4.159454 -0.787981 -0.496636 19.000000
4.158966 -0.801113 -0.496887 26.000000
4.157462 -0.814059 -0.497012 20.000000
4.167595 -0.829324 -0.498641 37.000000
4.163086 -0.841714 -0.498391 17.000000
4.135953 -0.889197 -0.496260 14.000000
4.124482 -0.899981 -0.495132 22.000000
4.106202 -0.909203 -0.493127 36.000000
4.095649 -0.920059 -0.492124 27.000000
4.074426 -0.928437 -0.489743 26.000000
4.060925 -0.938478 -0.488364 23.000000
4.049333 -0.948898 -0.487236 24.000000
4.040610 -0.959942 -0.486484 30.000000
4.042470 -0.973494 -0.487111 20.000000
4.040428 -0.986127 -0.487236 37.000000
4.045089 -1.000421 -0.488239 21.000000
4.049699 -1.014754 -0.489241 27.000000
4.057146 -1.029855 -0.490620 20.000000
4.059733 -1.043778 -0.491372 9.000000
4.219050 -0.690519 -0.554858 10.000000
4.178809 -0.697100 -0.549498 28.000000
4.177627 -0.710083 -0.549635 26.000000
4.166646 -0.721375 -0.548398 45.000000
4.165388 -0.734327 -0.548536 43.000000
4.163116 -0.747103 -0.548536 55.000000
4.170547 -0.761652 -0.549910 36.000000
4.179877 -0.776616 -0.551560 31.000000
4.185261 -0.790908 -0.552659 34.000000
4.188651 -0.804866 -0.553484 36.000000
4.184217 -0.817333 -0.553209 30.000000
4.180719 -0.829973 -0.553071 27.000000
4.203397 -0.847890 -0.556645 13.000000
4.167496 -0.894004 -0.553071 16.000000
4.157959 -0.905310 -0.552109 20.000000
4.138720 -0.914428 -0.549773 29.000000
4.122364 -0.924087 -0.547849 26.000000
4.092466 -0.930578 -0.544000 36.000000
4.095383 -0.944465 -0.544825 18.000000
4.065461 -0.950707 -0.540976 37.000000
4.054815 -0.961347 -0.539877 33.000000
4.058588 -0.975403 -0.540839 35.000000
4.063275 -0.989726 -0.541938 29.000000
4.060220 -1.002187 -0.541938 27.000000
4.069617 -1.017764 -0.543725 18.000000
4.071277 -1.031462 -0.544412 19.000000
4.079606 -1.046903 -0.546062 8.000000
4.186969 -0.687958 -0.601637 15.000000
4.184839 -0.700801 -0.601637 25.000000
4.180719 -0.713304 -0.601339 31.000000
4.178511 -0.726127 -0.601339 37.000000
4.179185 -0.739459 -0.601786 35.000000
4.181763 -0.753152 -0.602532 30.000000
4.185268 -0.767046 -0.603427 19.000000
4.192616 -0.781692 -0.604919 33.000000
4.194085 -0.795287 -0.605516 26.000000
4.195509 -0.808899 -0.606113 29.000000
4.193007 -0.821766 -0.606113 14.000000
4.134784 -0.902979 -0.599996 17.000000
4.117513 -0.912455 -0.597758 20.000000
4.105046 -0.922917 -0.596266 22.000000
4.081949 -0.930895 -0.593133 28.000000
4.068476 -0.940966 -0.591492 45.000000
4.064607 -0.953218 -0.591343 35.000000
4.064549 -0.966369 -0.591790 33.000000
4.070218 -0.980917 -0.593133 31.000000
4.074874 -0.995274 -0.594327 35.000000
4.081401 -1.010144 -0.595819 23.000000
4.084038 -1.024103 -0.596714 23.000000
4.222288 -0.691803 -0.659586 29.000000
4.224040 -0.705405 -0.660231 27.000000
4.213099 -0.716870 -0.658781 31.000000
4.209908 -0.729623 -0.658620 48.000000
4.209593 -0.742879 -0.658942 56.000000
4.214094 -0.757012 -0.660070 51.000000
4.217577 -0.771003 -0.661036 50.000000
4.219072 -0.784661 -0.661680 44.000000
4.218585 -0.797968 -0.662003 46.000000
4.219024 -0.811466 -0.662486 32.000000
4.214578 -0.824027 -0.662164 7.000000
