ply
format ascii 1.0
element vertex 1283
property float x
property float y
property float z
property float intensity
end_header
3.832498 0.510039 0.828673 31.000000
3.827245 0.497395 0.827261 50.000000
3.813206 0.483681 0.824036 22.000000
3.830277 0.580454 0.784750 25.000000
3.829127 0.568267 0.784178 38.000000
3.831824 0.556658 0.784369 49.000000
3.830598 0.544485 0.783797 56.000000
3.832250 0.532730 0.783797 45.000000
3.831921 0.520705 0.783416 63.000000
3.831555 0.508688 0.783035 85.000000
3.831150 0.496677 0.782655 59.000000
3.831682 0.484798 0.782464 69.000000
3.829254 0.472558 0.781702 53.000000
3.830686 0.460808 0.781702 52.000000
3.828182 0.448595 0.780940 72.000000
3.829540 0.436848 0.780940 64.000000
3.819154 0.423794 0.778655 42.000000
3.828244 0.412920 0.780178 62.000000
3.815825 0.399737 0.777512 59.000000
3.818599 0.603903 0.735196 22.000000
3.831129 0.593842 0.737161 33.000000
3.821259 0.580314 0.735017 38.000000
3.825941 0.569021 0.735553 41.000000
3.826695 0.557139 0.735374 30.000000
3.826439 0.545119 0.735017 40.000000
3.823220 0.532699 0.734124 36.000000
3.818987 0.520171 0.733052 29.000000
3.820565 0.508452 0.733052 53.000000
3.821131 0.496601 0.732874 45.000000
3.822636 0.484876 0.732874 66.000000
3.825083 0.473267 0.733052 56.000000
3.826517 0.461529 0.733052 47.000000
3.827915 0.449787 0.733052 60.000000
3.829277 0.438042 0.733052 58.000000
3.825713 0.425748 0.732159 45.000000
3.827979 0.414114 0.732338 64.000000
3.827275 0.402163 0.731980 56.000000
3.825554 0.390120 0.731445 48.000000
3.824775 0.378188 0.731087 47.000000
3.827876 0.366639 0.731445 53.000000
3.825064 0.354531 0.730730 52.000000
3.827113 0.342882 0.730909 60.000000
3.826187 0.330970 0.730551 51.000000
3.824242 0.318984 0.730015 59.000000
3.825203 0.307250 0.730015 42.000000
3.824166 0.295362 0.729658 64.000000
3.819167 0.283192 0.728586 51.000000
3.788611 0.269245 0.722870 11.000000
3.786901 0.621500 0.683275 26.000000
3.793657 0.610664 0.684110 52.000000
3.797460 0.599331 0.684444 36.000000
3.801230 0.587979 0.684778 44.000000
3.803991 0.576463 0.684944 54.000000
3.802815 0.564354 0.684444 52.000000
3.801602 0.552259 0.683943 49.000000
3.804255 0.540732 0.684110 40.000000
3.804919 0.528922 0.683943 55.000000
3.803593 0.516847 0.683442 49.000000
3.802229 0.504785 0.682941 61.000000
3.803759 0.493118 0.682941 56.000000
3.807211 0.481694 0.683275 57.000000
3.811606 0.470374 0.683776 53.000000
3.812052 0.458560 0.683609 58.000000
3.814421 0.446978 0.683776 73.000000
3.815774 0.435273 0.683776 58.000000
3.815131 0.423347 0.683442 57.000000
3.816412 0.411640 0.683442 55.000000
3.816677 0.399827 0.683275 64.000000
3.819847 0.388315 0.683609 67.000000
3.822001 0.376691 0.683776 62.000000
3.825102 0.365152 0.684110 89.000000
3.821296 0.352960 0.683275 75.000000
3.818433 0.340883 0.682607 85.000000
3.816513 0.328912 0.682106 66.000000
3.819470 0.317365 0.682440 79.000000
3.811580 0.304935 0.680938 62.000000
3.812498 0.293240 0.680938 56.000000
3.809446 0.281250 0.680270 49.000000
3.811275 0.269632 0.680437 48.000000
3.816019 0.258205 0.681105 59.000000
3.816793 0.246497 0.681105 59.000000
3.820484 0.234968 0.681606 47.000000
3.829061 0.223708 0.682941 38.000000
3.791335 0.209823 0.676430 11.000000
3.786525 0.657842 0.636226 29.000000
3.786578 0.645890 0.635916 37.000000
3.795362 0.635411 0.637001 27.000000
3.791445 0.622804 0.636071 37.000000
3.796264 0.611640 0.636536 40.000000
3.798122 0.599990 0.636536 45.000000
3.805803 0.589241 0.637465 53.000000
3.803686 0.576970 0.636846 48.000000
3.802507 0.564863 0.636381 39.000000
3.803244 0.553052 0.636226 44.000000
3.801988 0.540964 0.635761 30.000000
3.806566 0.529706 0.636226 67.000000
3.805236 0.517625 0.635761 45.000000
3.802889 0.505428 0.635142 30.000000
3.807361 0.494140 0.635607 48.000000
3.808859 0.482457 0.635607 59.000000
3.808360 0.470527 0.635297 37.000000
3.809786 0.458841 0.635297 54.000000
3.809213 0.446921 0.634987 53.000000
3.810566 0.435232 0.634987 42.000000
3.813848 0.423757 0.635297 47.000000
3.813165 0.411843 0.634987 52.000000
3.810481 0.399730 0.634367 55.000000
3.811689 0.388038 0.634367 43.000000
3.809912 0.376051 0.633903 40.000000
3.807114 0.363985 0.633283 36.000000
3.806246 0.352122 0.632974 35.000000
3.805339 0.340267 0.632664 44.000000
3.807350 0.328675 0.632819 60.000000
3.806371 0.316829 0.632509 48.000000
3.806340 0.305071 0.632354 51.000000
3.806274 0.293316 0.632199 66.000000
3.807155 0.281637 0.632199 40.000000
3.813915 0.270375 0.633128 52.000000
3.819654 0.259006 0.633903 68.000000
3.822403 0.247414 0.634213 73.000000
3.830047 0.236110 0.635297 47.000000
3.829767 0.224301 0.635142 61.000000
3.828464 0.212441 0.634832 50.000000
3.826138 0.200540 0.634367 58.000000
3.825748 0.188752 0.634213 46.000000
3.824336 0.176923 0.633903 51.000000
3.824860 0.165189 0.633903 54.000000
3.837195 0.153928 0.635761 34.000000
3.826789 0.141753 0.634058 45.000000
3.842016 0.130514 0.636381 30.000000
3.795041 0.683462 0.590948 26.000000
3.794196 0.671297 0.590520 48.000000
3.793313 0.659145 0.590091 43.000000
3.795317 0.647504 0.590091 38.000000
3.795333 0.635529 0.589805 49.000000
3.794336 0.623400 0.589376 54.000000
3.795254 0.611599 0.589233 59.000000
3.795157 0.599643 0.588947 57.000000
3.795022 0.587693 0.588661 56.000000
3.792894 0.575452 0.588089 50.000000
3.791704 0.563376 0.587660 56.000000
3.791456 0.551455 0.587374 58.000000
3.791170 0.539541 0.587088 55.000000
3.789867 0.527497 0.586659 57.000000
3.793429 0.516135 0.586945 39.000000
3.792051 0.504102 0.586516 68.000000
3.793581 0.492466 0.586516 64.000000
3.796055 0.480949 0.586659 65.000000
3.798495 0.469423 0.586802 52.000000
3.801883 0.458004 0.587088 60.000000
3.803270 0.446338 0.587088 56.000000
3.801672 0.434330 0.586659 63.000000
3.802986 0.422664 0.586659 55.000000
3.800329 0.410569 0.586087 63.000000
3.797634 0.398493 0.585515 77.000000
3.797853 0.386740 0.585373 78.000000
3.798037 0.374989 0.585230 71.000000
3.797199 0.363146 0.584944 73.000000
3.798295 0.351494 0.584944 62.000000
3.798370 0.339751 0.584801 87.000000
3.798409 0.328011 0.584658 74.000000
3.800384 0.316438 0.584801 68.000000
3.800350 0.304698 0.584658 82.000000
3.800280 0.292961 0.584515 76.000000
3.804122 0.281521 0.584944 58.000000
3.804968 0.269848 0.584944 66.000000
3.811702 0.258577 0.585801 67.000000
3.815441 0.247075 0.586230 59.000000
3.819144 0.235552 0.586659 59.000000
3.821825 0.223950 0.586945 70.000000
3.823483 0.212279 0.587088 48.000000
3.818185 0.200235 0.586230 72.000000
3.815816 0.188373 0.585801 78.000000
3.813410 0.176527 0.585373 79.000000
3.811956 0.164740 0.585087 65.000000
3.811455 0.153005 0.584944 69.000000
3.815862 0.141458 0.585515 46.000000
3.818257 0.129819 0.585801 41.000000
3.820616 0.118166 0.586087 42.000000
3.825907 0.106583 0.586802 38.000000
3.828194 0.094894 0.587088 45.000000
3.833415 0.083258 0.587803 35.000000
3.831673 0.071460 0.587517 41.000000
3.828906 0.059657 0.587088 44.000000
3.832040 0.047947 0.587517 18.000000
3.790308 0.706521 0.543744 26.000000
3.788557 0.694175 0.543220 40.000000
3.788718 0.682197 0.542958 36.000000
3.788841 0.670225 0.542695 44.000000
3.783065 0.657241 0.541647 46.000000
3.781154 0.644965 0.541123 46.000000
3.781160 0.633035 0.540861 38.000000
3.783084 0.621431 0.540861 35.000000
3.786930 0.610137 0.541123 50.000000
3.793680 0.599289 0.541778 30.000000
3.793542 0.587344 0.541516 44.000000
3.795326 0.575703 0.541516 58.000000
3.798055 0.564202 0.541647 50.000000
3.794862 0.551834 0.540992 41.000000
3.792612 0.539631 0.540468 35.000000
3.791304 0.527583 0.540075 42.000000
3.790940 0.515682 0.539813 36.000000
3.791521 0.503919 0.539681 40.000000
3.794032 0.492412 0.539813 40.000000
3.793558 0.480521 0.539550 50.000000
3.797966 0.469244 0.539944 36.000000
3.793482 0.456879 0.539157 52.000000
3.794866 0.445239 0.539157 61.000000
3.795229 0.433482 0.539026 55.000000
3.794571 0.421618 0.538764 50.000000
3.795846 0.409974 0.538764 66.000000
3.798072 0.398430 0.538895 49.000000
3.798290 0.386675 0.538764 44.000000
3.798472 0.374923 0.538633 42.000000
3.797631 0.363079 0.538371 60.000000
3.796753 0.351244 0.538109 72.000000
3.796825 0.339506 0.537978 50.000000
3.799824 0.328026 0.538240 71.000000
3.801801 0.316449 0.538371 51.000000
3.807694 0.305180 0.539026 48.000000
3.809601 0.293572 0.539157 52.000000
3.807518 0.281664 0.538764 63.000000
3.805398 0.269772 0.538371 50.000000
3.808186 0.258229 0.538633 45.000000
3.804013 0.246225 0.537978 46.000000
3.807719 0.234736 0.538371 59.000000
3.809411 0.223111 0.538502 54.000000
3.813047 0.211587 0.538895 63.000000
3.815659 0.199992 0.539157 53.000000
3.815264 0.188236 0.539026 52.000000
3.813843 0.176438 0.538764 62.000000
3.812385 0.164651 0.538502 57.000000
3.813863 0.152994 0.538633 67.000000
3.814315 0.141293 0.538633 55.000000
3.812749 0.129523 0.538371 49.000000
3.816101 0.117916 0.538764 51.000000
3.819418 0.106291 0.539157 43.000000
3.820717 0.094597 0.539288 55.000000
3.822971 0.082917 0.539550 47.000000
3.823207 0.071188 0.539550 43.000000
3.823408 0.059458 0.539550 42.000000
3.824564 0.047740 0.539681 51.000000
3.824692 0.036006 0.539681 49.000000
3.814871 0.024210 0.538371 19.000000
3.755158 0.736589 0.492633 39.000000
3.763249 0.726195 0.493346 45.000000
3.768386 0.715203 0.493703 46.000000
3.777394 0.704915 0.494536 38.000000
3.780515 0.693503 0.494655 41.000000
3.783602 0.682077 0.494774 48.000000
3.783722 0.670119 0.494536 65.000000
3.784781 0.658337 0.494417 68.000000
3.780912 0.645718 0.493703 43.000000
3.778958 0.633458 0.493228 55.000000
3.773046 0.620569 0.492276 53.000000
3.773952 0.608832 0.492157 63.000000
3.771880 0.596630 0.491681 75.000000
3.776636 0.585512 0.492038 54.000000
3.777433 0.573773 0.491919 81.000000
3.782121 0.562621 0.492276 67.000000
3.782847 0.550871 0.492157 57.000000
3.781571 0.538842 0.491800 85.000000
3.782223 0.527100 0.491681 71.000000
3.781854 0.515226 0.491444 64.000000
3.783417 0.503621 0.491444 68.000000
3.782976 0.491754 0.491206 64.000000
3.785451 0.480271 0.491325 70.000000
3.783951 0.468289 0.490968 89.000000
3.782413 0.456320 0.490611 55.000000
3.785767 0.444946 0.490849 57.000000
3.787114 0.433329 0.490849 67.000000
3.785466 0.421378 0.490492 70.000000
3.789702 0.410084 0.490849 62.000000
3.790942 0.398455 0.490849 70.000000
3.792146 0.386823 0.490849 78.000000
3.791340 0.374991 0.490611 79.000000
3.791484 0.363262 0.490492 87.000000
3.791592 0.351537 0.490373 69.000000
3.791664 0.339813 0.490254 92.000000
3.794666 0.328351 0.490492 73.000000
3.798624 0.316956 0.490849 73.000000
3.799579 0.305301 0.490849 70.000000
3.803468 0.293873 0.491206 79.000000
3.801381 0.281981 0.490849 65.000000
3.801237 0.270247 0.490730 66.000000
3.801058 0.258516 0.490611 72.000000
3.798861 0.246659 0.490254 70.000000
3.799600 0.235003 0.490254 66.000000
3.799312 0.223286 0.490135 91.000000
3.796013 0.211407 0.489660 78.000000
3.800610 0.199970 0.490135 60.000000
3.797239 0.188111 0.489660 73.000000
3.794823 0.176322 0.489303 69.000000
3.797330 0.164765 0.489541 68.000000
3.799802 0.153195 0.489779 70.000000
3.802238 0.141611 0.490017 77.000000
3.806624 0.130082 0.490492 67.000000
3.807005 0.118403 0.490492 50.000000
3.810328 0.106807 0.490849 67.000000
3.812623 0.095167 0.491087 48.000000
3.811904 0.083447 0.490968 52.000000
3.811150 0.071733 0.490849 42.000000
3.808373 0.059993 0.490492 40.000000
3.787820 0.036417 0.487995 5.000000
3.743146 0.758000 0.444652 25.000000
3.743503 0.746124 0.444439 31.000000
3.746751 0.734827 0.444545 36.000000
3.753869 0.724270 0.445079 41.000000
3.755096 0.712564 0.444973 53.000000
3.764107 0.702316 0.445720 44.000000
3.767222 0.690944 0.445827 53.000000
3.766388 0.678855 0.445506 51.000000
3.771391 0.667816 0.445827 48.000000
3.772442 0.656072 0.445720 51.000000
3.771497 0.643994 0.445400 39.000000
3.772474 0.632255 0.445293 36.000000
3.770472 0.620034 0.444866 56.000000
3.771374 0.608305 0.444759 43.000000
3.776169 0.597197 0.445079 47.000000
3.775036 0.585153 0.444759 47.000000
3.773865 0.573121 0.444439 49.000000
3.778555 0.561979 0.444759 45.000000
3.779278 0.550240 0.444652 45.000000
3.780948 0.538643 0.444652 52.000000
3.784552 0.527315 0.444866 37.000000
3.779256 0.514763 0.444118 44.000000
3.780817 0.503166 0.444118 55.000000
3.784315 0.491820 0.444332 59.000000
3.784820 0.480083 0.444225 49.000000
3.784302 0.468225 0.444011 50.000000
3.786707 0.456732 0.444118 51.000000
3.786116 0.444880 0.443905 55.000000
3.787463 0.433263 0.443905 51.000000
3.790751 0.421860 0.444118 39.000000
3.787085 0.409694 0.443584 57.000000
3.786346 0.397866 0.443371 53.000000
3.790516 0.386550 0.443691 42.000000
3.790695 0.374822 0.443584 43.000000
3.791827 0.363190 0.443584 54.000000
3.793913 0.351647 0.443691 48.000000
3.794974 0.340006 0.443691 46.000000
3.795009 0.328276 0.443584 46.000000
3.795007 0.316549 0.443478 57.000000
3.792987 0.304666 0.443157 64.000000
3.795887 0.293181 0.443371 50.000000
3.798752 0.281680 0.443584 55.000000
3.799598 0.270025 0.443584 58.000000
3.802392 0.258501 0.443798 71.000000
3.804160 0.246899 0.443905 59.000000
3.807877 0.235410 0.444225 41.000000
3.802625 0.223378 0.443584 57.000000
3.799322 0.211490 0.443157 73.000000
3.799953 0.199832 0.443157 64.000000
3.801541 0.188222 0.443264 74.000000
3.799121 0.176420 0.442944 59.000000
3.802624 0.164893 0.443264 76.000000
3.807086 0.153386 0.443691 56.000000
3.811513 0.141853 0.444118 69.000000
3.814912 0.130260 0.444439 57.000000
3.812312 0.118463 0.444118 36.000000
3.818621 0.106933 0.444759 57.000000
3.816943 0.095167 0.444545 37.000000
3.832128 0.083781 0.446147 22.000000
3.740568 0.792819 0.399486 28.000000
3.742008 0.781135 0.399391 51.000000
3.746337 0.770053 0.399581 32.000000
3.745755 0.757962 0.399296 43.000000
3.746111 0.746078 0.399106 54.000000
3.748382 0.734581 0.399106 65.000000
3.750618 0.723078 0.399106 79.000000
3.754775 0.711939 0.399296 69.000000
3.756941 0.700416 0.399296 50.000000
3.757114 0.688527 0.399106 63.000000
3.757250 0.676644 0.398916 61.000000
3.758328 0.664940 0.398821 65.000000
3.758388 0.653065 0.398631 74.000000
3.761355 0.641699 0.398726 64.000000
3.763307 0.630156 0.398726 75.000000
3.763258 0.618284 0.398536 50.000000
3.767102 0.607053 0.398726 58.000000
3.767964 0.595338 0.398631 67.000000
3.766821 0.583317 0.398346 63.000000
3.766625 0.571458 0.398156 56.000000
3.767376 0.559753 0.398061 76.000000
3.760210 0.546900 0.397206 86.000000
3.771725 0.536767 0.398156 66.000000
3.769410 0.524643 0.397776 84.000000
3.777906 0.514018 0.398441 69.000000
3.778479 0.502293 0.398346 71.000000
3.779015 0.490570 0.398251 78.000000
3.776552 0.478472 0.397871 77.000000
3.773063 0.466272 0.397396 89.000000
3.776452 0.454933 0.397586 90.000000
3.771898 0.442647 0.397016 102.000000
3.778183 0.431639 0.397491 84.000000
3.772564 0.419274 0.396826 108.000000
3.775812 0.407912 0.397016 83.000000
3.777046 0.396326 0.397016 83.000000
3.768341 0.383725 0.396067 100.000000
3.774453 0.372653 0.396541 86.000000
3.774588 0.360976 0.396446 96.000000
3.778651 0.349670 0.396731 93.000000
3.780698 0.338165 0.396826 101.000000
3.781718 0.326564 0.396826 89.000000
3.778734 0.314629 0.396446 99.000000
3.776704 0.302795 0.396162 96.000000
3.776623 0.291130 0.396067 97.000000
3.778491 0.279616 0.396162 96.000000
3.783303 0.268305 0.396541 83.000000
3.788081 0.256968 0.396921 95.000000
3.785872 0.245151 0.396636 62.000000
3.790580 0.233781 0.397016 64.000000
3.787304 0.221917 0.396636 74.000000
3.781010 0.209908 0.395972 89.000000
3.779648 0.198202 0.395782 99.000000
3.776261 0.186408 0.395402 78.000000
3.780793 0.175007 0.395782 90.000000
3.776339 0.163190 0.395307 72.000000
3.778811 0.151684 0.395497 57.000000
3.785228 0.140313 0.396067 65.000000
3.786635 0.128734 0.396162 57.000000
3.792982 0.117303 0.396731 50.000000
3.799295 0.105833 0.397301 11.000000
3.729983 0.815088 0.350782 35.000000
3.735389 0.804270 0.351030 37.000000
3.737839 0.792806 0.351030 43.000000
3.739278 0.781131 0.350947 38.000000
3.741657 0.769656 0.350947 51.000000
3.744977 0.758370 0.351030 45.000000
3.745331 0.746488 0.350865 55.000000
3.746626 0.734802 0.350782 57.000000
3.746905 0.722927 0.350617 60.000000
3.747148 0.711057 0.350452 48.000000
3.751271 0.699923 0.350617 40.000000
3.747519 0.687333 0.350123 47.000000
3.747648 0.675479 0.349958 40.000000
3.749703 0.663978 0.349958 46.000000
3.746813 0.651618 0.349545 57.000000
3.745847 0.639617 0.349298 55.000000
3.748775 0.628286 0.349380 50.000000
3.749701 0.616620 0.349298 43.000000
3.754528 0.605589 0.349545 39.000000
3.757352 0.594223 0.349628 54.000000
3.756203 0.582236 0.349380 47.000000
3.759942 0.571008 0.349545 45.000000
3.764633 0.559909 0.349793 49.000000
3.766333 0.548357 0.349793 50.000000
3.766025 0.536519 0.349628 62.000000
3.769628 0.525237 0.349793 54.000000
3.774184 0.514073 0.350040 51.000000
3.773767 0.502228 0.349875 71.000000
3.776278 0.490777 0.349958 60.000000
3.772823 0.478562 0.349545 44.000000
3.772295 0.466741 0.349380 48.000000
3.772720 0.455046 0.349298 56.000000
3.774098 0.443469 0.349298 58.000000
3.775441 0.431889 0.349298 51.000000
3.779720 0.420634 0.349545 54.000000
3.780992 0.409036 0.349545 56.000000
3.785203 0.397746 0.349793 45.000000
3.787397 0.386233 0.349875 39.000000
3.781622 0.373925 0.349298 59.000000
3.779775 0.362037 0.349051 50.000000
3.777891 0.350164 0.348803 52.000000
3.774976 0.338216 0.348473 62.000000
3.774011 0.326462 0.348308 43.000000
3.769036 0.314385 0.347814 66.000000
3.767996 0.302661 0.347649 62.000000
3.772881 0.291406 0.347979 59.000000
3.774751 0.279903 0.348061 54.000000
3.777580 0.268462 0.348226 67.000000
3.779381 0.256939 0.348308 62.000000
3.780151 0.245343 0.348308 48.000000
3.780886 0.233744 0.348308 71.000000
3.785565 0.222377 0.348638 55.000000
3.785234 0.210707 0.348556 55.000000
3.782877 0.198936 0.348308 44.000000
3.786456 0.187477 0.348556 56.000000
3.789004 0.175952 0.348721 54.000000
3.788530 0.164283 0.348638 53.000000
3.787025 0.152579 0.348473 50.000000
3.779508 0.140665 0.347814 37.000000
3.743069 0.127814 0.344763 11.000000
3.731588 0.837531 0.305848 29.000000
3.729270 0.825000 0.305494 47.000000
3.733733 0.813980 0.305636 30.000000
3.732312 0.801682 0.305353 49.000000
3.729875 0.789194 0.305000 48.000000
3.732278 0.777747 0.305000 55.000000
3.732693 0.765891 0.304859 50.000000
3.734047 0.754238 0.304788 60.000000
3.734387 0.742389 0.304647 64.000000
3.735668 0.730737 0.304576 61.000000
3.737892 0.719273 0.304576 69.000000
3.741062 0.707987 0.304647 49.000000
3.740274 0.695958 0.304435 51.000000
3.740429 0.684121 0.304294 55.000000
3.739565 0.672112 0.304082 46.000000
3.741610 0.660636 0.304082 46.000000
3.741654 0.648812 0.303941 47.000000
3.740676 0.636827 0.303729 57.000000
3.742613 0.625347 0.303729 72.000000
3.744514 0.613862 0.303729 69.000000
3.748349 0.602689 0.303870 77.000000
3.749195 0.591030 0.303799 67.000000
3.747048 0.578915 0.303517 78.000000
3.747820 0.567267 0.303446 56.000000
3.747569 0.555473 0.303305 60.000000
3.751230 0.544260 0.303446 63.000000
3.752882 0.532749 0.303446 62.000000
3.753511 0.521095 0.303376 73.000000
3.755092 0.509577 0.303376 73.000000
3.750705 0.497266 0.302952 73.000000
3.749245 0.485371 0.302740 63.000000
3.744779 0.473114 0.302316 69.000000
3.745223 0.461501 0.302246 69.000000
3.746621 0.450009 0.302246 71.000000
3.753928 0.439209 0.302669 74.000000
3.760213 0.428256 0.303022 56.000000
3.765475 0.417159 0.303305 69.000000
3.768721 0.405819 0.303446 65.000000
3.768956 0.394150 0.303376 72.000000
3.769155 0.382485 0.303305 76.000000
3.766340 0.370527 0.303022 93.000000
3.765473 0.358781 0.302881 89.000000
3.767549 0.347319 0.302952 70.000000
3.767604 0.335669 0.302881 67.000000
3.766628 0.323938 0.302740 75.000000
3.765616 0.312215 0.302599 74.000000
3.759596 0.300103 0.302104 83.000000
3.759505 0.288490 0.302034 73.000000
3.761367 0.277029 0.302104 62.000000
3.764189 0.265629 0.302246 62.000000
3.767972 0.254281 0.302457 80.000000
3.775702 0.243171 0.302952 68.000000
3.779418 0.231770 0.303164 65.000000
3.786085 0.220524 0.303587 67.000000
3.788736 0.209018 0.303729 64.000000
3.788363 0.197341 0.303658 62.000000
3.801903 0.186357 0.304576 46.000000
3.792492 0.174231 0.303870 63.000000
3.812940 0.163455 0.305283 34.000000
4.144329 0.165026 0.328731 49.000000
3.709964 0.869867 0.256979 31.000000
3.714560 0.858930 0.257095 31.000000
3.714258 0.846865 0.256921 38.000000
3.719760 0.836122 0.257095 37.000000
3.724258 0.825138 0.257211 42.000000
3.724821 0.813282 0.257095 37.000000
3.725347 0.801431 0.256979 49.000000
3.723881 0.789171 0.256747 37.000000
3.726285 0.777742 0.256747 42.000000
3.728653 0.766307 0.256747 48.000000
3.728051 0.754270 0.256572 52.000000
3.727410 0.742244 0.256398 52.000000
3.728690 0.730614 0.256340 54.000000
3.731894 0.719360 0.256398 41.000000
3.734084 0.707907 0.256398 48.000000
3.736238 0.696447 0.256398 47.000000
3.736393 0.684622 0.256282 41.000000
3.736511 0.672802 0.256166 54.000000
3.738558 0.661335 0.256166 44.000000
3.740569 0.649863 0.256166 37.000000
3.740577 0.638048 0.256050 47.000000
3.745471 0.627063 0.256224 30.000000
3.735555 0.613629 0.255527 38.000000
3.736434 0.602007 0.255469 52.000000
3.737278 0.590385 0.255411 51.000000
3.737098 0.578611 0.255294 57.000000
3.740830 0.567442 0.255411 38.000000
3.739591 0.555523 0.255236 47.000000
3.745229 0.544622 0.255469 50.000000
3.754790 0.534253 0.255933 45.000000
3.752456 0.522181 0.255701 50.000000
3.754040 0.510667 0.255701 52.000000
3.752620 0.498753 0.255527 50.000000
3.752153 0.486981 0.255411 46.000000
3.753629 0.475467 0.255411 56.000000
3.760024 0.464560 0.255701 52.000000
3.756476 0.452426 0.255411 49.000000
3.763796 0.441597 0.255759 55.000000
3.767117 0.430274 0.255875 49.000000
3.769411 0.418825 0.255933 63.000000
3.771671 0.407365 0.255992 71.000000
3.770917 0.395584 0.255875 63.000000
3.770126 0.383811 0.255759 56.000000
3.771286 0.372243 0.255759 46.000000
3.768435 0.360291 0.255527 50.000000
3.764553 0.348269 0.255236 42.000000
3.765603 0.336718 0.255236 48.000000
3.762640 0.324820 0.255004 57.000000
3.760634 0.313027 0.254830 62.000000
3.759587 0.301329 0.254714 54.000000
3.756512 0.289487 0.254481 57.000000
3.759373 0.278108 0.254597 48.000000
3.768176 0.267137 0.255062 40.000000
3.764993 0.255305 0.254830 68.000000
3.772732 0.244204 0.255236 48.000000
3.777449 0.232873 0.255469 56.000000
3.787116 0.221808 0.255992 61.000000
3.804724 0.211126 0.256979 51.000000
3.824296 0.200444 0.258083 48.000000
3.798968 0.187433 0.256572 15.000000
4.219368 0.195158 0.281027 55.000000
4.219946 0.182212 0.281027 45.000000
4.242431 0.170143 0.282305 69.000000
4.166115 0.154289 0.277832 11.000000
3.701421 0.889924 0.211650 46.000000
3.703161 0.878333 0.211604 41.000000
3.708757 0.867651 0.211742 42.000000
3.709454 0.855819 0.211650 44.000000
3.711088 0.844213 0.211604 54.000000
3.716585 0.833480 0.211742 46.000000
3.716198 0.821426 0.211604 56.000000
3.715773 0.809383 0.211465 60.000000
3.716286 0.797559 0.211372 46.000000
3.715784 0.785533 0.211234 54.000000
3.718176 0.774130 0.211234 40.000000
3.721512 0.762920 0.211280 59.000000
3.721877 0.751103 0.211187 40.000000
3.727103 0.740265 0.211326 55.000000
3.725435 0.728060 0.211141 49.000000
3.725689 0.716249 0.211049 56.000000
3.727869 0.704815 0.211049 46.000000
3.729032 0.693192 0.211003 41.000000
3.730158 0.681569 0.210956 59.000000
3.731249 0.669945 0.210910 55.000000
3.733287 0.658494 0.210910 62.000000
3.734305 0.646867 0.210864 61.000000
3.732333 0.634736 0.210679 41.000000
3.729337 0.622459 0.210448 66.000000
3.724328 0.609882 0.210124 67.000000
3.719278 0.597342 0.209800 75.000000
3.727014 0.586863 0.210078 45.000000
3.722873 0.574510 0.209800 76.000000
3.727582 0.563534 0.209939 62.000000
3.732257 0.552535 0.210078 61.000000
3.735912 0.541370 0.210170 59.000000
3.737555 0.529905 0.210170 74.000000
3.740153 0.518574 0.210217 65.000000
3.741726 0.507097 0.210217 59.000000
3.738313 0.494958 0.209985 55.000000
3.740805 0.483615 0.210032 61.000000
3.740288 0.471885 0.209939 61.000000
3.743701 0.460653 0.210032 56.000000
3.746089 0.449284 0.210078 69.000000
3.747450 0.437789 0.210078 58.000000
3.747783 0.426177 0.210032 64.000000
3.752051 0.415007 0.210170 79.000000
3.753307 0.403494 0.210170 69.000000
3.753534 0.391873 0.210124 63.000000
3.753724 0.380255 0.210078 77.000000
3.752885 0.368541 0.209985 76.000000
3.748031 0.356456 0.209708 84.000000
3.749108 0.344956 0.209708 88.000000
3.748158 0.333274 0.209615 63.000000
3.745182 0.321431 0.209431 90.000000
3.746150 0.309939 0.209431 92.000000
3.747083 0.298445 0.209431 78.000000
3.749974 0.287100 0.209523 65.000000
3.750837 0.275594 0.209523 64.000000
3.753658 0.264227 0.209615 59.000000
3.764417 0.253383 0.210078 49.000000
3.767171 0.241962 0.210170 64.000000
3.786839 0.231567 0.211049 58.000000
3.859333 0.224140 0.214378 43.000000
4.075442 0.224213 0.224364 38.000000
4.120004 0.214001 0.226399 54.000000
4.149574 0.202782 0.227739 45.000000
4.173128 0.191108 0.228803 36.000000
4.188665 0.178947 0.229496 46.000000
4.204166 0.166694 0.230190 22.000000
4.208651 0.153942 0.230375 43.000000
3.691641 0.912825 0.164455 42.000000
3.697337 0.902205 0.164557 39.000000
3.699116 0.890624 0.164523 37.000000
3.702804 0.879502 0.164557 35.000000
3.706458 0.868366 0.164591 49.000000
3.704235 0.855866 0.164421 47.000000
3.711716 0.845607 0.164591 40.000000
3.715268 0.834435 0.164625 44.000000
3.720738 0.823680 0.164726 45.000000
3.723247 0.812261 0.164726 36.000000
3.720836 0.799785 0.164557 35.000000
3.716428 0.786917 0.164320 42.000000
3.715890 0.774900 0.164218 48.000000
3.714333 0.762692 0.164083 48.000000
3.711758 0.750304 0.163914 42.000000
3.713062 0.738718 0.163880 58.000000
3.716291 0.727515 0.163914 51.000000
3.718506 0.716110 0.163914 48.000000
3.722649 0.705070 0.163981 40.000000
3.721847 0.693097 0.163880 54.000000
3.718058 0.680596 0.163677 50.000000
3.716194 0.668479 0.163541 48.000000
3.712322 0.656032 0.163338 50.000000
3.710378 0.643956 0.163203 60.000000
3.712336 0.632570 0.163203 57.000000
3.720174 0.622166 0.163406 35.000000
3.722065 0.610750 0.163406 47.000000
3.727869 0.599963 0.163541 51.000000
3.734628 0.589301 0.163711 38.000000
3.736418 0.577841 0.163711 52.000000
3.735209 0.565926 0.163609 47.000000
3.733962 0.554024 0.163507 63.000000
3.734655 0.542423 0.163474 48.000000
3.728385 0.529838 0.163203 47.000000
3.729993 0.518397 0.163203 50.000000
3.730576 0.506817 0.163169 52.000000
3.730132 0.495106 0.163101 50.000000
3.735597 0.484174 0.163237 61.000000
3.737065 0.472711 0.163237 55.000000
3.742466 0.461732 0.163372 55.000000
3.747834 0.450725 0.163507 55.000000
3.751184 0.439457 0.163575 56.000000
3.756487 0.428399 0.163711 75.000000
3.756790 0.416763 0.163677 46.000000
3.757057 0.405128 0.163643 52.000000
3.755301 0.393288 0.163541 49.000000
3.749530 0.381058 0.163304 54.000000
3.747697 0.369259 0.163203 44.000000
3.748812 0.357760 0.163203 54.000000
3.747902 0.346073 0.163135 72.000000
3.750937 0.334751 0.163203 64.000000
3.750951 0.323156 0.163169 43.000000
3.749932 0.311481 0.163101 40.000000
3.749874 0.299895 0.163067 53.000000
3.755759 0.288772 0.163237 65.000000
3.770581 0.278277 0.163711 36.000000
3.774408 0.266919 0.163812 53.000000
3.820081 0.258368 0.165335 47.000000
3.920592 0.253075 0.168721 27.000000
3.973222 0.244229 0.170481 31.000000
4.012865 0.234306 0.171801 36.000000
4.070445 0.225135 0.173731 35.000000
4.145972 0.216548 0.176270 84.000000
4.146617 0.203828 0.176270 63.000000
4.169187 0.192115 0.177015 34.000000
4.181738 0.179837 0.177421 34.000000
4.199247 0.167684 0.177996 25.000000
4.202738 0.154910 0.178098 27.000000
3.677158 0.897380 0.117768 40.000000
3.677951 0.885626 0.117725 27.000000
3.683568 0.875032 0.117790 39.000000
3.686235 0.863727 0.117790 35.000000
3.691790 0.853090 0.117855 38.000000
3.696339 0.842205 0.117898 36.000000
3.704758 0.832177 0.118028 40.000000
3.710222 0.821456 0.118093 41.000000
3.706864 0.808789 0.117963 44.000000
3.712260 0.798044 0.118028 50.000000
3.711757 0.786029 0.117963 51.000000
3.706322 0.773002 0.117790 43.000000
3.705738 0.761023 0.117725 38.000000
3.700217 0.748064 0.117552 48.000000
3.699552 0.736122 0.117487 49.000000
3.702775 0.724961 0.117509 41.000000
3.702036 0.713029 0.117444 38.000000
3.705189 0.701854 0.117466 45.000000
3.705359 0.690117 0.117422 55.000000
3.706475 0.678566 0.117401 60.000000
3.705588 0.666659 0.117336 49.000000
3.706632 0.655113 0.117314 50.000000
3.708624 0.643738 0.117314 53.000000
3.712553 0.632694 0.117357 61.000000
3.719406 0.622127 0.117466 55.000000
3.726230 0.611524 0.117574 73.000000
3.729076 0.600249 0.117595 54.000000
3.732874 0.589117 0.117639 58.000000
3.730713 0.577050 0.117552 64.000000
3.727523 0.564851 0.117444 65.000000
3.723305 0.552530 0.117314 75.000000
3.723993 0.540960 0.117292 59.000000
3.723656 0.529251 0.117249 65.000000
3.725262 0.517824 0.117249 74.000000
3.728814 0.506663 0.117292 59.000000
3.736298 0.496012 0.117422 57.000000
3.738793 0.484676 0.117444 58.000000
3.740262 0.473203 0.117444 50.000000
3.738720 0.461357 0.117379 51.000000
3.738133 0.449646 0.117336 60.000000
3.735523 0.437708 0.117249 61.000000
3.738835 0.426473 0.117292 55.000000
3.738138 0.414779 0.117249 48.000000
3.738399 0.403202 0.117227 58.000000
3.737630 0.391521 0.117184 66.000000
3.736825 0.379850 0.117141 63.000000
3.735982 0.368187 0.117098 75.000000
3.735104 0.356533 0.117054 74.000000
3.733194 0.344795 0.116989 77.000000
3.735230 0.333429 0.117011 67.000000
3.740219 0.322313 0.117098 79.000000
3.742187 0.310920 0.117119 76.000000
3.762058 0.300958 0.117530 52.000000
3.770937 0.290031 0.117704 59.000000
3.784771 0.279421 0.117985 58.000000
3.869380 0.273760 0.119803 28.000000
4.082661 0.276329 0.124412 88.000000
4.084487 0.263867 0.124434 73.000000
4.092263 0.251766 0.124585 80.000000
4.098007 0.239503 0.124693 88.000000
4.102715 0.227152 0.124780 70.000000
4.111380 0.214984 0.124953 65.000000
4.122005 0.202864 0.125170 64.000000
4.133594 0.190726 0.125408 56.000000
4.154136 0.178910 0.125840 39.000000
4.191627 0.167653 0.126641 29.000000
4.182130 0.154421 0.126425 31.000000
4.205566 0.142374 0.126922 21.000000
3.700391 0.818503 0.071092 36.000000
3.697999 0.806082 0.071045 46.000000
3.699477 0.794523 0.071036 37.000000
3.697984 0.782342 0.070999 41.000000
3.697430 0.770382 0.070971 43.000000
3.699776 0.759035 0.070971 36.000000
3.696206 0.746493 0.070916 53.000000
3.697498 0.734955 0.070907 50.000000
3.703661 0.724375 0.070944 39.000000
3.703902 0.712631 0.070925 55.000000
3.706071 0.701265 0.070925 53.000000
3.707222 0.689709 0.070916 44.000000
3.706369 0.677792 0.070888 59.000000
3.705479 0.665888 0.070860 49.000000
3.705535 0.654169 0.070842 43.000000
3.699642 0.641432 0.070768 58.000000
3.697649 0.629408 0.070731 54.000000
3.698577 0.617896 0.070722 55.000000
3.702429 0.606869 0.070740 37.000000
3.699337 0.594714 0.070694 54.000000
3.704107 0.583829 0.070722 56.000000
3.708845 0.572920 0.070749 51.000000
3.716518 0.562436 0.070805 39.000000
3.721194 0.551470 0.070833 52.000000
3.724847 0.540338 0.070851 43.000000
3.729458 0.529329 0.070879 42.000000
3.734036 0.518297 0.070907 56.000000
3.733626 0.506570 0.070888 49.000000
3.735163 0.495113 0.070888 46.000000
3.737656 0.483780 0.070897 47.000000
3.737138 0.472060 0.070879 66.000000
3.734599 0.460104 0.070842 53.000000
3.732022 0.448167 0.070805 48.000000
3.729406 0.436251 0.070768 57.000000
3.725760 0.424242 0.070722 51.000000
3.725056 0.412590 0.070703 52.000000
3.722327 0.400732 0.070666 55.000000
3.717571 0.388687 0.070611 66.000000
3.720737 0.377481 0.070629 55.000000
3.721877 0.366065 0.070629 53.000000
3.720992 0.354455 0.070611 50.000000
3.725049 0.343312 0.070638 53.000000
3.729073 0.332148 0.070666 52.000000
3.741034 0.321647 0.070768 51.000000
3.757947 0.311488 0.070916 53.000000
3.776828 0.301388 0.071082 46.000000
3.887408 0.298201 0.072100 38.000000
4.031911 0.296832 0.073432 72.000000
4.053751 0.285936 0.073626 88.000000
4.048622 0.273095 0.073571 58.000000
4.058422 0.261250 0.073654 83.000000
4.060203 0.248858 0.073663 90.000000
4.065938 0.236691 0.073710 84.000000
4.075631 0.224710 0.073793 57.000000
4.082293 0.212517 0.073848 73.000000
4.093912 0.200528 0.073950 60.000000
4.101501 0.188288 0.074015 63.000000
4.125037 0.176686 0.074228 53.000000
4.146542 0.164862 0.074422 49.000000
4.166015 0.152834 0.074598 39.000000
4.183455 0.140622 0.074755 43.000000
4.204855 0.128426 0.074949 38.000000
4.229219 0.116182 0.075171 12.000000
3.696472 0.735508 0.023734 35.000000
3.686936 0.721854 0.023774 42.000000
3.704844 0.713571 0.023721 27.000000
3.698173 0.700523 0.023751 65.000000
3.692441 0.687707 0.023777 54.000000
3.693549 0.676195 0.023780 45.000000
3.694622 0.664683 0.023784 31.000000
3.695660 0.653170 0.023787 33.000000
3.693705 0.641144 0.023800 50.000000
3.686783 0.628294 0.023830 52.000000
3.686721 0.616650 0.023837 61.000000
3.688596 0.605336 0.023837 54.000000
3.690435 0.594017 0.023837 33.000000
3.690265 0.582379 0.023843 49.000000
3.695987 0.571668 0.023830 54.000000
3.697723 0.560326 0.023830 76.000000
3.707338 0.550156 0.023804 66.000000
3.711977 0.539211 0.023794 51.000000
3.712624 0.527679 0.023797 59.000000
3.715216 0.516425 0.023794 62.000000
3.715792 0.504889 0.023797 80.000000
3.716332 0.493355 0.023800 59.000000
3.717828 0.481951 0.023800 56.000000
3.718297 0.470417 0.023804 45.000000
3.716746 0.458639 0.023814 58.000000
3.717142 0.447114 0.023817 40.000000
3.719490 0.435825 0.023814 55.000000
3.720810 0.424411 0.023814 50.000000
3.721100 0.412884 0.023817 70.000000
3.720361 0.401250 0.023823 52.000000
3.717596 0.389417 0.023837 47.000000
3.718774 0.378009 0.023837 53.000000
3.717926 0.366402 0.023843 59.000000
3.726995 0.355756 0.023817 54.000000
3.728070 0.344320 0.023817 63.000000
3.744049 0.334219 0.023767 61.000000
3.789889 0.326609 0.023618 39.000000
3.981211 0.330854 0.022985 65.000000
4.035037 0.322881 0.022809 89.000000
4.038002 0.310654 0.022802 109.000000
4.040931 0.298412 0.022795 103.000000
4.038835 0.285801 0.022805 98.000000
4.038695 0.273341 0.022809 95.000000
4.040513 0.261013 0.022805 111.000000
4.042293 0.248678 0.022802 96.000000
4.053020 0.236861 0.022769 92.000000
4.062713 0.224926 0.022739 69.000000
4.068377 0.212723 0.022723 79.000000
4.079998 0.200784 0.022686 64.000000
4.080594 0.188266 0.022686 89.000000
4.100134 0.176569 0.022623 61.000000
4.140624 0.165599 0.022490 46.000000
4.171092 0.154010 0.022391 33.000000
4.185536 0.141690 0.022345 29.000000
4.195947 0.129159 0.022311 47.000000
4.211317 0.116705 0.022262 53.000000
4.227650 0.104183 0.022209 28.000000
3.689612 0.711214 -0.022600 27.000000
3.681952 0.698029 -0.022443 38.000000
3.691940 0.688195 -0.022568 45.000000
3.697968 0.677585 -0.022631 40.000000
3.697077 0.665706 -0.022584 55.000000
3.706980 0.655753 -0.022710 55.000000
3.706018 0.643864 -0.022663 68.000000
3.699105 0.630978 -0.022521 46.000000
3.696093 0.618802 -0.022443 38.000000
3.695014 0.606973 -0.022396 39.000000
3.693897 0.595158 -0.022349 50.000000
3.695706 0.583822 -0.022349 55.000000
3.696491 0.572328 -0.022333 45.000000
3.698230 0.560985 -0.022333 41.000000
3.702901 0.550077 -0.022380 60.000000
3.706550 0.539001 -0.022411 75.000000
3.705216 0.527205 -0.022364 43.000000
3.707806 0.515973 -0.022380 59.000000
3.709372 0.504595 -0.022380 50.000000
3.706938 0.492686 -0.022317 53.000000
3.706449 0.481054 -0.022286 56.000000
3.707907 0.469680 -0.022286 69.000000
3.706354 0.457935 -0.022239 52.000000
3.708734 0.446681 -0.022254 54.000000
3.710087 0.435301 -0.022254 56.000000
3.713392 0.424143 -0.022286 63.000000
3.717657 0.413079 -0.022333 78.000000
3.721889 0.401994 -0.022380 60.000000
3.726088 0.390886 -0.022427 46.000000
3.727270 0.379453 -0.022427 66.000000
3.740357 0.369193 -0.022616 63.000000
3.762374 0.359712 -0.022945 53.000000
3.817225 0.353136 -0.023794 30.000000
4.011497 0.358680 -0.026841 58.000000
4.045453 0.349206 -0.027359 77.000000
4.042519 0.336461 -0.027296 67.000000
4.041539 0.323898 -0.027265 80.000000
4.042513 0.311497 -0.027265 97.000000
4.040459 0.298873 -0.027218 80.000000
4.041357 0.286475 -0.027218 93.000000
4.042216 0.274075 -0.027218 73.000000
4.043038 0.261672 -0.027218 116.000000
4.045818 0.249390 -0.027249 94.000000
4.050557 0.237210 -0.027312 98.000000
4.053262 0.224893 -0.027343 97.000000
4.057927 0.212665 -0.027406 84.000000
4.060557 0.200313 -0.027438 86.000000
4.073139 0.188408 -0.027626 72.000000
4.091679 0.176685 -0.027909 48.000000
4.103191 0.164571 -0.028082 46.000000
4.115667 0.152425 -0.028270 45.000000
4.138101 0.140542 -0.028616 42.000000
4.140511 0.127908 -0.028647 33.000000
4.178864 0.116257 -0.029244 56.000000
4.196194 0.103855 -0.029511 60.000000
4.206490 0.091197 -0.029668 58.000000
4.219746 0.078532 -0.029872 42.000000
3.682737 0.569614 -0.066823 46.000000
3.682490 0.558013 -0.066767 37.000000
3.684185 0.546712 -0.066767 35.000000
3.691780 0.536271 -0.066934 42.000000
3.693408 0.524942 -0.066934 45.000000
3.697971 0.514022 -0.067017 52.000000
3.696559 0.502270 -0.066934 39.000000
3.696101 0.490663 -0.066878 52.000000
3.694615 0.478935 -0.066795 44.000000
3.695076 0.467472 -0.066767 49.000000
3.692524 0.455642 -0.066656 48.000000
3.697874 0.444790 -0.066767 57.000000
3.704185 0.434027 -0.066906 52.000000
3.705500 0.422660 -0.066906 51.000000
3.725655 0.413390 -0.067433 29.000000
3.725912 0.401851 -0.067406 53.000000
3.746016 0.392402 -0.067933 45.000000
3.800903 0.386384 -0.069431 41.000000
3.943327 0.388686 -0.073371 27.000000
4.002214 0.382114 -0.074981 48.000000
4.041192 0.373338 -0.076035 63.000000
4.045305 0.361206 -0.076118 88.000000
4.053365 0.349396 -0.076312 84.000000
4.054418 0.336959 -0.076312 73.000000
4.054436 0.324439 -0.076285 104.000000
4.050429 0.311614 -0.076146 83.000000
4.048376 0.298964 -0.076063 77.000000
4.043291 0.286117 -0.075896 97.000000
4.041158 0.273508 -0.075813 87.000000
4.042975 0.261173 -0.075841 87.000000
4.044755 0.248830 -0.075868 92.000000
4.047495 0.236537 -0.075924 86.000000
4.050198 0.224229 -0.075979 96.000000
4.052864 0.211907 -0.076035 80.000000
4.057488 0.199670 -0.076146 83.000000
4.066070 0.187592 -0.076368 71.000000
4.071620 0.175333 -0.076507 62.000000
4.075135 0.162961 -0.076590 54.000000
4.097592 0.151276 -0.077200 45.000000
4.117019 0.139352 -0.077728 34.000000
4.137409 0.127341 -0.078282 18.000000
4.151770 0.115038 -0.078671 30.000000
4.181083 0.103022 -0.079476 40.000000
4.208363 0.090784 -0.080225 62.000000
4.213618 0.077967 -0.080364 58.000000
4.227831 0.065259 -0.080752 47.000000
4.205022 0.051997 -0.080114 5.000000
3.682603 0.489454 -0.113041 42.000000
3.685078 0.478282 -0.113082 42.000000
3.684545 0.466723 -0.113001 54.000000
3.685960 0.455417 -0.113001 52.000000
3.693292 0.444823 -0.113243 43.000000
3.698609 0.433955 -0.113404 39.000000
3.710843 0.423852 -0.113847 34.000000
3.731987 0.414670 -0.114654 45.000000
3.801788 0.410615 -0.117435 25.000000
4.041529 0.423944 -0.127108 32.000000
4.025911 0.409824 -0.126423 29.000000
4.067918 0.401491 -0.128076 31.000000
4.079078 0.389959 -0.128479 40.000000
4.078265 0.377259 -0.128398 56.000000
4.074428 0.364301 -0.128196 60.000000
4.067562 0.351112 -0.127874 74.000000
4.064637 0.338300 -0.127713 57.000000
4.059680 0.325350 -0.127471 71.000000
4.056674 0.312587 -0.127310 71.000000
4.057613 0.300140 -0.127310 67.000000
4.056522 0.287549 -0.127229 84.000000
4.054394 0.274900 -0.127108 78.000000
4.056216 0.262524 -0.127148 78.000000
4.054010 0.249894 -0.127028 83.000000
4.056753 0.237572 -0.127108 60.000000
4.055467 0.225015 -0.127028 68.000000
4.055140 0.212519 -0.126987 70.000000
4.066751 0.200618 -0.127431 74.000000
4.074335 0.188463 -0.127713 79.000000
4.078887 0.176134 -0.127874 71.000000
4.086397 0.163899 -0.128156 55.000000
4.091873 0.151546 -0.128358 61.000000
4.101306 0.139296 -0.128720 57.000000
4.116694 0.127174 -0.129325 37.000000
4.132048 0.114959 -0.129930 39.000000
4.147364 0.102651 -0.130534 40.000000
4.172634 0.090466 -0.131542 32.000000
4.192872 0.078034 -0.132348 34.000000
4.210075 0.065432 -0.133033 32.000000
4.102285 0.453855 -0.179297 19.000000
4.123516 0.443408 -0.180344 21.000000
4.130816 0.431380 -0.180658 40.000000
4.121192 0.417594 -0.180082 52.000000
4.123447 0.405046 -0.180135 36.000000
4.103794 0.390402 -0.179036 57.000000
4.093039 0.376708 -0.178408 77.000000
4.090198 0.363794 -0.178198 61.000000
4.086319 0.350815 -0.177937 60.000000
4.082401 0.337864 -0.177675 73.000000
4.080431 0.325099 -0.177518 81.000000
4.076431 0.312196 -0.177256 75.000000
4.074382 0.299468 -0.177099 84.000000
4.071297 0.286684 -0.176890 88.000000
4.069168 0.273990 -0.176733 77.000000
4.069990 0.261505 -0.176733 79.000000
4.071769 0.249079 -0.176785 70.000000
4.078496 0.236935 -0.177099 57.000000
4.107122 0.225965 -0.178565 35.000000
4.095829 0.212738 -0.177937 43.000000
4.098457 0.200269 -0.178041 44.000000
4.104041 0.187924 -0.178303 50.000000
4.107591 0.175461 -0.178460 44.000000
4.111104 0.162978 -0.178617 37.000000
4.119567 0.150659 -0.179036 41.000000
4.124003 0.138154 -0.179245 42.000000
4.128400 0.125624 -0.179454 43.000000
4.144738 0.113399 -0.180292 24.000000
4.140074 0.100560 -0.180030 34.000000
4.150347 0.088073 -0.180553 38.000000
4.170568 0.075707 -0.181600 30.000000
4.185758 0.063142 -0.182385 21.000000
4.191923 0.050373 -0.182699 26.000000
4.208035 0.037660 -0.183536 11.000000
4.127908 0.458621 -0.232106 25.000000
4.146161 0.447774 -0.233206 27.000000
4.123696 0.432556 -0.231653 63.000000
4.123018 0.419700 -0.231523 44.000000
4.115349 0.406168 -0.230941 39.000000
4.104655 0.392402 -0.230164 64.000000
4.096897 0.378981 -0.229582 50.000000
4.094064 0.366055 -0.229323 54.000000
4.094174 0.353407 -0.229259 49.000000
4.090267 0.340431 -0.228935 68.000000
4.089302 0.327721 -0.228806 60.000000
4.087303 0.314944 -0.228611 72.000000
4.084270 0.302109 -0.228353 58.000000
4.084182 0.289507 -0.228288 77.000000
4.083060 0.276841 -0.228159 64.000000
4.081898 0.264184 -0.228029 78.000000
4.083685 0.251721 -0.228094 52.000000
4.081450 0.239016 -0.227900 56.000000
4.086150 0.226714 -0.228159 68.000000
4.089815 0.214333 -0.228353 66.000000
4.090454 0.201785 -0.228353 66.000000
4.096038 0.189465 -0.228676 59.000000
4.098594 0.176983 -0.228806 70.000000
4.103106 0.164568 -0.229064 50.000000
4.105586 0.152053 -0.229194 59.000000
4.106033 0.139456 -0.229194 53.000000
4.106441 0.126858 -0.229194 49.000000
4.105814 0.114232 -0.229129 37.000000
4.107143 0.101659 -0.229194 62.000000
4.109430 0.089101 -0.229323 60.000000
4.111681 0.076530 -0.229453 62.000000
4.121873 0.064070 -0.230100 52.000000
4.132029 0.051547 -0.230747 40.000000
4.139153 0.038935 -0.231200 29.000000
4.145240 0.026274 -0.231588 28.000000
4.055490 0.013271 -0.225764 8.000000
4.122644 0.456113 -0.281037 21.000000
4.114111 0.442394 -0.280272 31.000000
4.111482 0.429355 -0.279966 56.000000
4.113772 0.416840 -0.280042 44.000000
4.106101 0.403337 -0.279353 41.000000
4.098386 0.389886 -0.278664 60.000000
4.090628 0.376485 -0.277976 50.000000
4.090770 0.363845 -0.277899 47.000000
4.083920 0.350609 -0.277287 76.000000
4.079014 0.337582 -0.276827 75.000000
4.078043 0.324908 -0.276674 80.000000
4.078027 0.312319 -0.276598 85.000000
4.080955 0.299953 -0.276751 62.000000
4.084839 0.287642 -0.276980 63.000000
4.087692 0.275243 -0.277134 82.000000
4.090507 0.262829 -0.277287 80.000000
4.092289 0.250340 -0.277363 54.000000
4.095029 0.237900 -0.277516 46.000000
4.091757 0.225115 -0.277210 56.000000
4.091434 0.212509 -0.277134 47.000000
4.092066 0.199955 -0.277134 52.000000
4.090669 0.187308 -0.276980 71.000000
4.090228 0.174715 -0.276904 44.000000
4.094729 0.162324 -0.277210 48.000000
4.095208 0.149761 -0.277210 71.000000
4.099635 0.137331 -0.277516 58.000000
4.108009 0.124998 -0.278129 39.000000
4.106380 0.112339 -0.277976 43.000000
4.103715 0.099667 -0.277746 35.000000
4.104002 0.087076 -0.277746 45.000000
4.101258 0.074430 -0.277516 41.000000
4.109443 0.061969 -0.278129 31.000000
4.120581 0.049496 -0.278971 25.000000
4.126695 0.036910 -0.279430 33.000000
4.134765 0.024298 -0.280042 16.000000
4.142797 0.011637 -0.280655 18.000000
4.142630 0.445936 -0.333535 30.000000
4.146950 0.433535 -0.333802 19.000000
4.120513 0.417998 -0.331317 45.000000
4.101951 0.403407 -0.329543 53.000000
4.095237 0.390065 -0.328833 45.000000
4.088479 0.376769 -0.328123 47.000000
4.084655 0.363783 -0.327680 67.000000
4.082775 0.350994 -0.327414 68.000000
4.079862 0.338137 -0.327059 61.000000
4.076908 0.325303 -0.326704 57.000000
4.078880 0.312869 -0.326793 66.000000
4.080814 0.300427 -0.326881 70.000000
4.082710 0.287976 -0.326970 59.000000
4.088543 0.275784 -0.327414 71.000000
4.095335 0.263622 -0.327946 70.000000
4.103083 0.251483 -0.328567 96.000000
4.109802 0.239240 -0.329099 69.000000
4.114495 0.226849 -0.329454 76.000000
4.117161 0.214328 -0.329632 78.000000
4.115809 0.201599 -0.329454 66.000000
4.111434 0.188743 -0.329011 50.000000
4.109007 0.176001 -0.328744 46.000000
4.106542 0.163275 -0.328478 69.000000
4.104037 0.150566 -0.328212 74.000000
4.104480 0.137975 -0.328212 82.000000
4.105880 0.125412 -0.328301 61.000000
4.105250 0.112787 -0.328212 64.000000
4.108564 0.100265 -0.328478 65.000000
4.108852 0.087659 -0.328478 68.000000
4.108106 0.075035 -0.328390 77.000000
4.111304 0.062476 -0.328656 62.000000
4.115460 0.049911 -0.329011 57.000000
4.121571 0.037338 -0.329543 47.000000
4.124654 0.024711 -0.329809 48.000000
4.140647 0.012101 -0.331229 36.000000
4.160585 -0.000607 -0.333003 25.000000
4.185465 -0.013454 -0.335221 10.000000
4.172608 0.436489 -0.389107 25.000000
4.125430 0.418749 -0.384146 37.000000
4.111845 0.404625 -0.382628 53.000000
4.109104 0.391629 -0.382223 46.000000
4.101371 0.378196 -0.381312 54.000000
4.095575 0.364992 -0.380603 70.000000
4.096676 0.352425 -0.380603 67.000000
4.095755 0.339690 -0.380401 60.000000
4.094795 0.326964 -0.380198 66.000000
4.096771 0.314476 -0.380300 52.000000
4.099700 0.302052 -0.380502 53.000000
4.105569 0.289825 -0.381008 70.000000
4.113388 0.277699 -0.381717 55.000000
4.119184 0.265399 -0.382223 58.000000
4.125937 0.253128 -0.382830 85.000000
4.135633 0.240992 -0.383741 61.000000
4.149265 0.229019 -0.385057 31.000000
4.149949 0.216288 -0.385057 77.000000
4.149599 0.203506 -0.384956 38.000000
4.148217 0.190683 -0.384754 37.000000
4.143812 0.177741 -0.384248 42.000000
4.136386 0.164708 -0.383438 42.000000
4.124941 0.151575 -0.382223 51.000000
4.117433 0.138649 -0.381413 45.000000
4.114855 0.125924 -0.381109 49.000000
4.107266 0.113078 -0.380300 35.000000
4.108588 0.100501 -0.380401 49.000000
4.106888 0.087853 -0.380198 35.000000
4.105149 0.075215 -0.379996 43.000000
4.121276 0.062868 -0.381616 24.000000
4.111502 0.050100 -0.380603 39.000000
4.116611 0.037532 -0.381109 32.000000
4.125659 0.024959 -0.382020 32.000000
4.147604 0.012373 -0.384248 24.000000
4.136678 -0.000354 -0.383134 33.000000
4.127087 0.419389 -0.433933 20.000000
4.126377 0.406531 -0.433707 25.000000
4.122659 0.393398 -0.433142 34.000000
4.119890 0.380383 -0.432690 45.000000
4.115098 0.367212 -0.432011 41.000000
4.112246 0.354245 -0.431559 49.000000
4.106382 0.341052 -0.430768 57.000000
4.107409 0.328452 -0.430768 62.000000
4.108397 0.315849 -0.430768 67.000000
4.112320 0.303462 -0.431107 59.000000
4.117196 0.291124 -0.431559 72.000000
4.125010 0.278960 -0.432350 72.000000
4.129812 0.266559 -0.432803 83.000000
4.142511 0.254618 -0.434159 70.000000
4.150216 0.242313 -0.434950 68.000000
4.168797 0.230565 -0.436985 46.000000
4.234640 0.208146 -0.444332 17.000000
4.175706 0.192415 -0.437550 63.000000
4.161386 0.178964 -0.435854 53.000000
4.153973 0.165880 -0.434950 47.000000
4.144533 0.152770 -0.433820 54.000000
4.136045 0.139753 -0.432803 69.000000
4.130496 0.126880 -0.432124 63.000000
4.124907 0.114043 -0.431446 65.000000
4.117290 0.101193 -0.430542 61.000000
4.111621 0.088433 -0.429864 60.000000
4.106906 0.075728 -0.429299 57.000000
4.104138 0.063082 -0.428960 67.000000
4.111267 0.050575 -0.429751 41.000000
4.117364 0.038016 -0.430429 50.000000
4.126404 0.025438 -0.431446 55.000000
4.136398 0.012809 -0.432577 52.000000
4.149335 0.000117 -0.434046 47.000000
