ply
format ascii 1.0
element vertex 1004
property float x
property float y
property float z
property float intensity
end_header
4.160346 0.552900 0.691674 32.000000
4.164962 0.540515 0.692139 35.000000
4.165620 0.527611 0.691984 46.000000
4.168200 0.514949 0.692139 33.000000
4.173684 0.502631 0.692758 37.000000
4.173244 0.489594 0.692449 43.000000
4.177671 0.477124 0.692913 34.000000
4.184024 0.464850 0.693688 32.000000
4.186413 0.452118 0.693842 33.000000
4.193676 0.439890 0.694772 25.000000
4.206800 0.428221 0.696630 29.000000
4.396183 0.284495 0.724354 5.000000
4.135421 0.549855 0.636557 47.000000
4.141995 0.537804 0.637272 58.000000
4.143626 0.525094 0.637272 67.000000
4.149147 0.512866 0.637844 62.000000
4.155613 0.500727 0.638559 80.000000
4.161062 0.488438 0.639131 83.000000
4.168440 0.476346 0.639989 80.000000
4.175784 0.464213 0.640847 104.000000
4.182109 0.451933 0.641561 86.000000
4.191350 0.439929 0.642705 81.000000
4.200557 0.427872 0.643849 78.000000
4.207758 0.415568 0.644707 108.000000
4.216896 0.403413 0.645851 106.000000
4.223041 0.390932 0.646566 110.000000
4.231121 0.378593 0.647566 122.000000
4.250011 0.367149 0.650140 88.000000
4.253089 0.354273 0.650426 108.000000
4.266982 0.342255 0.652285 76.000000
4.266038 0.329010 0.651999 122.000000
4.282819 0.317094 0.654286 105.000000
4.295619 0.304797 0.656002 81.000000
4.307395 0.292357 0.657575 62.000000
4.318149 0.279783 0.659004 68.000000
4.326889 0.267024 0.660148 78.000000
4.334604 0.254155 0.661149 58.000000
4.343269 0.241297 0.662293 75.000000
4.352883 0.228440 0.663579 88.000000
4.359495 0.215379 0.664437 65.000000
4.369033 0.202418 0.665724 80.000000
4.378533 0.189400 0.667011 61.000000
4.388982 0.176366 0.668441 88.000000
4.403349 0.163418 0.670442 88.000000
4.413721 0.150247 0.671872 69.000000
4.425044 0.137045 0.673445 80.000000
4.435336 0.123747 0.674874 81.000000
4.440642 0.110263 0.675589 84.000000
4.448875 0.096814 0.676733 87.000000
4.462016 0.083408 0.678592 76.000000
4.470167 0.069844 0.679736 77.000000
4.477289 0.056218 0.680736 92.000000
4.483377 0.042540 0.681594 68.000000
4.487446 0.028811 0.682166 88.000000
4.493451 0.015065 0.683024 66.000000
4.503374 0.001285 0.684454 72.000000
4.512264 -0.012554 0.685741 69.000000
4.528040 -0.026486 0.688028 55.000000
4.533875 -0.040429 0.688886 53.000000
4.543627 -0.054454 0.690316 58.000000
4.556304 -0.068584 0.692174 83.000000
4.563988 -0.082704 0.693318 58.000000
4.573608 -0.096913 0.694748 71.000000
4.573289 -0.110944 0.694748 57.000000
4.585789 -0.125322 0.696607 68.000000
4.619018 -0.140404 0.701468 7.000000
4.132535 0.549207 0.585154 30.000000
4.142066 0.537546 0.586203 46.000000
4.140745 0.524462 0.585809 36.000000
4.153157 0.513092 0.587251 51.000000
4.159633 0.500940 0.587906 55.000000
4.167058 0.488869 0.588692 61.000000
4.174448 0.476757 0.589479 69.000000
4.175891 0.463947 0.589479 48.000000
4.185180 0.451984 0.590527 63.000000
4.193449 0.439866 0.591444 71.000000
4.201683 0.427700 0.592362 74.000000
4.214814 0.415975 0.593934 61.000000
4.222979 0.403702 0.594851 72.000000
4.235056 0.391748 0.596293 49.000000
4.246113 0.379635 0.597603 55.000000
4.251208 0.366947 0.598128 63.000000
4.260218 0.354560 0.599176 65.000000
4.269191 0.342121 0.600224 65.000000
4.280105 0.329782 0.601535 93.000000
4.289995 0.317307 0.602714 78.000000
4.298860 0.304704 0.603763 69.000000
4.302742 0.291715 0.604156 96.000000
4.309552 0.278896 0.604942 85.000000
4.313356 0.265856 0.605335 70.000000
4.318110 0.252853 0.605859 75.000000
4.341632 0.240865 0.608873 116.000000
4.348290 0.227855 0.609660 111.000000
4.357881 0.214952 0.610839 95.000000
4.367433 0.201993 0.612018 88.000000
4.373975 0.188849 0.612805 109.000000
4.384439 0.175825 0.614115 98.000000
4.394866 0.162739 0.615426 118.000000
4.408224 0.149691 0.617129 109.000000
4.421545 0.136563 0.618833 99.000000
4.433835 0.123327 0.620405 101.000000
4.451041 0.110139 0.622633 88.000000
4.461269 0.096697 0.623944 82.000000
4.469474 0.083156 0.624992 109.000000
4.478630 0.069582 0.626171 113.000000
4.485761 0.055927 0.627089 98.000000
4.491859 0.042220 0.627875 90.000000
4.500890 0.028495 0.629054 74.000000
4.506904 0.014705 0.629841 78.000000
4.516842 0.000879 0.631151 90.000000
4.526737 -0.013008 0.632461 82.000000
4.539564 -0.026973 0.634165 87.000000
4.550364 -0.041000 0.635607 103.000000
4.558147 -0.055056 0.636655 91.000000
4.565887 -0.069161 0.637703 121.000000
4.573584 -0.083314 0.638752 86.000000
4.579253 -0.097472 0.639538 87.000000
4.586861 -0.111714 0.640586 71.000000
4.592443 -0.125950 0.641373 76.000000
4.554380 -0.138887 0.636393 17.000000
4.113118 0.547611 0.531283 40.000000
4.127579 0.536658 0.532829 63.000000
4.135115 0.524743 0.533543 65.000000
4.144588 0.513033 0.534494 77.000000
4.156000 0.501507 0.535683 80.000000
4.164422 0.489568 0.536516 89.000000
4.170836 0.477355 0.537110 80.000000
4.186096 0.466099 0.538775 114.000000
4.195403 0.454111 0.539727 100.000000
4.204676 0.442070 0.540678 99.000000
4.211939 0.429775 0.541392 120.000000
4.221142 0.417635 0.542343 100.000000
4.226357 0.405063 0.542819 130.000000
4.233511 0.392646 0.543532 108.000000
4.241619 0.380279 0.544365 120.000000
4.249689 0.367865 0.545197 86.000000
4.257724 0.355406 0.546030 116.000000
4.263743 0.342741 0.546624 96.000000
4.272694 0.330272 0.547576 99.000000
4.278638 0.317531 0.548170 74.000000
4.289496 0.305110 0.549360 103.000000
4.297346 0.292423 0.550192 110.000000
4.308131 0.279884 0.551381 96.000000
4.313924 0.266973 0.551976 116.000000
4.326617 0.254440 0.553403 95.000000
4.333325 0.241498 0.554116 116.000000
4.345944 0.228832 0.555544 78.000000
4.352575 0.215794 0.556257 115.000000
4.364128 0.202950 0.557565 98.000000
4.374649 0.189993 0.558755 82.000000
4.387115 0.177055 0.560182 101.000000
4.396568 0.163930 0.561252 94.000000
4.406973 0.150783 0.562441 119.000000
4.420317 0.137667 0.563987 125.000000
4.430644 0.124386 0.565176 110.000000
4.439938 0.111018 0.566247 103.000000
4.446213 0.097529 0.566960 104.000000
4.454433 0.084039 0.567912 111.000000
4.461619 0.070484 0.568744 107.000000
4.473729 0.056951 0.570171 105.000000
4.486790 0.043353 0.571717 100.000000
4.494845 0.029642 0.572669 89.000000
4.503850 0.015886 0.573739 102.000000
4.509835 0.002073 0.574452 95.000000
4.516771 -0.011780 0.575285 97.000000
4.530614 -0.025712 0.576950 74.000000
4.540442 -0.039696 0.578139 72.000000
4.549234 -0.053729 0.579209 103.000000
4.563941 -0.067903 0.580993 69.000000
4.572645 -0.082063 0.582064 92.000000
4.582299 -0.096297 0.583253 79.000000
4.596871 -0.110710 0.585037 74.000000
4.602465 -0.124973 0.585750 61.000000
4.616947 -0.139538 0.587534 24.000000
4.119865 0.548253 0.480852 32.000000
4.126459 0.536251 0.481386 45.000000
4.132030 0.524089 0.481813 47.000000
4.137565 0.511898 0.482240 54.000000
4.147013 0.500153 0.483095 67.000000
4.157416 0.488471 0.484056 53.000000
4.169761 0.476956 0.485230 50.000000
4.181087 0.465260 0.486298 58.000000
4.194357 0.453712 0.487580 61.000000
4.201662 0.441465 0.488220 51.000000
4.212888 0.429580 0.489288 61.000000
4.224082 0.417631 0.490356 61.000000
4.234250 0.405522 0.491317 59.000000
4.244385 0.393354 0.492278 60.000000
4.255475 0.381217 0.493346 64.000000
4.260587 0.368502 0.493773 76.000000
4.267642 0.355924 0.494414 66.000000
4.269705 0.342909 0.494521 60.000000
4.279659 0.330496 0.495482 65.000000
4.287595 0.317879 0.496229 64.000000
4.300450 0.305568 0.497511 64.000000
4.314264 0.293248 0.498899 59.000000
4.323081 0.280525 0.499753 73.000000
4.331861 0.267751 0.500607 66.000000
4.341595 0.254984 0.501568 99.000000
4.349306 0.242049 0.502316 87.000000
4.354992 0.228965 0.502850 87.000000
4.363619 0.215995 0.503704 86.000000
4.371213 0.202929 0.504452 99.000000
4.377776 0.189775 0.505092 90.000000
4.384298 0.176583 0.505733 78.000000
4.393762 0.163463 0.506694 98.000000
4.405173 0.150355 0.507869 100.000000
4.418533 0.137239 0.509257 89.000000
4.428873 0.123960 0.510325 106.000000
4.439172 0.110619 0.511393 94.000000
4.450425 0.097237 0.512567 86.000000
4.462632 0.083806 0.513849 86.000000
4.473803 0.070285 0.515023 87.000000
4.484935 0.056697 0.516198 90.000000
4.492046 0.043003 0.516945 88.000000
4.499118 0.029266 0.517693 85.000000
4.509129 0.015496 0.518761 95.000000
4.518104 0.001665 0.519722 95.000000
4.528030 -0.012224 0.520790 78.000000
4.537914 -0.026174 0.521858 94.000000
4.546761 -0.040176 0.522819 85.000000
4.556558 -0.054244 0.523886 73.000000
4.567306 -0.068388 0.525061 77.000000
4.575027 -0.082544 0.525915 91.000000
4.580718 -0.096706 0.526556 101.000000
4.589345 -0.110976 0.527517 75.000000
4.593953 -0.125191 0.528051 66.000000
4.603485 -0.139587 0.529119 31.000000
4.130262 0.574981 0.432538 32.000000
4.121156 0.560827 0.431493 56.000000
4.124831 0.548444 0.431683 56.000000
4.128469 0.536044 0.431873 64.000000
4.134044 0.523877 0.432253 68.000000
4.139583 0.511681 0.432633 91.000000
4.146075 0.499575 0.433108 86.000000
4.152531 0.487435 0.433582 80.000000
4.154996 0.474806 0.433677 105.000000
4.163359 0.462828 0.434342 106.000000
4.174656 0.451125 0.435292 104.000000
4.183941 0.439149 0.436052 114.000000
4.196162 0.427423 0.437097 115.000000
4.209342 0.415725 0.438236 107.000000
4.217534 0.403475 0.438901 130.000000
4.233620 0.391914 0.440326 118.000000
4.239759 0.379369 0.440801 108.000000
4.246854 0.366875 0.441371 109.000000
4.255896 0.354507 0.442130 130.000000
4.260933 0.341768 0.442510 117.000000
4.264938 0.328925 0.442795 144.000000
4.279826 0.316871 0.444125 83.000000
4.283757 0.303952 0.444410 113.000000
4.294601 0.291485 0.445360 120.000000
4.313356 0.279471 0.447069 95.000000
4.322142 0.266729 0.447829 89.000000
4.334865 0.254170 0.448969 99.000000
4.343575 0.241314 0.449729 119.000000
4.350259 0.228302 0.450298 91.000000
4.358893 0.215349 0.451058 103.000000
4.366495 0.202300 0.451723 90.000000
4.376045 0.189292 0.452578 98.000000
4.384563 0.176187 0.453338 101.000000
4.396025 0.163144 0.454382 120.000000
4.405460 0.149964 0.455237 102.000000
4.414854 0.136727 0.456092 115.000000
4.422218 0.123378 0.456757 132.000000
4.427551 0.109935 0.457232 103.000000
4.437820 0.096570 0.458182 98.000000
4.449044 0.083162 0.459226 123.000000
4.461223 0.069702 0.460366 112.000000
4.468383 0.056104 0.461031 114.000000
4.476498 0.042473 0.461791 98.000000
4.481585 0.028772 0.462266 104.000000
4.486629 0.015041 0.462740 104.000000
4.495613 0.001281 0.463595 88.000000
4.506546 -0.012539 0.464640 91.000000
4.518432 -0.026432 0.465780 103.000000
4.534256 -0.040432 0.467299 78.000000
4.551033 -0.054541 0.468914 90.000000
4.566771 -0.068739 0.470434 95.000000
4.577487 -0.082945 0.471478 71.000000
4.585173 -0.097155 0.472238 84.000000
4.591820 -0.111389 0.472903 61.000000
4.591456 -0.125476 0.472903 81.000000
4.593040 -0.139621 0.473093 70.000000
4.603534 -0.154075 0.474138 10.000000
4.118818 0.560979 0.378819 43.000000
4.124471 0.548866 0.379149 47.000000
4.128112 0.536466 0.379313 42.000000
4.135670 0.524550 0.379808 42.000000
4.143194 0.512594 0.380303 47.000000
4.150684 0.500596 0.380798 72.000000
4.161108 0.488905 0.381540 62.000000
4.168530 0.476815 0.382035 60.000000
4.177897 0.464905 0.382694 68.000000
4.191194 0.453371 0.383684 50.000000
4.201485 0.441447 0.384426 57.000000
4.211743 0.429464 0.385168 65.000000
4.222959 0.417520 0.385993 63.000000
4.226203 0.404752 0.386158 62.000000
4.233380 0.392335 0.386652 72.000000
4.240519 0.379879 0.387147 70.000000
4.245636 0.367210 0.387477 70.000000
4.255681 0.354928 0.388219 78.000000
4.264697 0.342507 0.388879 59.000000
4.275664 0.330188 0.389703 82.000000
4.285602 0.317732 0.390446 66.000000
4.292521 0.305005 0.390940 61.000000
4.304374 0.292577 0.391847 81.000000
4.311219 0.279757 0.392342 58.000000
4.323993 0.267265 0.393332 71.000000
4.331757 0.254407 0.393909 67.000000
4.335502 0.241282 0.394156 69.000000
4.342194 0.228293 0.394651 73.000000
4.348845 0.215265 0.395146 77.000000
4.356454 0.202245 0.395723 74.000000
4.367010 0.189310 0.396548 82.000000
4.376533 0.176271 0.397290 76.000000
4.389004 0.163287 0.398279 91.000000
4.401437 0.150228 0.399269 93.000000
4.413830 0.137094 0.400258 77.000000
4.429173 0.123969 0.401495 111.000000
4.438499 0.110602 0.402237 98.000000
4.447785 0.097180 0.402980 74.000000
4.460019 0.083757 0.403969 106.000000
4.469223 0.070214 0.404711 76.000000
4.478386 0.056615 0.405453 87.000000
4.490498 0.042988 0.406443 69.000000
4.496588 0.029250 0.406938 89.000000
4.530540 0.015568 0.409741 51.000000
4.516614 0.001664 0.408587 70.000000
4.525568 -0.012217 0.409329 74.000000
4.534478 -0.026154 0.410071 74.000000
4.544342 -0.040154 0.410896 75.000000
4.554163 -0.054216 0.411720 66.000000
4.569919 -0.068427 0.413040 78.000000
4.577659 -0.082592 0.413699 67.000000
4.587348 -0.096847 0.414524 80.000000
4.595995 -0.111138 0.415266 74.000000
4.598621 -0.125319 0.415514 92.000000
4.600208 -0.139487 0.415678 75.000000
4.603742 -0.153733 0.416008 81.000000
4.588309 -0.167311 0.414771 43.000000
4.121509 0.546543 0.329437 30.000000
4.129101 0.534666 0.329861 46.000000
4.138639 0.522998 0.330426 64.000000
4.143194 0.510665 0.330638 58.000000
4.149693 0.498548 0.330991 71.000000
4.155165 0.486280 0.331273 60.000000
4.160602 0.473982 0.331556 82.000000
4.169968 0.462097 0.332121 76.000000
4.174341 0.449622 0.332333 86.000000
4.180661 0.437334 0.332686 88.000000
4.187937 0.425112 0.333110 98.000000
4.195178 0.412849 0.333533 98.000000
4.202383 0.400546 0.333957 125.000000
4.213524 0.388570 0.334663 100.000000
4.225626 0.376619 0.335440 112.000000
4.239681 0.364768 0.336358 112.000000
4.249726 0.352504 0.336994 121.000000
4.264708 0.340580 0.337983 92.000000
4.275679 0.328260 0.338689 74.000000
4.274676 0.314994 0.338548 108.000000
4.285573 0.302583 0.339254 90.000000
4.289466 0.289636 0.339466 119.000000
4.305266 0.277441 0.340525 84.000000
4.317049 0.264907 0.341302 75.000000
4.327798 0.252244 0.342009 84.000000
4.336520 0.239407 0.342574 89.000000
4.345203 0.226519 0.343139 102.000000
4.350860 0.213433 0.343492 94.000000
4.356476 0.200314 0.343845 102.000000
4.365043 0.187292 0.344410 76.000000
4.370580 0.174099 0.344763 69.000000
4.382059 0.161096 0.345540 93.000000
4.393498 0.148023 0.346317 103.000000
4.406893 0.134944 0.347235 113.000000
4.418255 0.121728 0.348012 81.000000
4.432569 0.108518 0.349001 87.000000
4.442853 0.095135 0.349707 99.000000
4.451103 0.081652 0.350272 77.000000
4.459311 0.068120 0.350837 86.000000
4.467479 0.054538 0.351402 69.000000
4.474607 0.040898 0.351896 84.000000
4.485684 0.027239 0.352673 89.000000
4.497716 0.013516 0.353521 91.000000
4.511702 -0.000280 0.354510 68.000000
4.518661 -0.014142 0.355004 78.000000
4.530568 -0.028076 0.355851 79.000000
4.541431 -0.042074 0.356628 86.000000
4.553251 -0.056151 0.357476 61.000000
4.565025 -0.070302 0.358323 73.000000
4.576756 -0.084524 0.359171 69.000000
4.584454 -0.098735 0.359736 74.000000
4.595098 -0.113067 0.360513 60.000000
4.599716 -0.127301 0.360866 59.000000
4.601297 -0.141472 0.361007 42.000000
4.150142 0.538593 0.278762 48.000000
4.157717 0.526610 0.279110 37.000000
4.160304 0.513974 0.279168 38.000000
4.158887 0.500850 0.278994 64.000000
4.163379 0.488438 0.279168 56.000000
4.166842 0.475889 0.279284 59.000000
4.169274 0.463213 0.279342 85.000000
4.173654 0.450741 0.279517 81.000000
4.180974 0.438558 0.279865 85.000000
4.188259 0.426335 0.280214 54.000000
4.200475 0.414561 0.280853 60.000000
4.211665 0.402622 0.281434 71.000000
4.222822 0.390617 0.282014 75.000000
4.234938 0.378637 0.282653 70.000000
4.244037 0.366329 0.283118 64.000000
4.256084 0.354216 0.283757 73.000000
4.270087 0.342193 0.284512 81.000000
4.280076 0.329780 0.285035 79.000000
4.292018 0.317456 0.285674 82.000000
4.299943 0.304781 0.286080 72.000000
4.307830 0.292059 0.286487 82.000000
4.316676 0.279357 0.286952 73.000000
4.323491 0.266480 0.287300 69.000000
4.330268 0.253564 0.287649 80.000000
4.337007 0.240609 0.287997 89.000000
4.343706 0.227615 0.288346 72.000000
4.349369 0.214533 0.288636 88.000000
4.355990 0.201465 0.288985 80.000000
4.364567 0.188443 0.289449 88.000000
4.375100 0.175451 0.290030 86.000000
4.385593 0.162396 0.290611 81.000000
4.397047 0.149313 0.291250 108.000000
4.408460 0.136160 0.291889 80.000000
4.418837 0.122911 0.292470 78.000000
4.431169 0.109649 0.293167 88.000000
4.443461 0.096312 0.293864 86.000000
4.453717 0.082864 0.294445 83.000000
4.464931 0.069370 0.295084 84.000000
4.474107 0.055783 0.295607 85.000000
4.483242 0.042140 0.296129 94.000000
4.494331 0.028454 0.296768 77.000000
4.507375 0.014706 0.297524 70.000000
4.515385 0.000879 0.297988 67.000000
4.520358 -0.012989 0.298279 77.000000
4.526287 -0.026893 0.298627 82.000000
4.538162 -0.040889 0.299324 82.000000
4.566965 -0.055163 0.301009 44.000000
4.556791 -0.069022 0.300428 93.000000
4.571530 -0.083276 0.301299 71.000000
4.580236 -0.097493 0.301822 70.000000
4.592890 -0.111862 0.302577 59.000000
4.595519 -0.126034 0.302751 56.000000
4.594112 -0.140102 0.302693 43.000000
4.127157 0.533684 0.228063 54.000000
4.136703 0.522022 0.228433 45.000000
4.138285 0.509328 0.228433 67.000000
4.142803 0.496988 0.228572 60.000000
4.150261 0.484973 0.228849 75.000000
4.157685 0.472917 0.229127 62.000000
4.162095 0.460489 0.229265 74.000000
4.170440 0.448468 0.229589 76.000000
4.179744 0.436503 0.229959 71.000000
4.191996 0.424788 0.230467 80.000000
4.202227 0.412807 0.230883 108.000000
4.214412 0.400957 0.231392 111.000000
4.221591 0.388576 0.231669 103.000000
4.226742 0.375978 0.231854 103.000000
4.231857 0.363351 0.232039 117.000000
4.238925 0.350862 0.232317 110.000000
4.249938 0.338652 0.232779 105.000000
4.263906 0.326607 0.233380 111.000000
4.274850 0.314259 0.233842 110.000000
4.286755 0.301918 0.234351 97.000000
4.294637 0.289237 0.234675 89.000000
4.303480 0.276574 0.235045 90.000000
4.311287 0.263799 0.235368 88.000000
4.321052 0.251095 0.235784 79.000000
4.329781 0.238278 0.236154 108.000000
4.339469 0.225462 0.236570 78.000000
4.349120 0.212589 0.236986 100.000000
4.358732 0.199659 0.237403 76.000000
4.366311 0.186586 0.237726 90.000000
4.375846 0.173548 0.238142 69.000000
4.387338 0.160527 0.238651 77.000000
4.396795 0.147370 0.239067 88.000000
4.412204 0.134340 0.239761 70.000000
4.421582 0.121051 0.240177 86.000000
4.430921 0.107706 0.240593 74.000000
4.443214 0.094370 0.241148 88.000000
4.451473 0.080885 0.241517 83.000000
4.463686 0.067412 0.242072 81.000000
4.472862 0.053827 0.242488 70.000000
4.479998 0.040169 0.242812 83.000000
4.507071 0.026591 0.244060 50.000000
4.503136 0.012751 0.243875 67.000000
4.512144 -0.001065 0.244292 67.000000
4.522109 -0.014938 0.244754 62.000000
4.531032 -0.028867 0.245170 64.000000
4.542908 -0.042878 0.245725 56.000000
4.551745 -0.056925 0.246141 52.000000
4.561537 -0.071042 0.246603 54.000000
4.571285 -0.085220 0.247066 65.000000
4.577993 -0.099394 0.247389 70.000000
4.585656 -0.113635 0.247759 65.000000
4.592275 -0.127896 0.248083 62.000000
4.594857 -0.142076 0.248221 64.000000
4.115208 0.533335 0.176202 35.000000
4.114842 0.520457 0.176135 34.000000
4.124355 0.508808 0.176405 45.000000
4.132843 0.496987 0.176642 48.000000
4.140303 0.485003 0.176845 61.000000
4.152695 0.473543 0.177218 59.000000
4.165055 0.462011 0.177590 59.000000
4.175396 0.450194 0.177895 50.000000
4.187691 0.438526 0.178267 58.000000
4.196972 0.426484 0.178538 53.000000
4.207212 0.414487 0.178843 54.000000
4.217418 0.402431 0.179147 86.000000
4.222613 0.389857 0.179283 68.000000
4.226777 0.377167 0.179384 69.000000
4.232892 0.364626 0.179554 84.000000
4.240963 0.352217 0.179791 79.000000
4.248997 0.339761 0.180028 75.000000
4.257991 0.327336 0.180298 74.000000
4.268943 0.315005 0.180637 67.000000
4.278862 0.302540 0.180942 73.000000
4.288744 0.290018 0.181246 75.000000
4.297593 0.277373 0.181517 77.000000
4.305406 0.264615 0.181754 73.000000
4.317173 0.252045 0.182126 76.000000
4.329901 0.239460 0.182533 77.000000
4.341594 0.226747 0.182905 66.000000
4.352252 0.213916 0.183244 71.000000
4.360874 0.200930 0.183514 87.000000
4.369458 0.187893 0.183785 74.000000
4.377004 0.174765 0.184022 79.000000
4.386508 0.161666 0.184327 72.000000
4.395974 0.148511 0.184632 79.000000
4.406398 0.135329 0.184970 73.000000
4.414785 0.122030 0.185241 74.000000
4.426129 0.108755 0.185613 87.000000
4.435434 0.095367 0.185918 67.000000
4.443701 0.081906 0.186189 82.000000
4.457922 0.068486 0.186663 71.000000
4.466105 0.054907 0.186934 72.000000
4.478246 0.041314 0.187340 82.000000
4.486346 0.027624 0.187611 73.000000
4.495405 0.013886 0.187915 72.000000
4.503421 0.000094 0.188186 88.000000
4.517393 -0.013766 0.188660 77.000000
4.525324 -0.027675 0.188931 73.000000
4.534213 -0.041641 0.189236 71.000000
4.539061 -0.055614 0.189405 61.000000
4.547862 -0.069678 0.189710 73.000000
4.554622 -0.083759 0.189947 56.000000
4.563336 -0.097926 0.190251 61.000000
4.570008 -0.112098 0.190488 54.000000
4.576636 -0.126311 0.190725 53.000000
4.585217 -0.140628 0.191030 49.000000
4.109588 0.532860 0.125537 41.000000
4.115170 0.520753 0.125624 44.000000
4.127663 0.509475 0.125862 50.000000
4.134170 0.497408 0.125970 46.000000
4.150570 0.486472 0.126295 46.000000
4.164956 0.475213 0.126576 59.000000
4.181299 0.464091 0.126901 51.000000
4.188666 0.451906 0.127031 66.000000
4.199977 0.440098 0.127247 57.000000
4.205286 0.427616 0.127334 63.000000
4.205583 0.414614 0.127312 73.000000
4.211811 0.402186 0.127420 78.000000
4.222980 0.390185 0.127637 74.000000
4.230132 0.377763 0.127766 82.000000
4.239239 0.365472 0.127939 104.000000
4.253292 0.353545 0.128221 80.000000
4.270302 0.341775 0.128567 75.000000
4.264353 0.328133 0.128416 92.000000
4.273315 0.315640 0.128589 89.000000
4.289223 0.303592 0.128913 76.000000
4.311080 0.291855 0.129368 72.000000
4.320935 0.279210 0.129562 68.000000
4.329754 0.266445 0.129736 83.000000
4.359495 0.254860 0.130363 55.000000
4.351272 0.240985 0.130168 69.000000
4.363972 0.228264 0.130428 63.000000
4.364651 0.214874 0.130428 71.000000
4.382267 0.202271 0.130796 65.000000
4.385864 0.188955 0.130861 80.000000
4.393416 0.175780 0.131012 61.000000
4.397931 0.162449 0.131099 70.000000
4.406402 0.149229 0.131272 68.000000
4.405839 0.135678 0.131250 51.000000
4.416229 0.122440 0.131467 46.000000
4.436573 0.109389 0.131900 59.000000
4.437887 0.095799 0.131921 57.000000
4.444158 0.082296 0.132051 52.000000
4.454386 0.068818 0.132268 59.000000
4.461574 0.055241 0.132419 57.000000
4.468720 0.041620 0.132571 59.000000
4.478824 0.027975 0.132787 59.000000
4.487886 0.014265 0.132982 48.000000
4.505905 0.000503 0.133371 56.000000
4.516883 -0.013351 0.133609 43.000000
4.517820 -0.027214 0.133631 53.000000
4.532712 -0.041207 0.133955 46.000000
4.539562 -0.055196 0.134107 53.000000
4.545369 -0.069213 0.134237 63.000000
4.559130 -0.083410 0.134540 57.000000
4.571846 -0.097671 0.134821 57.000000
4.580521 -0.111915 0.135016 56.000000
4.594147 -0.126348 0.135319 63.000000
4.600733 -0.140654 0.135470 55.000000
4.656332 0.515640 0.079371 22.000000
4.689707 0.504774 0.079667 67.000000
4.686260 0.489865 0.079620 82.000000
4.692716 0.475989 0.079667 95.000000
4.685197 0.460710 0.079583 109.000000
4.671657 0.444913 0.079445 102.000000
4.671008 0.430395 0.079426 134.000000
4.656370 0.414645 0.079278 103.000000
4.659614 0.400529 0.079297 119.000000
4.660820 0.386231 0.079297 136.000000
4.655005 0.371374 0.079232 127.000000
4.651138 0.356709 0.079186 122.000000
4.647224 0.342071 0.079139 134.000000
4.641270 0.327320 0.079075 139.000000
4.638261 0.312811 0.079038 132.000000
4.636205 0.298387 0.079010 122.000000
4.631110 0.283795 0.078954 120.000000
4.628964 0.269412 0.078927 106.000000
4.631766 0.255319 0.078945 80.000000
4.636522 0.241315 0.078982 98.000000
4.644231 0.227431 0.079047 126.000000
4.659891 0.213868 0.079186 89.000000
4.669517 0.199955 0.079269 113.000000
4.680100 0.186025 0.079361 107.000000
4.708628 0.172689 0.079620 74.000000
4.718131 0.158544 0.079704 59.000000
4.727591 0.144342 0.079787 46.000000
4.707597 0.508038 0.020531 64.000000
4.703166 0.492966 0.020550 73.000000
4.679786 0.475999 0.020633 127.000000
4.680229 0.461541 0.020637 96.000000
4.669677 0.446036 0.020676 135.000000
4.662063 0.430877 0.020706 113.000000
4.654398 0.415769 0.020736 127.000000
4.647682 0.400798 0.020763 119.000000
4.644903 0.386205 0.020776 125.000000
4.643076 0.371712 0.020786 155.000000
4.640206 0.357158 0.020799 140.000000
4.636294 0.342551 0.020816 140.000000
4.631338 0.327900 0.020836 132.000000
4.630327 0.313554 0.020842 125.000000
4.631267 0.299347 0.020842 119.000000
4.637154 0.285445 0.020826 137.000000
4.638008 0.271217 0.020826 126.000000
4.637820 0.256931 0.020829 136.000000
4.636589 0.242597 0.020836 106.000000
4.640308 0.228519 0.020826 110.000000
4.649977 0.214699 0.020796 113.000000
4.658607 0.200778 0.020769 100.000000
4.674189 0.187089 0.020720 81.000000
4.675740 0.172785 0.020716 97.000000
4.685243 0.158746 0.020686 84.000000
4.706697 0.145023 0.020617 65.000000
4.751103 0.131814 0.020471 24.000000
4.763712 0.514410 -0.038841 21.000000
4.690686 0.491977 -0.037663 61.000000
4.681231 0.476471 -0.037490 67.000000
4.674710 0.461322 -0.037365 89.000000
4.667145 0.446122 -0.037223 118.000000
4.661523 0.431157 -0.037113 107.000000
4.650872 0.415787 -0.036925 110.000000
4.642165 0.400657 -0.036768 106.000000
4.634404 0.385668 -0.036626 133.000000
4.630582 0.371049 -0.036548 136.000000
4.625717 0.356380 -0.036454 98.000000
4.625792 0.342113 -0.036438 128.000000
4.624824 0.327779 -0.036407 134.000000
4.622815 0.313386 -0.036359 124.000000
4.623755 0.299202 -0.036359 149.000000
4.624651 0.285015 -0.036359 155.000000
4.624506 0.270767 -0.036344 147.000000
4.626313 0.256633 -0.036359 135.000000
4.631073 0.242648 -0.036422 163.000000
4.636788 0.228684 -0.036501 144.000000
4.642463 0.214688 -0.036579 120.000000
4.648094 0.200660 -0.036658 150.000000
4.651685 0.186519 -0.036705 131.000000
4.656232 0.172394 -0.036768 117.000000
4.663734 0.158345 -0.036878 104.000000
4.668195 0.144159 -0.036941 88.000000
4.684608 0.130280 -0.037192 71.000000
4.745569 0.512146 -0.095874 35.000000
4.679516 0.490481 -0.093987 89.000000
4.666082 0.474601 -0.093571 109.000000
4.660553 0.459595 -0.093377 110.000000
4.655970 0.444723 -0.093210 110.000000
4.650345 0.429791 -0.093016 80.000000
4.645669 0.414987 -0.092850 101.000000
4.644928 0.400560 -0.092794 140.000000
4.640158 0.385809 -0.092628 121.000000
4.639327 0.371411 -0.092572 107.000000
4.635462 0.356792 -0.092434 139.000000
4.627563 0.341903 -0.092184 109.000000
4.620613 0.327138 -0.091962 128.000000
4.616608 0.312621 -0.091823 114.000000
4.615551 0.298327 -0.091768 137.000000
4.613451 0.283980 -0.091684 137.000000
4.611307 0.269649 -0.091601 133.000000
4.612112 0.255501 -0.091601 122.000000
4.615869 0.241507 -0.091684 118.000000
4.620581 0.227542 -0.091795 112.000000
4.625252 0.213551 -0.091906 105.000000
4.630879 0.199576 -0.092045 106.000000
4.637462 0.185610 -0.092212 98.000000
4.651995 0.171901 -0.092600 84.000000
4.659494 0.157867 -0.092794 91.000000
4.670946 0.143913 -0.093099 80.000000
4.687354 0.130029 -0.093543 54.000000
4.732699 0.116769 -0.094792 23.000000
4.717276 0.494763 -0.154516 38.000000
4.683979 0.476750 -0.153106 99.000000
4.673487 0.461201 -0.152622 73.000000
4.661950 0.445626 -0.152098 56.000000
4.642401 0.429390 -0.151252 71.000000
4.638721 0.414701 -0.151050 69.000000
4.625038 0.399180 -0.150445 102.000000
4.617280 0.384244 -0.150083 122.000000
4.615448 0.369837 -0.149962 118.000000
4.610584 0.355216 -0.149720 135.000000
4.609659 0.340922 -0.149639 112.000000
4.605700 0.326425 -0.149438 129.000000
4.605682 0.312226 -0.149397 146.000000
4.602631 0.297837 -0.149236 130.000000
4.603523 0.283715 -0.149236 122.000000
4.605369 0.269648 -0.149277 147.000000
4.609167 0.255684 -0.149397 127.000000
4.615917 0.241855 -0.149639 131.000000
4.630609 0.228380 -0.150204 155.000000
4.630290 0.214127 -0.150163 107.000000
4.640907 0.200350 -0.150566 128.000000
4.646492 0.186311 -0.150768 113.000000
4.657027 0.172424 -0.151171 103.000000
4.666522 0.158440 -0.151534 110.000000
4.678970 0.144491 -0.152017 113.000000
4.697371 0.130634 -0.152743 70.000000
4.767671 0.117946 -0.155564 38.000000
4.701906 0.491180 -0.210751 64.000000
4.681533 0.474531 -0.209600 78.000000
4.663091 0.458208 -0.208553 71.000000
4.648568 0.442382 -0.207716 83.000000
4.629021 0.426191 -0.206617 105.000000
4.613398 0.410478 -0.205727 100.000000
4.602695 0.395294 -0.205099 131.000000
4.600902 0.380924 -0.204942 104.000000
4.598066 0.366488 -0.204733 100.000000
4.596182 0.352150 -0.204576 110.000000
4.594253 0.337827 -0.204419 117.000000
4.593276 0.323590 -0.204314 92.000000
4.594247 0.309496 -0.204314 100.000000
4.597168 0.295528 -0.204419 121.000000
4.604033 0.281791 -0.204733 99.000000
4.610858 0.268013 -0.205047 113.000000
4.618638 0.254252 -0.205413 113.000000
4.626377 0.240446 -0.205779 108.000000
4.632080 0.226496 -0.206041 107.000000
4.636744 0.212468 -0.206250 81.000000
4.644358 0.198542 -0.206617 98.000000
4.653925 0.184651 -0.207088 80.000000
4.662454 0.170666 -0.207506 78.000000
4.672936 0.156698 -0.208030 96.000000
4.696352 0.143066 -0.209233 67.000000
4.772636 0.130755 -0.213211 39.000000
4.777008 0.116210 -0.213420 37.000000
4.669049 0.475232 -0.267112 47.000000
4.665520 0.460416 -0.266788 74.000000
4.653997 0.444866 -0.265947 83.000000
4.648384 0.429943 -0.265494 62.000000
4.634771 0.414349 -0.264524 99.000000
4.629062 0.399527 -0.264071 106.000000
4.622310 0.384662 -0.263553 109.000000
4.618495 0.370081 -0.263229 111.000000
4.612643 0.355374 -0.262776 108.000000
4.610726 0.341001 -0.262582 103.000000
4.612746 0.326924 -0.262647 100.000000
4.616714 0.312973 -0.262841 117.000000
4.620640 0.299001 -0.263035 105.000000
4.624524 0.285007 -0.263229 117.000000
4.629361 0.271051 -0.263488 104.000000
4.634157 0.257068 -0.263747 114.000000
4.641899 0.243214 -0.264200 118.000000
4.648604 0.229266 -0.264588 114.000000
4.657260 0.215372 -0.265106 107.000000
4.669863 0.201598 -0.265882 121.000000
4.684419 0.187828 -0.266788 92.000000
4.698935 0.173972 -0.267694 112.000000
4.713408 0.160028 -0.268600 93.000000
4.735821 0.146242 -0.270024 72.000000
4.743230 0.131906 -0.270477 81.000000
4.758576 0.117722 -0.271447 67.000000
4.775875 0.103489 -0.272547 52.000000
4.785151 0.089002 -0.273129 49.000000
4.702995 0.476712 -0.325510 29.000000
4.718327 0.463650 -0.326582 55.000000
4.655211 0.443016 -0.321606 108.000000
4.649599 0.428090 -0.321070 104.000000
4.646917 0.413469 -0.320764 91.000000
4.636244 0.398184 -0.319846 93.000000
4.624526 0.382886 -0.318851 105.000000
4.618722 0.368140 -0.318315 113.000000
4.618835 0.353891 -0.318238 99.000000
4.618905 0.339646 -0.318162 98.000000
4.620920 0.325544 -0.318238 91.000000
4.624881 0.311568 -0.318468 128.000000
4.624820 0.297313 -0.318391 118.000000
4.626706 0.283184 -0.318468 112.000000
4.630539 0.269162 -0.318698 102.000000
4.637316 0.255285 -0.319157 64.000000
4.647039 0.241525 -0.319846 89.000000
4.657717 0.227756 -0.320611 86.000000
4.672338 0.214108 -0.321683 124.000000
4.690903 0.200543 -0.323061 76.000000
4.705444 0.186708 -0.324132 77.000000
4.713966 0.172565 -0.324745 77.000000
4.718460 0.158236 -0.325051 83.000000
4.728889 0.144066 -0.325816 72.000000
4.734292 0.129695 -0.326199 79.000000
4.751612 0.115586 -0.327500 74.000000
4.772878 0.101458 -0.329108 59.000000
4.802076 0.087347 -0.331327 37.000000
4.799331 0.072568 -0.331098 44.000000
4.684234 0.446110 -0.381533 44.000000
4.675662 0.430824 -0.380646 80.000000
4.672000 0.416035 -0.380202 58.000000
4.660354 0.400592 -0.379049 69.000000
4.651634 0.385471 -0.378162 63.000000
4.619036 0.368508 -0.375145 109.000000
4.611207 0.353650 -0.374347 126.000000
4.615250 0.339720 -0.374613 108.000000
4.614284 0.325419 -0.374435 110.000000
4.615260 0.311262 -0.374435 106.000000
4.618181 0.297228 -0.374613 134.000000
4.625037 0.283424 -0.375145 114.000000
4.637817 0.269926 -0.376210 134.000000
4.651552 0.256408 -0.377363 91.000000
4.665248 0.242808 -0.378517 97.000000
4.679899 0.229175 -0.379759 112.000000
4.697496 0.215591 -0.381267 142.000000
4.713062 0.201816 -0.382598 93.000000
4.725603 0.187830 -0.383662 109.000000
4.734119 0.173622 -0.384372 105.000000
4.738612 0.159231 -0.384727 124.000000
4.745052 0.144874 -0.385259 92.000000
4.749457 0.130425 -0.385614 102.000000
4.754814 0.115974 -0.386058 109.000000
4.775064 0.101809 -0.387832 95.000000
4.776350 0.087177 -0.387921 105.000000
4.822407 0.073215 -0.392002 57.000000
4.808666 0.058252 -0.390760 66.000000
4.692780 0.432900 -0.441746 83.000000
4.677240 0.416995 -0.440025 65.000000
4.662639 0.401275 -0.438406 80.000000
4.652942 0.386060 -0.437292 81.000000
4.633279 0.370115 -0.435166 82.000000
4.623482 0.355058 -0.434053 95.000000
4.621573 0.340651 -0.433749 102.000000
4.625573 0.326682 -0.434053 80.000000
4.629531 0.312691 -0.434356 93.000000
4.639404 0.299065 -0.435267 88.000000
4.652215 0.285564 -0.436482 87.000000
4.663995 0.271930 -0.437596 90.000000
4.690633 0.259052 -0.440228 76.000000
4.710283 0.245649 -0.442151 79.000000
4.731881 0.232226 -0.444277 98.000000
4.747478 0.218398 -0.445795 104.000000
4.755084 0.204132 -0.446504 95.000000
4.756682 0.189582 -0.446605 102.000000
4.756247 0.174951 -0.446504 91.000000
4.759744 0.160460 -0.446808 73.000000
4.755241 0.145703 -0.446301 90.000000
4.756661 0.131141 -0.446403 96.000000
4.760024 0.116621 -0.446706 105.000000
4.773290 0.102297 -0.448022 87.000000
4.782534 0.087819 -0.448933 79.000000
4.826549 0.073826 -0.453388 42.000000
4.818794 0.058919 -0.452578 52.000000
4.685147 0.418026 -0.497117 41.000000
4.680468 0.403140 -0.496438 52.000000
4.662869 0.387217 -0.494291 88.000000
4.662055 0.372752 -0.494065 66.000000
4.648316 0.357306 -0.492369 87.000000
4.642454 0.342532 -0.491578 99.000000
4.648438 0.328638 -0.492143 105.000000
4.665286 0.315446 -0.493952 141.000000
4.650368 0.300109 -0.492143 104.000000
4.651266 0.285841 -0.492143 130.000000
4.673944 0.272842 -0.494630 105.000000
4.723371 0.261185 -0.500168 68.000000
4.755901 0.248348 -0.503785 95.000000
4.777481 0.234779 -0.506159 104.000000
4.780164 0.220212 -0.506385 96.000000
4.778831 0.205460 -0.506159 90.000000
4.774476 0.190600 -0.505594 101.000000
4.769080 0.175732 -0.504916 105.000000
4.768604 0.161067 -0.504803 105.000000
4.770069 0.146466 -0.504916 110.000000
4.772482 0.131886 -0.505142 112.000000
4.775844 0.117317 -0.505481 117.000000
4.780155 0.102749 -0.505933 107.000000
4.784421 0.088156 -0.506385 96.000000
4.789637 0.073553 -0.506950 76.000000
4.720689 0.420879 -0.560556 51.000000
4.692305 0.403835 -0.556796 91.000000
4.684623 0.388697 -0.555668 100.000000
4.683816 0.374164 -0.555417 86.000000
4.666147 0.358345 -0.553036 112.000000
4.667225 0.344028 -0.553036 105.000000
4.654403 0.328725 -0.551281 118.000000
4.652421 0.314243 -0.550905 94.000000
4.653362 0.299968 -0.550905 110.000000
4.655251 0.285751 -0.551030 88.000000
4.686809 0.273265 -0.554916 68.000000
4.802089 0.235689 -0.569204 60.000000
4.825584 0.222010 -0.572086 62.000000
4.808401 0.206434 -0.569830 97.000000
4.805046 0.191522 -0.569329 81.000000
4.790740 0.176229 -0.567449 106.000000
4.788283 0.161429 -0.567073 93.000000
4.784790 0.146616 -0.566572 89.000000
4.781250 0.131825 -0.566070 93.000000
4.782623 0.117180 -0.566196 87.000000
4.780977 0.102464 -0.565945 97.000000
4.782261 0.087814 -0.566070 84.000000
4.782507 0.073142 -0.566070 58.000000
4.760593 0.411703 -0.624680 33.000000
4.702609 0.392162 -0.616433 72.000000
4.696879 0.377178 -0.615471 74.000000
4.688138 0.362005 -0.614097 85.000000
4.674410 0.346523 -0.612035 82.000000
4.666558 0.331549 -0.610798 79.000000
4.655695 0.316426 -0.609149 113.000000
4.650713 0.301756 -0.608324 115.000000
4.652606 0.287548 -0.608462 108.000000
4.701917 0.276114 -0.615196 38.000000
4.841496 0.224720 -0.634164 57.000000
4.816433 0.208752 -0.630590 107.000000
4.815072 0.193895 -0.630315 110.000000
4.814654 0.179085 -0.630178 134.000000
4.810231 0.164145 -0.629491 127.000000
4.803782 0.149172 -0.628528 106.000000
4.796296 0.134212 -0.627429 85.000000
4.796685 0.119497 -0.627429 105.000000
4.791087 0.104651 -0.626604 130.000000
4.795347 0.090026 -0.627154 97.000000
4.798572 0.075360 -0.627566 96.000000
4.805543 0.427623 -0.689361 18.000000
4.706345 0.404222 -0.674143 89.000000
4.699680 0.389127 -0.672950 88.000000
4.692966 0.374076 -0.671756 102.000000
4.682261 0.358767 -0.669966 122.000000
4.675451 0.343818 -0.668773 123.000000
4.673524 0.329263 -0.668325 139.000000
4.670567 0.314657 -0.667728 120.000000
4.673483 0.300454 -0.668027 108.000000
4.679318 0.286417 -0.668773 94.000000
4.882689 0.223800 -0.698909 35.000000
4.842848 0.207077 -0.692792 73.000000
4.825676 0.191508 -0.690107 88.000000
4.820312 0.176484 -0.689212 112.000000
4.816878 0.161561 -0.688615 81.000000
4.820316 0.146873 -0.689062 110.000000
4.823709 0.132166 -0.689510 103.000000
4.829035 0.117488 -0.690256 101.000000
4.838270 0.102864 -0.691599 63.000000
4.841528 0.088074 -0.692046 58.000000
4.870448 0.073661 -0.696373 24.000000
4.715746 0.421581 -0.734009 42.000000
4.713085 0.406772 -0.733364 69.000000
4.709393 0.391902 -0.732559 64.000000
4.706638 0.377137 -0.731914 55.000000
4.702853 0.362317 -0.731109 80.000000
4.700005 0.347596 -0.730465 78.000000
4.704003 0.333384 -0.730948 81.000000
4.707957 0.319151 -0.731431 90.000000
4.712854 0.304960 -0.732076 86.000000
4.724603 0.291167 -0.733847 74.000000
4.842556 0.209039 -0.752373 115.000000
4.838243 0.193984 -0.751567 116.000000
4.833884 0.178957 -0.750762 135.000000
4.836383 0.164193 -0.751084 130.000000
4.839824 0.149445 -0.751567 138.000000
4.845192 0.134733 -0.752373 124.000000
4.852489 0.120038 -0.753500 139.000000
4.857768 0.105257 -0.754306 125.000000
4.862015 0.090426 -0.754950 133.000000
4.866217 0.075570 -0.755594 99.000000
4.720039 0.419994 -0.793200 34.000000
4.714437 0.404919 -0.791989 103.000000
4.712711 0.390209 -0.791470 99.000000
4.710941 0.375513 -0.790951 99.000000
4.710106 0.360908 -0.790605 90.000000
4.706281 0.346093 -0.789740 109.000000
4.706338 0.331583 -0.789568 126.000000
4.717160 0.317807 -0.791297 108.000000
4.738753 0.304666 -0.794929 87.000000
4.750479 0.290791 -0.796832 75.000000
4.762165 0.276847 -0.798734 62.000000
