ply
format ascii 1.0
element vertex 1267
property float x
property float y
property float z
property float intensity
end_header
3.004112 -0.046662 0.247792 33.000000
3.014926 -0.056078 0.248569 43.000000
3.021721 -0.065476 0.249063 25.000000
3.034469 -0.075062 0.249982 37.000000
3.046191 -0.084699 0.250829 32.000000
3.047910 -0.094105 0.250970 38.000000
3.065552 -0.104058 0.252242 34.000000
3.065218 -0.113463 0.252242 37.000000
3.069840 -0.123064 0.252595 31.000000
3.078417 -0.132865 0.253230 38.000000
3.075005 -0.142172 0.253019 41.000000
3.083522 -0.152044 0.253654 33.000000
3.095991 -0.162177 0.254572 38.000000
3.103446 -0.172113 0.255137 35.000000
3.114853 -0.182329 0.255985 30.000000
3.124236 -0.192494 0.256691 28.000000
3.130599 -0.202526 0.257186 32.000000
3.140910 -0.212868 0.257962 24.000000
3.140242 -0.222503 0.257962 42.000000
3.144519 -0.232502 0.258316 28.000000
3.146775 -0.242377 0.258527 23.000000
3.154965 -0.252743 0.259163 28.000000
3.160140 -0.262916 0.259587 22.000000
3.171245 -0.273634 0.260434 32.000000
3.179332 -0.284158 0.261070 50.000000
3.178446 -0.293911 0.261070 37.000000
3.164620 -0.302432 0.260152 13.000000
2.830438 0.438329 0.201913 9.000000
2.808081 0.426052 0.200519 16.000000
2.781725 0.413331 0.198892 35.000000
2.790884 0.405943 0.199357 21.000000
2.745662 0.390774 0.196627 41.000000
2.727073 0.379598 0.195465 42.000000
2.719321 0.370020 0.194942 39.000000
2.707579 0.359967 0.194187 34.000000
2.693820 0.349733 0.193316 35.000000
2.692900 0.341216 0.193200 34.000000
2.690961 0.332586 0.193025 37.000000
2.699898 0.325282 0.193490 51.000000
2.707824 0.317811 0.193897 50.000000
2.714738 0.310181 0.194245 47.000000
2.724607 0.302843 0.194768 54.000000
2.732471 0.295232 0.195175 53.000000
2.745278 0.288096 0.195872 47.000000
2.753101 0.280379 0.196278 56.000000
2.756929 0.272226 0.196453 51.000000
2.759739 0.263956 0.196569 59.000000
2.767494 0.256131 0.196975 36.000000
2.767272 0.247550 0.196917 46.000000
2.773987 0.239574 0.197266 58.000000
2.779683 0.231476 0.197556 41.000000
2.787346 0.223504 0.197963 51.000000
2.792996 0.215335 0.198253 42.000000
2.804595 0.207574 0.198892 48.000000
2.810197 0.199321 0.199183 46.000000
2.817768 0.191171 0.199589 52.000000
2.819337 0.182590 0.199647 46.000000
2.825862 0.174307 0.199996 40.000000
2.831367 0.165928 0.200286 49.000000
2.837844 0.157572 0.200635 39.000000
2.840307 0.148969 0.200751 40.000000
2.846734 0.140549 0.201100 45.000000
2.852138 0.132045 0.201390 36.000000
2.864498 0.123810 0.202087 50.000000
2.873842 0.115380 0.202610 39.000000
2.882164 0.106858 0.203074 48.000000
2.892455 0.098353 0.203655 38.000000
2.903720 0.089816 0.204294 50.000000
2.910967 0.081101 0.204701 39.000000
2.919186 0.072367 0.205166 49.000000
2.926381 0.063561 0.205572 46.000000
2.933549 0.054713 0.205979 59.000000
2.940691 0.045820 0.206385 48.000000
2.945809 0.036860 0.206676 55.000000
2.949901 0.027859 0.206908 51.000000
2.956961 0.018853 0.207315 48.000000
2.960000 0.009790 0.207489 37.000000
2.968002 0.000710 0.207954 49.000000
2.976975 -0.008422 0.208477 45.000000
2.975937 -0.017550 0.208418 49.000000
2.985852 -0.026770 0.208999 60.000000
2.991745 -0.036003 0.209348 57.000000
2.997610 -0.045273 0.209696 37.000000
3.006440 -0.054634 0.210219 49.000000
3.013245 -0.064006 0.210626 41.000000
3.027007 -0.073592 0.211439 46.000000
3.035748 -0.083126 0.211962 54.000000
3.047453 -0.092805 0.212659 43.000000
3.059127 -0.102557 0.213356 34.000000
3.066779 -0.112235 0.213821 46.000000
3.077393 -0.122080 0.214460 43.000000
3.084983 -0.131862 0.214924 29.000000
3.088553 -0.141510 0.215157 32.000000
3.095084 -0.151327 0.215563 33.000000
3.103578 -0.161289 0.216086 41.000000
3.118020 -0.171635 0.216957 43.000000
3.122462 -0.181490 0.217248 32.000000
3.128865 -0.191497 0.217654 35.000000
3.135237 -0.201544 0.218061 47.000000
3.145561 -0.211901 0.218700 42.000000
3.154854 -0.222254 0.219281 34.000000
3.160131 -0.232371 0.219629 35.000000
3.164380 -0.242447 0.219920 40.000000
3.166607 -0.252393 0.220094 38.000000
3.177756 -0.263097 0.220791 27.000000
3.170966 -0.272331 0.220442 31.000000
3.178071 -0.282767 0.220907 16.000000
2.818839 0.452440 0.167588 13.000000
2.821201 0.443946 0.167634 24.000000
2.818601 0.434678 0.167449 20.000000
2.816958 0.425579 0.167311 26.000000
2.796512 0.413710 0.166294 33.000000
2.775031 0.401826 0.165230 34.000000
2.751526 0.389798 0.164074 32.000000
2.726984 0.377779 0.162872 27.000000
2.712292 0.367260 0.162132 24.000000
2.698553 0.356966 0.161439 36.000000
2.684776 0.346759 0.160745 37.000000
2.690782 0.339148 0.160977 45.000000
2.696767 0.331502 0.161208 50.000000
2.699754 0.323466 0.161300 42.000000
2.707679 0.315995 0.161624 35.000000
2.715584 0.308479 0.161947 61.000000
2.719496 0.300476 0.162086 28.000000
2.728350 0.292988 0.162456 32.000000
2.731223 0.284824 0.162549 48.000000
2.734072 0.276646 0.162641 38.000000
2.740873 0.268844 0.162918 42.000000
2.749640 0.261193 0.163288 34.000000
2.753412 0.253031 0.163427 46.000000
2.760145 0.245116 0.163704 27.000000
2.763870 0.236904 0.163843 35.000000
2.774539 0.229250 0.164305 41.000000
2.785187 0.221533 0.164768 25.000000
2.791829 0.213446 0.165045 52.000000
2.796456 0.205174 0.165230 40.000000
2.805044 0.197157 0.165600 35.000000
2.810619 0.188888 0.165831 40.000000
2.813179 0.180393 0.165924 36.000000
2.823689 0.172374 0.166386 42.000000
2.830189 0.164059 0.166663 59.000000
2.836663 0.155707 0.166941 56.000000
2.843113 0.147316 0.167218 53.000000
2.846544 0.138739 0.167357 52.000000
2.857933 0.130512 0.167866 32.000000
2.865306 0.122043 0.168189 38.000000
2.865667 0.113252 0.168189 44.000000
2.880975 0.105012 0.168883 27.000000
2.881283 0.096172 0.168883 42.000000
2.892548 0.087670 0.169391 35.000000
2.905785 0.079154 0.169992 35.000000
2.909010 0.070312 0.170131 41.000000
2.915204 0.061516 0.170408 38.000000
2.924367 0.052738 0.170825 39.000000
2.933505 0.043904 0.171241 29.000000
2.942616 0.035014 0.171657 34.000000
2.945706 0.026014 0.171795 31.000000
2.951765 0.017013 0.172073 32.000000
2.961793 0.007988 0.172535 25.000000
2.970794 -0.001098 0.172951 30.000000
2.978768 -0.010237 0.173321 34.000000
2.978722 -0.019376 0.173321 31.000000
2.988638 -0.028606 0.173784 32.000000
2.992531 -0.037824 0.173968 33.000000
2.996396 -0.047066 0.174153 44.000000
2.998235 -0.056295 0.174246 38.000000
3.005040 -0.065643 0.174570 34.000000
3.019804 -0.075230 0.175263 30.000000
3.026548 -0.084687 0.175587 42.000000
3.042250 -0.094462 0.176326 33.000000
3.048934 -0.104030 0.176650 43.000000
3.065571 -0.114009 0.177436 34.000000
3.076186 -0.123851 0.177945 26.000000
3.078786 -0.133417 0.178083 39.000000
3.082354 -0.143045 0.178268 30.000000
3.084893 -0.152648 0.178407 29.000000
3.090396 -0.162424 0.178684 32.000000
3.097862 -0.172345 0.179054 40.000000
3.099313 -0.181965 0.179147 41.000000
3.106717 -0.191963 0.179517 34.000000
3.115085 -0.202072 0.179933 37.000000
3.129400 -0.212638 0.180626 29.000000
3.134712 -0.222660 0.180904 21.000000
3.142980 -0.232937 0.181320 23.000000
3.154203 -0.243497 0.181875 25.000000
3.163398 -0.253969 0.182337 27.000000
3.175546 -0.264747 0.182938 24.000000
3.184671 -0.275345 0.183400 25.000000
3.195751 -0.286179 0.183955 11.000000
2.852189 0.468105 0.133548 6.000000
2.865453 0.461257 0.133954 17.000000
2.863893 0.451996 0.133852 16.000000
2.870204 0.443971 0.134022 24.000000
2.855742 0.432770 0.133480 27.000000
2.835307 0.420782 0.132735 40.000000
2.810869 0.408349 0.131855 39.000000
2.770549 0.393822 0.130433 36.000000
2.734127 0.380096 0.129147 37.000000
2.701609 0.367135 0.127996 46.000000
2.687861 0.356874 0.127488 48.000000
2.674076 0.346700 0.126980 32.000000
2.680085 0.339121 0.127149 36.000000
2.688056 0.331753 0.127386 55.000000
2.699977 0.324817 0.127759 75.000000
2.701953 0.316648 0.127793 64.000000
2.707877 0.308923 0.127962 45.000000
2.710799 0.300834 0.128030 40.000000
2.716677 0.293051 0.128199 57.000000
2.723527 0.285339 0.128402 53.000000
2.728367 0.277386 0.128537 47.000000
2.736168 0.269699 0.128774 40.000000
2.742952 0.261872 0.128977 62.000000
2.751704 0.254190 0.129248 57.000000
2.764417 0.246812 0.129654 39.000000
2.770139 0.238758 0.129824 41.000000
2.775839 0.230671 0.129993 37.000000
2.787493 0.223029 0.130365 53.000000
2.793146 0.214859 0.130535 56.000000
2.803759 0.207023 0.130873 57.000000
2.807372 0.198632 0.130975 52.000000
2.804977 0.189816 0.130873 42.000000
2.807541 0.181338 0.130941 42.000000
2.820054 0.173458 0.131347 54.000000
2.826560 0.165155 0.131550 34.000000
2.846013 0.157529 0.132193 22.000000
2.835505 0.148224 0.131821 40.000000
2.843932 0.139916 0.132092 49.000000
2.858325 0.131833 0.132566 44.000000
2.869699 0.123535 0.132938 46.000000
2.873060 0.114849 0.133040 51.000000
2.877394 0.106181 0.133175 62.000000
2.889693 0.097757 0.133581 39.000000
2.900968 0.089228 0.133954 52.000000
2.907222 0.080492 0.134157 44.000000
2.915448 0.071768 0.134428 29.000000
2.922649 0.062973 0.134665 43.000000
2.934820 0.054226 0.135071 50.000000
2.943966 0.045360 0.135376 50.000000
2.947090 0.036364 0.135477 34.000000
2.955183 0.027395 0.135748 32.000000
2.956252 0.018335 0.135782 53.000000
2.968287 0.009301 0.136188 61.000000
2.970301 0.000195 0.136256 34.000000
2.966290 -0.008906 0.136120 46.000000
2.975243 -0.018062 0.136425 41.000000
2.978172 -0.027218 0.136527 36.000000
2.986069 -0.036453 0.136797 36.000000
2.997935 -0.045799 0.137204 34.000000
2.997780 -0.054996 0.137204 35.000000
3.010587 -0.064473 0.137644 40.000000
3.023364 -0.074028 0.138084 39.000000
3.024121 -0.083331 0.138118 47.000000
3.040834 -0.093131 0.138693 42.000000
3.049523 -0.102764 0.138998 70.000000
3.057184 -0.112414 0.139269 47.000000
3.072802 -0.122431 0.139810 39.000000
3.084394 -0.132374 0.140217 39.000000
3.089964 -0.142112 0.140420 45.000000
3.100494 -0.152132 0.140792 29.000000
3.105003 -0.161904 0.140961 34.000000
3.105489 -0.171484 0.140995 38.000000
3.110935 -0.181361 0.141198 38.000000
3.114354 -0.191149 0.141334 28.000000
3.114750 -0.200768 0.141368 46.000000
3.128080 -0.211267 0.141842 31.000000
3.138383 -0.221639 0.142214 33.000000
3.147656 -0.232002 0.142552 40.000000
3.161877 -0.242808 0.143060 40.000000
3.171079 -0.253304 0.143399 32.000000
3.178255 -0.263694 0.143670 28.000000
3.186393 -0.274215 0.143974 30.000000
3.184541 -0.283901 0.143940 22.000000
2.917752 0.469397 0.099807 9.000000
2.918191 0.460287 0.099785 17.000000
2.920578 0.451485 0.099807 16.000000
2.901192 0.439371 0.099353 15.000000
2.874837 0.426350 0.098747 18.000000
2.846451 0.413207 0.098097 22.000000
2.798217 0.397423 0.097015 23.000000
2.743972 0.381111 0.095803 23.000000
2.723335 0.369723 0.095327 35.000000
2.701662 0.358333 0.094830 25.000000
2.689860 0.348367 0.094548 22.000000
2.694884 0.340617 0.094635 32.000000
2.695916 0.332347 0.094635 27.000000
2.698908 0.324314 0.094678 32.000000
2.703862 0.316499 0.094765 44.000000
2.706807 0.308429 0.094808 53.000000
2.711715 0.300566 0.094895 43.000000
2.723558 0.293428 0.095133 38.000000
2.733394 0.286011 0.095327 37.000000
2.741221 0.278333 0.095479 35.000000
2.742062 0.269922 0.095479 45.000000
2.748848 0.262080 0.095609 38.000000
2.759595 0.254568 0.095825 35.000000
2.764346 0.246457 0.095912 25.000000
2.763097 0.237803 0.095868 54.000000
2.773776 0.230156 0.096085 50.000000
2.777459 0.221885 0.096150 40.000000
2.789092 0.214210 0.096388 60.000000
2.795718 0.206095 0.096518 49.000000
2.796337 0.197517 0.096518 45.000000
2.803912 0.189412 0.096669 40.000000
2.804480 0.180809 0.096669 40.000000
2.806020 0.172265 0.096691 45.000000
2.817513 0.164301 0.096929 49.000000
2.825990 0.156100 0.097102 33.000000
2.831447 0.147692 0.097210 31.000000
2.842871 0.139548 0.097448 41.000000
2.852274 0.131243 0.097643 36.000000
2.862652 0.122925 0.097859 40.000000
2.869009 0.114383 0.097989 38.000000
2.875341 0.105804 0.098119 41.000000
2.882646 0.097220 0.098270 47.000000
2.890925 0.088624 0.098444 37.000000
2.901177 0.080034 0.098660 43.000000
2.904408 0.071208 0.098725 43.000000
2.914608 0.062516 0.098941 31.000000
2.921783 0.053705 0.099093 28.000000
2.926932 0.044819 0.099201 31.000000
2.937052 0.035966 0.099417 27.000000
2.947146 0.027050 0.099634 37.000000
2.952214 0.018041 0.099742 21.000000
2.964252 0.009025 0.100002 38.000000
2.967266 -0.000068 0.100067 35.000000
2.969251 -0.009177 0.100110 33.000000
2.977207 -0.018333 0.100283 35.000000
2.975137 -0.027449 0.100240 41.000000
2.982037 -0.036659 0.100391 40.000000
2.989908 -0.045928 0.100564 37.000000
3.000748 -0.055299 0.100802 22.000000
3.008561 -0.064674 0.100976 28.000000
3.017344 -0.074121 0.101170 49.000000
3.021100 -0.083486 0.101257 40.000000
3.035819 -0.093209 0.101581 42.000000
3.047509 -0.102923 0.101841 35.000000
3.048178 -0.112308 0.101863 49.000000
3.059807 -0.122133 0.102122 51.000000
3.080394 -0.132414 0.102577 20.000000
3.084967 -0.142092 0.102685 41.000000
3.097498 -0.152189 0.102966 32.000000
3.100012 -0.161846 0.103031 44.000000
3.108485 -0.171850 0.103226 31.000000
3.113932 -0.181733 0.103356 39.000000
3.115355 -0.191407 0.103399 33.000000
3.121737 -0.201412 0.103551 33.000000
3.136067 -0.211994 0.103875 25.000000
3.142384 -0.222105 0.104027 31.000000
3.153652 -0.232623 0.104287 22.000000
3.162892 -0.243060 0.104503 32.000000
3.171101 -0.253476 0.104698 27.000000
3.177283 -0.263780 0.104849 22.000000
3.183432 -0.274124 0.105001 13.000000
3.231372 -0.288224 0.106061 7.000000
2.698988 0.374738 0.061240 28.000000
2.687244 0.364710 0.061120 41.000000
2.680420 0.355413 0.061046 38.000000
2.683481 0.347445 0.061065 40.000000
2.683542 0.339085 0.061055 43.000000
2.687547 0.331217 0.061083 41.000000
2.694508 0.323685 0.061139 66.000000
2.698467 0.315765 0.061166 45.000000
2.707372 0.308389 0.061240 49.000000
2.712281 0.300521 0.061277 50.000000
2.717167 0.292627 0.061314 35.000000
2.729986 0.285536 0.061425 64.000000
2.734829 0.277562 0.061462 57.000000
2.737658 0.269366 0.061481 59.000000
2.749422 0.262008 0.061583 50.000000
2.754196 0.253938 0.061620 46.000000
2.759942 0.245930 0.061666 55.000000
2.766661 0.237975 0.061721 57.000000
2.774354 0.230063 0.061786 54.000000
2.778037 0.221789 0.061814 50.000000
2.787678 0.213952 0.061897 44.000000
2.790316 0.205546 0.061916 51.000000
2.791931 0.197054 0.061925 42.000000
2.796513 0.188757 0.061962 56.000000
2.805062 0.180689 0.062036 41.000000
2.812590 0.172510 0.062101 48.000000
2.818097 0.164171 0.062147 40.000000
2.826575 0.155964 0.062221 53.000000
2.836028 0.147758 0.062304 43.000000
2.846455 0.139545 0.062397 55.000000
2.855860 0.131223 0.062480 46.000000
2.865241 0.122845 0.062563 39.000000
2.869601 0.114213 0.062600 48.000000
2.883928 0.105920 0.062730 45.000000
2.889236 0.097240 0.062776 48.000000
2.892519 0.088466 0.062804 36.000000
2.899775 0.079783 0.062868 45.000000
2.907003 0.071057 0.062933 32.000000
2.918205 0.062371 0.063035 40.000000
2.926381 0.053563 0.063109 46.000000
2.934530 0.044706 0.063183 50.000000
2.944652 0.035823 0.063275 42.000000
2.954747 0.026878 0.063368 45.000000
2.960815 0.017849 0.063423 47.000000
2.963856 0.008773 0.063451 44.000000
2.966869 -0.000320 0.063479 51.000000
2.969854 -0.009432 0.063507 54.000000
2.975810 -0.018582 0.063562 44.000000
2.979739 -0.027749 0.063599 58.000000
2.986639 -0.036979 0.063664 56.000000
2.996510 -0.046297 0.063756 36.000000
3.005352 -0.055658 0.063840 46.000000
3.011165 -0.065008 0.063895 51.000000
3.017949 -0.074419 0.063960 51.000000
3.021705 -0.083789 0.063997 31.000000
3.029430 -0.093307 0.064071 36.000000
3.036124 -0.102838 0.064136 41.000000
3.044788 -0.112486 0.064219 40.000000
3.054420 -0.122228 0.064311 41.000000
3.066019 -0.132116 0.064422 34.000000
3.076587 -0.142031 0.064524 33.000000
3.088122 -0.152060 0.064635 42.000000
3.096628 -0.162005 0.064718 50.000000
3.108098 -0.172170 0.064829 54.000000
3.111548 -0.181939 0.064866 40.000000
3.115965 -0.191792 0.064913 33.000000
3.126339 -0.202061 0.065014 37.000000
3.135681 -0.212329 0.065107 37.000000
3.143992 -0.222584 0.065190 41.000000
3.153266 -0.232967 0.065283 34.000000
3.159516 -0.243178 0.065347 57.000000
3.171713 -0.253909 0.065468 39.000000
3.178891 -0.264302 0.065542 27.000000
3.176073 -0.273882 0.065523 47.000000
3.190157 -0.284961 0.065662 14.000000
3.219139 -0.297511 0.065939 8.000000
2.678237 0.371953 0.027266 25.000000
2.678375 0.363599 0.027269 28.000000
2.677495 0.355117 0.027276 36.000000
2.681547 0.347287 0.027266 32.000000
2.685576 0.339436 0.027256 21.000000
2.691567 0.331809 0.027239 24.000000
2.695551 0.323909 0.027229 37.000000
2.700505 0.316105 0.027216 23.000000
2.708416 0.308613 0.027193 33.000000
2.714319 0.300856 0.027176 27.000000
2.718212 0.292849 0.027166 36.000000
2.729043 0.285554 0.027133 21.000000
2.725927 0.276774 0.027146 27.000000
2.735720 0.269295 0.027116 34.000000
2.745492 0.261759 0.027087 37.000000
2.752257 0.253888 0.027067 26.000000
2.759995 0.246068 0.027043 35.000000
2.767710 0.238202 0.027020 36.000000
2.775404 0.230292 0.026997 40.000000
2.785069 0.222496 0.026967 49.000000
2.792717 0.214490 0.026944 47.000000
2.807324 0.206956 0.026898 30.000000
2.806948 0.198271 0.026901 34.000000
2.811534 0.189930 0.026888 30.000000
2.819088 0.181757 0.026864 35.000000
2.826619 0.173539 0.026841 38.000000
2.832130 0.165159 0.026825 39.000000
2.834620 0.156581 0.026818 44.000000
2.842077 0.148251 0.026795 28.000000
2.848511 0.139827 0.026775 29.000000
2.855919 0.131412 0.026752 42.000000
2.865301 0.123040 0.026722 37.000000
2.867663 0.114329 0.026715 39.000000
2.872997 0.105716 0.026699 28.000000
2.883302 0.097243 0.026665 33.000000
2.892582 0.088676 0.026636 37.000000
2.899838 0.079997 0.026612 36.000000
2.909067 0.071324 0.026583 24.000000
2.920269 0.062639 0.026546 47.000000
2.926447 0.053792 0.026526 37.000000
2.933597 0.044924 0.026503 37.000000
2.937721 0.035974 0.026490 26.000000
2.937817 0.026961 0.026490 31.000000
2.939886 0.017961 0.026483 38.000000
2.941927 0.008948 0.026476 34.000000
2.948941 -0.000075 0.026453 37.000000
2.959927 -0.009152 0.026417 33.000000
2.973885 -0.018313 0.026370 24.000000
2.985814 -0.027543 0.026330 39.000000
2.995714 -0.036822 0.026297 37.000000
3.005586 -0.046162 0.026264 32.000000
3.011429 -0.055491 0.026244 32.000000
3.014244 -0.064793 0.026234 46.000000
3.013032 -0.074017 0.026238 31.000000
3.006792 -0.083097 0.026258 41.000000
3.015519 -0.092594 0.026228 39.000000
3.020218 -0.102012 0.026211 30.000000
3.027885 -0.111569 0.026185 27.000000
3.042517 -0.121450 0.026135 33.000000
3.055118 -0.131337 0.026092 46.000000
3.067688 -0.141303 0.026049 45.000000
3.087216 -0.151687 0.025982 26.000000
3.093726 -0.161521 0.025959 28.000000
3.106197 -0.171724 0.025916 36.000000
3.114640 -0.181774 0.025886 35.000000
3.119059 -0.191633 0.025870 32.000000
3.127437 -0.201778 0.025840 20.000000
3.134786 -0.211908 0.025813 33.000000
3.138111 -0.221805 0.025800 31.000000
3.150381 -0.232383 0.025757 32.000000
3.154638 -0.242428 0.025740 24.000000
3.160857 -0.252661 0.025717 21.000000
3.169037 -0.263098 0.025687 19.000000
3.166222 -0.272649 0.025694 25.000000
3.167363 -0.282538 0.025687 17.000000
2.732314 0.380327 -0.006908 36.000000
2.723560 0.370596 -0.006751 38.000000
2.726667 0.362502 -0.006783 43.000000
2.757513 0.357993 -0.007254 41.000000
2.721896 0.344886 -0.006673 44.000000
2.742788 0.338984 -0.006987 47.000000
2.740837 0.330209 -0.006940 50.000000
2.735879 0.321100 -0.006845 56.000000
2.792483 0.319053 -0.007725 41.000000
2.778542 0.308830 -0.007489 36.000000
2.769535 0.299231 -0.007332 45.000000
2.778396 0.291567 -0.007458 48.000000
2.762367 0.281322 -0.007191 50.000000
2.795058 0.275985 -0.007694 42.000000
2.821771 0.269880 -0.008102 47.000000
2.813625 0.260394 -0.007961 46.000000
2.812419 0.251583 -0.007929 44.000000
2.820151 0.243554 -0.008039 42.000000
2.820884 0.234901 -0.008039 43.000000
2.822588 0.226325 -0.008055 44.000000
2.824266 0.217742 -0.008071 41.000000
2.841873 0.210328 -0.008338 47.000000
2.854474 0.202456 -0.008526 48.000000
2.820165 0.191333 -0.007976 35.000000
2.848677 0.184486 -0.008416 37.000000
2.859210 0.176359 -0.008573 64.000000
2.865726 0.167937 -0.008667 43.000000
2.869223 0.159310 -0.008715 46.000000
2.872694 0.150663 -0.008762 45.000000
2.884128 0.142390 -0.008934 47.000000
2.883553 0.133495 -0.008919 54.000000
2.909921 0.125767 -0.009327 37.000000
2.909294 0.116799 -0.009311 43.000000
2.915634 0.108094 -0.009406 32.000000
2.925945 0.099487 -0.009563 41.000000
2.932233 0.090695 -0.009657 40.000000
2.937495 0.081837 -0.009736 45.000000
2.943729 0.072972 -0.009830 42.000000
2.944939 0.063962 -0.009845 29.000000
2.939123 0.054816 -0.009751 33.000000
2.941277 0.045829 -0.009783 35.000000
2.949403 0.036904 -0.009908 36.000000
2.945502 0.027818 -0.009845 41.000000
2.948573 0.018800 -0.009893 43.000000
2.951617 0.009764 -0.009940 37.000000
2.957632 0.000709 -0.010034 39.000000
2.971619 -0.008407 -0.010254 49.000000
2.982577 -0.017590 -0.010427 42.000000
2.990508 -0.026813 -0.010552 48.000000
2.998410 -0.036085 -0.010678 38.000000
3.005284 -0.045390 -0.010788 37.000000
3.016127 -0.054811 -0.010961 50.000000
3.018944 -0.064128 -0.011008 47.000000
3.020732 -0.073439 -0.011039 28.000000
3.022491 -0.082761 -0.011071 25.000000
3.029219 -0.092247 -0.011181 39.000000
3.039914 -0.101910 -0.011353 31.000000
3.044583 -0.111420 -0.011432 34.000000
3.053219 -0.121118 -0.011573 36.000000
3.065820 -0.131041 -0.011777 31.000000
3.070397 -0.140676 -0.011856 33.000000
3.084931 -0.150829 -0.012092 25.000000
3.088448 -0.160501 -0.012154 29.000000
3.093931 -0.170306 -0.012249 33.000000
3.099384 -0.180146 -0.012343 34.000000
3.106800 -0.190143 -0.012469 33.000000
3.119174 -0.200509 -0.012673 29.000000
3.130515 -0.210886 -0.012861 30.000000
3.135838 -0.220912 -0.012956 31.000000
3.146114 -0.231339 -0.013128 26.000000
3.157353 -0.241908 -0.013317 34.000000
3.167559 -0.252469 -0.013490 23.000000
3.170756 -0.262516 -0.013552 32.000000
3.169936 -0.272243 -0.013552 27.000000
3.175061 -0.282499 -0.013647 11.000000
3.104257 0.421602 -0.050341 17.000000
3.093646 0.410494 -0.050008 29.000000
3.088943 0.400228 -0.049842 37.000000
3.085198 0.390120 -0.049703 31.000000
3.081420 0.380040 -0.049564 45.000000
3.079594 0.370225 -0.049481 48.000000
3.075752 0.360192 -0.049342 47.000000
3.072870 0.350300 -0.049231 44.000000
3.065982 0.339986 -0.049009 51.000000
3.060054 0.329826 -0.048815 52.000000
3.053098 0.319601 -0.048593 45.000000
3.052076 0.310030 -0.048538 46.000000
3.046049 0.299976 -0.048343 48.000000
3.041980 0.290153 -0.048205 48.000000
3.042855 0.280819 -0.048205 28.000000
3.034742 0.270680 -0.047955 48.000000
3.028587 0.260765 -0.047761 56.000000
3.027380 0.251306 -0.047705 64.000000
3.024151 0.241697 -0.047594 76.000000
3.019896 0.232033 -0.047455 72.000000
3.018600 0.222619 -0.047400 64.000000
3.017274 0.213215 -0.047344 68.000000
3.017914 0.203958 -0.047344 54.000000
3.022516 0.194957 -0.047455 63.000000
3.024097 0.185744 -0.047483 62.000000
3.029642 0.176759 -0.047622 78.000000
3.035161 0.167741 -0.047761 64.000000
3.039654 0.158638 -0.047872 58.000000
3.040126 0.149312 -0.047872 61.000000
3.038573 0.139892 -0.047816 55.000000
3.040985 0.130655 -0.047872 55.000000
3.045367 0.121486 -0.047983 62.000000
3.045725 0.112142 -0.047983 38.000000
3.051050 0.102968 -0.048121 52.000000
3.050352 0.093576 -0.048094 43.000000
3.065614 0.084637 -0.048510 50.000000
3.066858 0.075256 -0.048538 49.000000
3.061078 0.065716 -0.048371 44.000000
3.065263 0.056399 -0.048482 30.000000
3.051429 0.046775 -0.048094 15.000000
3.045561 0.037338 -0.047927 11.000000
3.103866 0.422290 -0.089543 16.000000
3.101185 0.412239 -0.089382 16.000000
3.102434 0.402723 -0.089382 30.000000
3.090769 0.391572 -0.088858 32.000000
3.084022 0.381109 -0.088535 44.000000
3.076249 0.370571 -0.088172 42.000000
3.067447 0.359968 -0.087769 32.000000
3.054639 0.348969 -0.087205 42.000000
3.046757 0.338604 -0.086842 42.000000
3.044801 0.328934 -0.086721 39.000000
3.045796 0.319591 -0.086721 51.000000
3.043780 0.309941 -0.086600 49.000000
3.045711 0.300700 -0.086641 35.000000
3.043636 0.291069 -0.086520 49.000000
3.039539 0.281271 -0.086318 46.000000
3.039393 0.271855 -0.086278 49.000000
3.035235 0.262100 -0.086076 46.000000
3.030050 0.252290 -0.085835 38.000000
3.032802 0.243152 -0.085915 58.000000
3.031541 0.233693 -0.085835 63.000000
3.031247 0.224318 -0.085794 64.000000
3.034912 0.215229 -0.085915 63.000000
3.037551 0.206052 -0.085996 59.000000
3.039166 0.196796 -0.086036 49.000000
3.041751 0.187594 -0.086117 80.000000
3.046301 0.178494 -0.086278 72.000000
3.049828 0.169313 -0.086399 68.000000
3.051331 0.160008 -0.086439 71.000000
3.050809 0.150597 -0.086399 65.000000
3.048262 0.141098 -0.086278 56.000000
3.044688 0.131574 -0.086117 58.000000
3.052066 0.122512 -0.086399 64.000000
3.061414 0.113479 -0.086762 62.000000
3.063745 0.104154 -0.086842 43.000000
3.076035 0.095123 -0.087326 57.000000
3.090296 0.086074 -0.087890 44.000000
3.108525 0.077036 -0.088616 41.000000
3.115739 0.067649 -0.088898 39.000000
3.117930 0.058127 -0.088979 37.000000
3.104107 0.048345 -0.088414 20.000000
3.077265 0.038488 -0.087326 15.000000
3.047394 0.028767 -0.086117 8.000000
3.128740 0.433609 -0.128531 12.000000
3.122140 0.422933 -0.128113 16.000000
3.113523 0.412039 -0.127589 23.000000
3.105859 0.401329 -0.127118 27.000000
3.092215 0.389919 -0.126333 27.000000
3.075557 0.378230 -0.125391 45.000000
3.072737 0.368316 -0.125182 40.000000
3.055007 0.356679 -0.124188 53.000000
3.057079 0.347418 -0.124240 48.000000
3.051183 0.337267 -0.123874 54.000000
3.047239 0.327369 -0.123612 52.000000
3.046242 0.317811 -0.123507 63.000000
3.042236 0.307959 -0.123245 64.000000
3.044160 0.298722 -0.123298 52.000000
3.048044 0.289666 -0.123455 62.000000
3.042952 0.279762 -0.123141 51.000000
3.045786 0.270603 -0.123245 54.000000
3.046601 0.261257 -0.123245 53.000000
3.042413 0.251496 -0.122984 57.000000
3.039188 0.241842 -0.122774 68.000000
3.035933 0.232211 -0.122565 56.000000
3.033643 0.222675 -0.122408 37.000000
3.039293 0.213719 -0.122670 55.000000
3.035949 0.204124 -0.122460 43.000000
3.034567 0.194681 -0.122356 62.000000
3.035151 0.185370 -0.122356 57.000000
3.041687 0.176406 -0.122670 44.000000
3.042213 0.167074 -0.122670 50.000000
3.041714 0.157688 -0.122617 54.000000
3.041186 0.148306 -0.122565 59.000000
3.042625 0.139021 -0.122617 57.000000
3.047028 0.129857 -0.122827 43.000000
3.050405 0.120628 -0.122984 76.000000
3.063735 0.111747 -0.123664 55.000000
3.078036 0.102819 -0.124397 34.000000
3.084326 0.093559 -0.124711 49.000000
3.104563 0.084648 -0.125758 30.000000
3.114791 0.075368 -0.126281 45.000000
3.126989 0.066070 -0.126909 33.000000
3.117192 0.056292 -0.126386 23.000000
3.108364 0.046590 -0.125915 9.000000
3.107810 0.422826 -0.166170 20.000000
3.103158 0.412501 -0.165781 31.000000
3.092533 0.401439 -0.165005 40.000000
3.087810 0.391198 -0.164617 37.000000
3.078102 0.380378 -0.163905 41.000000
3.067365 0.369502 -0.163128 38.000000
3.061546 0.359276 -0.162676 28.000000
3.055694 0.349090 -0.162223 44.000000
3.052783 0.339273 -0.161964 56.000000
3.052818 0.329798 -0.161899 54.000000
3.046868 0.319703 -0.161446 64.000000
3.046841 0.310253 -0.161381 73.000000
3.045793 0.300708 -0.161252 49.000000
3.050675 0.291742 -0.161511 66.000000
3.049568 0.282197 -0.161381 65.000000
3.049425 0.272751 -0.161317 68.000000
3.047265 0.263137 -0.161123 56.000000
3.046069 0.253622 -0.160993 61.000000
3.044843 0.244116 -0.160864 74.000000
3.039608 0.234314 -0.160476 60.000000
3.039317 0.224914 -0.160411 46.000000
3.035016 0.215236 -0.160087 43.000000
3.031680 0.205654 -0.159828 71.000000
3.033292 0.196417 -0.159893 62.000000
3.035872 0.187232 -0.160023 58.000000
3.037429 0.177976 -0.160087 62.000000
3.038957 0.168711 -0.160152 60.000000
3.043447 0.159596 -0.160411 57.000000
3.048905 0.150503 -0.160734 50.000000
3.052343 0.141287 -0.160928 61.000000
3.058744 0.132179 -0.161317 53.000000
3.062127 0.122914 -0.161511 46.000000
3.068473 0.113740 -0.161899 31.000000
3.077783 0.104630 -0.162481 37.000000
3.086069 0.095432 -0.162999 28.000000
3.099315 0.086324 -0.163840 29.000000
3.111537 0.077110 -0.164617 44.000000
3.126724 0.067887 -0.165587 32.000000
3.139888 0.058534 -0.166429 32.000000
3.140053 0.048900 -0.166429 17.000000
3.106262 0.038847 -0.164228 6.000000
3.097202 0.429227 -0.202655 21.000000
3.117276 0.422272 -0.204110 10.000000
3.074079 0.406804 -0.200665 30.000000
3.066414 0.396217 -0.199976 36.000000
3.055745 0.385307 -0.199058 30.000000
3.052954 0.375442 -0.198751 36.000000
3.050132 0.365597 -0.198445 36.000000
3.040346 0.354962 -0.197603 47.000000
3.037458 0.345181 -0.197297 47.000000
3.034539 0.335421 -0.196991 37.000000
3.032580 0.325789 -0.196761 55.000000
3.030590 0.316172 -0.196532 47.000000
3.023610 0.306066 -0.195919 44.000000
3.024535 0.296789 -0.195919 65.000000
3.028409 0.287792 -0.196149 52.000000
3.027292 0.278316 -0.195996 70.000000
3.033097 0.269471 -0.196379 63.000000
3.030929 0.259907 -0.196149 61.000000
3.034693 0.250855 -0.196379 53.000000
3.038430 0.241782 -0.196608 57.000000
3.037170 0.232306 -0.196455 66.000000
3.040851 0.223207 -0.196685 64.000000
3.040527 0.213807 -0.196608 68.000000
3.039179 0.204343 -0.196455 51.000000
3.042776 0.195210 -0.196685 53.000000
3.051322 0.186364 -0.197297 39.000000
3.046903 0.176711 -0.196914 47.000000
3.049422 0.167472 -0.197067 67.000000
3.048926 0.158064 -0.196991 44.000000
3.053380 0.148905 -0.197297 60.000000
3.058802 0.139766 -0.197680 41.000000
3.067186 0.130724 -0.198292 48.000000
3.070561 0.121433 -0.198522 49.000000
3.079887 0.112342 -0.199211 26.000000
3.090182 0.103230 -0.199976 29.000000
3.104437 0.094177 -0.201048 50.000000
3.112684 0.084873 -0.201660 42.000000
3.149811 0.076229 -0.204492 23.000000
3.151026 0.066586 -0.204569 26.000000
3.152213 0.056937 -0.204645 12.000000
3.181284 0.047710 -0.206865 17.000000
3.181416 0.037950 -0.206865 14.000000
3.186452 0.422437 -0.248719 11.000000
3.095865 0.400778 -0.240468 28.000000
3.087198 0.390031 -0.239580 27.000000
3.060699 0.377150 -0.237096 45.000000
3.062831 0.367877 -0.237185 37.000000
3.053062 0.357207 -0.236209 41.000000
3.046227 0.346938 -0.235499 26.000000
3.046287 0.337481 -0.235411 35.000000
3.032452 0.326536 -0.234080 47.000000
3.028487 0.316713 -0.233636 38.000000
3.026471 0.307119 -0.233370 40.000000
3.027399 0.297833 -0.233370 56.000000
3.025324 0.288260 -0.233104 41.000000
3.027186 0.279069 -0.233193 52.000000
3.031996 0.270133 -0.233547 46.000000
3.035788 0.261086 -0.233814 40.000000
3.043524 0.252346 -0.234435 35.000000
3.041305 0.242770 -0.234168 42.000000
3.045015 0.233667 -0.234435 50.000000
3.053664 0.224908 -0.235144 40.000000
3.057321 0.215748 -0.235411 33.000000
3.057968 0.206367 -0.235411 35.000000
3.060575 0.197112 -0.235588 40.000000
3.065142 0.187965 -0.235943 26.000000
3.068687 0.178734 -0.236209 30.000000
3.076183 0.169702 -0.236830 35.000000
3.082657 0.160573 -0.237362 55.000000
3.101043 0.151991 -0.238959 92.000000
3.093535 0.142111 -0.238250 45.000000
3.104903 0.133088 -0.239226 30.000000
3.119231 0.124114 -0.240468 28.000000
3.119596 0.114544 -0.240468 41.000000
3.130884 0.105340 -0.241444 27.000000
3.141148 0.096037 -0.242331 32.000000
3.151385 0.086672 -0.243218 39.000000
3.163585 0.077294 -0.244283 28.000000
3.176753 0.067863 -0.245436 32.000000
3.189893 0.058351 -0.246589 28.000000
3.210972 0.048881 -0.248452 19.000000
3.223058 0.039173 -0.249517 28.000000
3.225155 0.029302 -0.249695 23.000000
3.241167 0.019502 -0.251114 12.000000
3.094135 0.400356 -0.279677 17.000000
3.066726 0.387237 -0.276741 30.000000
3.076786 0.378924 -0.277652 32.000000
3.069044 0.368412 -0.276741 56.000000
3.063244 0.358183 -0.276033 22.000000
3.041595 0.346188 -0.273704 27.000000
3.036710 0.336195 -0.273097 41.000000
3.022890 0.325275 -0.271579 46.000000
3.015958 0.315169 -0.270769 32.000000
3.015921 0.305814 -0.270668 27.000000
3.012885 0.296169 -0.270263 45.000000
3.011799 0.286735 -0.270060 37.000000
3.019598 0.278135 -0.270769 49.000000
3.024401 0.269224 -0.271174 47.000000
3.028187 0.260201 -0.271477 46.000000
3.030953 0.251074 -0.271680 39.000000
3.031710 0.241774 -0.271680 47.000000
3.039381 0.233007 -0.272388 32.000000
3.042065 0.223828 -0.272591 44.000000
3.048692 0.214916 -0.273198 40.000000
3.054300 0.205898 -0.273704 33.000000
3.067823 0.197362 -0.275020 34.000000
3.077351 0.188500 -0.275932 30.000000
3.093806 0.179988 -0.277551 25.000000
3.102290 0.170936 -0.278361 26.000000
3.112735 0.161939 -0.279373 40.000000
3.111230 0.152290 -0.279171 111.000000
3.133546 0.143755 -0.281398 32.000000
3.136954 0.134270 -0.281702 29.000000
3.142322 0.124844 -0.282208 28.000000
3.144678 0.115277 -0.282410 42.000000
3.148994 0.105764 -0.282815 35.000000
3.163225 0.096532 -0.284232 50.000000
3.165496 0.086882 -0.284435 34.000000
3.176687 0.077441 -0.285548 43.000000
3.184867 0.067867 -0.286358 40.000000
3.196996 0.058318 -0.287573 25.000000
3.213076 0.048757 -0.289193 20.000000
3.219179 0.038973 -0.289800 22.000000
3.222268 0.029125 -0.290104 19.000000
3.098258 0.391973 -0.317286 24.000000
3.093529 0.381737 -0.316608 38.000000
3.088767 0.371533 -0.315930 39.000000
3.081011 0.361015 -0.314912 30.000000
3.065321 0.349649 -0.312991 26.000000
3.055517 0.339039 -0.311748 38.000000
3.042712 0.328174 -0.310165 32.000000
3.035799 0.318010 -0.309261 33.000000
3.031818 0.308193 -0.308696 36.000000
3.028794 0.298501 -0.308244 37.000000
3.029696 0.289207 -0.308244 43.000000
3.027600 0.279637 -0.307905 33.000000
3.029433 0.270435 -0.308018 52.000000
3.027279 0.260884 -0.307679 39.000000
3.030046 0.251760 -0.307905 40.000000
3.031794 0.242542 -0.308018 51.000000
3.037478 0.233620 -0.308583 50.000000
3.041153 0.224519 -0.308922 39.000000
3.052730 0.215957 -0.310165 41.000000
3.063291 0.207260 -0.311296 33.000000
3.075811 0.198628 -0.312652 27.000000
3.084339 0.189678 -0.313556 28.000000
3.096810 0.180908 -0.314912 34.000000
3.113224 0.172283 -0.316721 46.000000
3.126637 0.163403 -0.318190 97.000000
3.138040 0.154346 -0.319434 38.000000
3.155372 0.145493 -0.321355 56.000000
3.160766 0.136025 -0.321920 49.000000
3.165140 0.126486 -0.322372 44.000000
3.166507 0.116811 -0.322486 42.000000
3.171815 0.107263 -0.323051 44.000000
3.177095 0.097684 -0.323616 40.000000
3.178373 0.087963 -0.323729 36.000000
3.186574 0.078406 -0.324633 55.000000
3.192760 0.068757 -0.325311 48.000000
3.196929 0.059035 -0.325763 45.000000
3.210011 0.049424 -0.327233 45.000000
3.221076 0.039709 -0.328476 35.000000
3.218202 0.029799 -0.328137 27.000000
3.230201 0.019998 -0.329493 13.000000
3.251112 0.010150 -0.331867 7.000000
3.090778 0.390283 -0.355385 17.000000
3.084084 0.379826 -0.354383 21.000000
3.084250 0.370243 -0.354257 26.000000
3.078474 0.359970 -0.353380 35.000000
3.065764 0.348948 -0.351625 27.000000
3.052029 0.337897 -0.349745 22.000000
3.037269 0.326828 -0.347740 35.000000
3.028390 0.316473 -0.346487 39.000000
3.024412 0.306678 -0.345860 34.000000
3.015465 0.296424 -0.344607 56.000000
3.019324 0.287454 -0.344983 43.000000
3.023155 0.278464 -0.345359 38.000000
3.022019 0.269011 -0.345108 34.000000
3.017888 0.259312 -0.344481 47.000000
3.019658 0.250134 -0.344607 34.000000
3.024367 0.241186 -0.345108 31.000000
3.030038 0.232287 -0.345735 45.000000
3.039642 0.223648 -0.346863 33.000000
3.057137 0.215514 -0.348993 32.000000
3.073622 0.207208 -0.350999 23.000000
3.098994 0.199379 -0.354132 36.000000
3.107513 0.190359 -0.355135 21.000000
3.151660 0.183376 -0.360649 53.000000
3.142302 0.173156 -0.359396 29.000000
3.160653 0.164449 -0.361652 31.000000
3.168079 0.155094 -0.362529 48.000000
3.168540 0.145374 -0.362529 53.000000
3.167979 0.135609 -0.362404 47.000000
3.166398 0.125810 -0.362153 31.000000
3.164786 0.116022 -0.361903 34.000000
3.164135 0.106278 -0.361777 27.000000
3.165438 0.096601 -0.361903 29.000000
3.166712 0.086916 -0.362028 38.000000
3.172914 0.077348 -0.362780 41.000000
3.181072 0.067785 -0.363783 44.000000
3.189200 0.058173 -0.364785 33.000000
3.210195 0.048712 -0.367417 31.000000
3.223226 0.039024 -0.369047 21.000000
3.225315 0.029154 -0.369297 26.000000
3.237294 0.019334 -0.370801 25.000000
3.072053 0.380173 -0.391162 17.000000
3.079106 0.371457 -0.391986 29.000000
3.074328 0.361316 -0.391162 33.000000
3.064597 0.350645 -0.389650 29.000000
3.064674 0.341132 -0.389512 32.000000
3.056843 0.330770 -0.388275 32.000000
3.051933 0.320770 -0.387451 30.000000
3.046005 0.310702 -0.386489 36.000000
3.038072 0.300479 -0.385252 32.000000
3.036022 0.290874 -0.384839 41.000000
3.034928 0.281376 -0.384564 38.000000
3.024924 0.271092 -0.383052 29.000000
3.022781 0.261555 -0.382640 34.000000
3.023569 0.252280 -0.382640 37.000000
3.032228 0.243636 -0.383740 39.000000
3.044812 0.235246 -0.385389 29.000000
3.056385 0.226709 -0.386901 38.000000
3.077815 0.218803 -0.389787 31.000000
3.109107 0.211439 -0.394048 35.000000
3.128521 0.203116 -0.396660 23.000000
3.157800 0.195287 -0.400645 41.000000
3.172227 0.186410 -0.402570 32.000000
3.182675 0.177226 -0.403944 45.000000
3.186171 0.167617 -0.404356 47.000000
3.190627 0.158036 -0.404906 45.000000
3.187139 0.148064 -0.404356 43.000000
3.180651 0.137985 -0.403394 28.000000
3.181060 0.128226 -0.403394 50.000000
3.179458 0.118393 -0.403119 42.000000
3.179806 0.108638 -0.403119 36.000000
3.182105 0.098943 -0.403394 46.000000
3.186354 0.089291 -0.403944 45.000000
3.187603 0.079539 -0.404082 41.000000
3.191793 0.069846 -0.404631 39.000000
3.201896 0.060238 -0.406006 28.000000
3.206027 0.050477 -0.406556 44.000000
3.217062 0.040777 -0.408067 30.000000
3.258771 0.031302 -0.413840 18.000000
3.355920 0.021927 -0.427310 11.000000
3.061326 0.366944 -0.426637 16.000000
3.060473 0.357320 -0.426339 27.000000
3.064502 0.348265 -0.426786 27.000000
3.064574 0.338752 -0.426637 23.000000
3.060683 0.328819 -0.425891 30.000000
3.058727 0.319118 -0.425443 26.000000
3.048870 0.308633 -0.423802 18.000000
3.042915 0.298599 -0.422758 34.000000
3.040863 0.288981 -0.422310 32.000000
3.035828 0.279105 -0.421415 31.000000
3.039625 0.270053 -0.421863 35.000000
3.034528 0.260217 -0.420968 38.000000
3.038268 0.251152 -0.421415 32.000000
3.044938 0.242302 -0.422310 39.000000
3.066371 0.234551 -0.425443 41.000000
3.093702 0.227107 -0.429472 27.000000
3.121015 0.219497 -0.433500 31.000000
3.145351 0.211522 -0.437080 19.000000
3.166707 0.203209 -0.440213 38.000000
3.187055 0.194706 -0.443197 31.000000
3.193560 0.185273 -0.444092 35.000000
3.197075 0.175638 -0.444540 35.000000
3.195624 0.165725 -0.444241 35.000000
3.196118 0.155921 -0.444241 36.000000
3.199544 0.146251 -0.444689 45.000000
3.199978 0.136434 -0.444689 38.000000
3.197417 0.126498 -0.444241 33.000000
3.194826 0.116578 -0.443794 38.000000
3.194180 0.106743 -0.443645 37.000000
3.194493 0.096943 -0.443645 34.000000
3.192798 0.087087 -0.443346 31.000000
3.195028 0.077340 -0.443645 39.000000
3.208101 0.067814 -0.445584 27.000000
3.209283 0.057989 -0.445733 26.000000
3.213400 0.048204 -0.446330 25.000000
3.255060 0.038855 -0.452596 15.000000
3.300647 0.029288 -0.459459 8.000000
3.104203 0.383600 -0.471759 16.000000
3.096547 0.373013 -0.470309 18.000000
3.090815 0.362707 -0.469181 29.000000
3.091913 0.353223 -0.469181 21.000000
3.077288 0.341993 -0.466604 30.000000
3.070473 0.331704 -0.465315 28.000000
3.069513 0.322076 -0.464993 34.000000
3.066559 0.312258 -0.464349 24.000000
3.063574 0.302461 -0.463704 35.000000
3.065470 0.293155 -0.463866 35.000000
3.060458 0.283204 -0.462899 43.000000
3.057380 0.273462 -0.462255 43.000000
3.051322 0.263487 -0.461127 33.000000
3.047198 0.253716 -0.460322 35.000000
3.039108 0.243657 -0.458872 50.000000
3.073298 0.236907 -0.464349 41.000000
3.137988 0.232203 -0.474819 21.000000
3.173142 0.225014 -0.480458 21.000000
3.192526 0.216545 -0.483518 20.000000
3.217798 0.208340 -0.487545 40.000000
3.227288 0.199013 -0.488995 49.000000
3.226898 0.189053 -0.488834 45.000000
3.220564 0.178770 -0.487706 50.000000
3.214199 0.168528 -0.486579 44.000000
3.208786 0.158375 -0.485612 45.000000
3.212214 0.148666 -0.486096 51.000000
3.214628 0.138896 -0.486418 49.000000
3.217011 0.129112 -0.486740 49.000000
3.217392 0.119241 -0.486740 50.000000
3.218729 0.109403 -0.486901 52.000000
3.219049 0.099528 -0.486901 42.000000
3.217367 0.089597 -0.486579 42.000000
3.219599 0.079774 -0.486901 43.000000
3.219829 0.069896 -0.486901 39.000000
3.222989 0.060073 -0.487384 40.000000
3.222171 0.050169 -0.487223 35.000000
3.215402 0.040198 -0.486096 23.000000
3.140506 0.029634 -0.473853 5.000000
3.110005 0.372797 -0.511101 11.000000
3.092547 0.361077 -0.507815 19.000000
3.089726 0.351141 -0.507123 18.000000
3.080021 0.340466 -0.505220 31.000000
3.067342 0.329537 -0.502799 22.000000
3.063440 0.319612 -0.501934 31.000000
3.059507 0.309714 -0.501069 30.000000
3.056522 0.299940 -0.500377 26.000000
3.056447 0.290468 -0.500204 33.000000
3.059286 0.281270 -0.500550 29.000000
3.053267 0.271270 -0.499340 38.000000
3.055066 0.261986 -0.499513 25.000000
3.049966 0.252123 -0.498475 35.000000
3.055634 0.243157 -0.499340 23.000000
3.071096 0.234914 -0.501934 25.000000
3.090466 0.226868 -0.505220 19.000000
3.230647 0.197385 -0.529435 27.000000
3.243037 0.188161 -0.531510 18.000000
3.225897 0.177232 -0.528397 29.000000
3.221508 0.167077 -0.527532 39.000000
3.220037 0.157096 -0.527186 36.000000
3.220504 0.147217 -0.527186 39.000000
3.219957 0.137293 -0.527013 41.000000
3.220363 0.127414 -0.527013 35.000000
3.214833 0.117316 -0.525976 27.000000
3.217147 0.107519 -0.526322 44.000000
3.217461 0.097648 -0.526322 33.000000
3.213807 0.087668 -0.525630 33.000000
3.218000 0.077904 -0.526322 35.000000
3.221178 0.068095 -0.526840 33.000000
3.222356 0.058230 -0.527013 38.000000
3.211687 0.048177 -0.525111 26.000000
3.165531 0.037755 -0.516982 10.000000
3.089728 0.371104 -0.544924 12.000000
3.079137 0.360254 -0.542710 16.000000
3.081204 0.350917 -0.542894 22.000000
3.085197 0.341787 -0.543448 33.000000
3.075482 0.331164 -0.541419 39.000000
3.078439 0.321931 -0.541788 27.000000
3.073545 0.311890 -0.540681 14.000000
3.074487 0.302459 -0.540681 29.000000
3.072466 0.292746 -0.540128 29.000000
3.068456 0.282868 -0.539205 29.000000
3.062456 0.272843 -0.537914 30.000000
3.062300 0.263362 -0.537730 30.000000
3.055257 0.253317 -0.536254 33.000000
3.050142 0.243474 -0.535147 35.000000
3.051854 0.234191 -0.535331 25.000000
3.129014 0.230448 -0.549720 8.000000
3.251288 0.199357 -0.572225 33.000000
3.247960 0.189153 -0.571487 35.000000
3.243618 0.178917 -0.570564 50.000000
3.238263 0.168659 -0.569458 44.000000
3.226985 0.158147 -0.567244 44.000000
3.225492 0.148157 -0.566875 48.000000
3.222003 0.138092 -0.566137 51.000000
3.219465 0.128090 -0.565584 41.000000
3.222790 0.118320 -0.566137 42.000000
3.228049 0.108597 -0.567060 30.000000
3.228367 0.098693 -0.567060 52.000000
3.232584 0.088895 -0.567797 49.000000
3.237755 0.079097 -0.568720 46.000000
3.240930 0.069226 -0.569273 39.000000
3.253902 0.059514 -0.571671 27.000000
3.259965 0.049620 -0.572778 26.000000
3.348551 0.040683 -0.589380 10.000000
3.073952 0.368462 -0.579862 13.000000
3.061434 0.357432 -0.577117 12.000000
3.076155 0.349593 -0.579862 24.000000
3.080137 0.340479 -0.580451 22.000000
3.075318 0.330397 -0.579274 24.000000
3.076317 0.320960 -0.579274 29.000000
3.078263 0.311620 -0.579470 29.000000
3.076277 0.301886 -0.578882 30.000000
3.076212 0.292353 -0.578686 35.000000
3.074165 0.282644 -0.578097 51.000000
3.075018 0.273211 -0.578097 33.000000
3.073888 0.263608 -0.577705 27.000000
3.062956 0.253202 -0.575352 20.000000
3.067628 0.244116 -0.576136 33.000000
3.119202 0.238612 -0.586334 9.000000
3.256935 0.209032 -0.613399 33.000000
3.282029 0.200542 -0.618301 18.000000
3.269903 0.189729 -0.615752 30.000000
3.258721 0.179047 -0.613399 35.000000
3.255338 0.168844 -0.612614 33.000000
3.246047 0.158375 -0.610653 43.000000
3.240640 0.148144 -0.609476 30.000000
3.236181 0.137991 -0.608496 44.000000
3.232670 0.127905 -0.607711 31.000000
3.235007 0.118059 -0.608103 43.000000
3.241234 0.108332 -0.609280 37.000000
3.238611 0.098298 -0.608692 40.000000
3.244778 0.088524 -0.609868 51.000000
3.271502 0.079219 -0.615164 89.000000
3.277612 0.069308 -0.616340 24.000000
3.305260 0.059758 -0.621832 16.000000
3.146700 0.388846 -0.633825 12.000000
3.166330 0.381411 -0.637772 13.000000
3.100450 0.363836 -0.623438 34.000000
3.094748 0.353546 -0.621984 26.000000
3.083180 0.342647 -0.619283 31.000000
3.074491 0.332137 -0.617206 27.000000
3.074523 0.322601 -0.616998 24.000000
3.076471 0.313266 -0.617206 37.000000
3.080338 0.304114 -0.617829 29.000000
3.088073 0.295313 -0.619283 43.000000
3.095782 0.286468 -0.620737 41.000000
3.103467 0.277578 -0.622191 31.000000
3.102355 0.267887 -0.621776 38.000000
3.119734 0.259746 -0.625308 21.000000
3.108816 0.249237 -0.622815 7.000000
3.298717 0.213570 -0.662493 24.000000
3.282759 0.202427 -0.658962 33.000000
3.298012 0.193211 -0.662078 23.000000
3.271242 0.181577 -0.656261 35.000000
3.261039 0.170978 -0.653976 51.000000
3.256663 0.160732 -0.652937 53.000000
3.251278 0.150470 -0.651691 54.000000
3.245861 0.140242 -0.650444 61.000000
3.248230 0.130361 -0.650860 56.000000
3.249593 0.120431 -0.651067 50.000000
3.258745 0.110759 -0.652937 33.000000
3.258092 0.100730 -0.652729 37.000000
3.265230 0.090924 -0.654184 38.000000
3.266472 0.080930 -0.654391 56.000000
3.283330 0.071267 -0.657923 34.000000
3.122500 0.383471 -0.666944 19.000000
3.112038 0.372493 -0.664314 16.000000
3.101537 0.361584 -0.661684 20.000000
3.080335 0.349528 -0.656643 17.000000
3.071695 0.339002 -0.654452 14.000000
3.065930 0.328846 -0.652918 28.000000
3.067895 0.319540 -0.653137 30.000000
3.071773 0.310421 -0.653794 23.000000
3.080479 0.301760 -0.655548 28.000000
3.096931 0.293788 -0.659054 21.000000
3.114334 0.285807 -0.662780 24.000000
3.127830 0.277376 -0.665629 31.000000
3.142276 0.268949 -0.668697 20.000000
3.156699 0.260435 -0.671766 15.000000
3.299220 0.211185 -0.702887 25.000000
3.287192 0.200287 -0.700038 35.000000
3.281947 0.189861 -0.698723 47.000000
3.277643 0.179522 -0.697627 44.000000
3.269409 0.169009 -0.695655 44.000000
3.267963 0.158883 -0.695216 53.000000
3.265511 0.148722 -0.694559 47.000000
3.262053 0.138536 -0.693682 41.000000
3.263437 0.128566 -0.693901 31.000000
3.288192 0.119447 -0.699381 21.000000
3.280742 0.109097 -0.697627 27.000000
3.289839 0.099299 -0.699600 27.000000
3.296955 0.089393 -0.701134 26.000000
3.305992 0.079492 -0.703106 21.000000
3.107954 0.384063 -0.702659 11.000000
3.098491 0.373247 -0.700121 18.000000
3.095756 0.363286 -0.699198 31.000000
3.089122 0.352904 -0.697352 21.000000
3.079552 0.342244 -0.694815 23.000000
3.084457 0.333212 -0.695737 20.000000
3.085465 0.323748 -0.695737 29.000000
3.088380 0.314477 -0.696199 27.000000
3.091267 0.305192 -0.696660 26.000000
3.097031 0.296169 -0.697814 26.000000
3.101801 0.287024 -0.698737 43.000000
3.118173 0.278892 -0.702429 34.000000
3.128709 0.270160 -0.704736 25.000000
3.129523 0.260560 -0.704736 31.000000
3.176863 0.254684 -0.715811 8.000000
3.299828 0.213642 -0.744191 18.000000
3.288814 0.202800 -0.741422 39.000000
3.279707 0.192141 -0.739114 50.000000
3.289025 0.182562 -0.741191 41.000000
3.284711 0.172217 -0.740037 60.000000
3.285224 0.162139 -0.740037 46.000000
3.290566 0.152283 -0.741191 61.000000
3.291018 0.142187 -0.741191 57.000000
3.293383 0.132168 -0.741652 56.000000
3.294745 0.122099 -0.741883 46.000000
3.293159 0.111924 -0.741422 40.000000
3.293487 0.101821 -0.741422 36.000000
3.307401 0.092093 -0.744652 22.000000
3.105131 0.381878 -0.740496 19.000000
3.098581 0.371423 -0.738559 24.000000
3.092961 0.361125 -0.736864 21.000000
3.084414 0.350535 -0.734443 31.000000
3.077760 0.340215 -0.732507 25.000000
3.075895 0.330459 -0.731780 20.000000
3.077860 0.321122 -0.732022 26.000000
3.073039 0.311089 -0.730570 20.000000
3.075910 0.301850 -0.731054 21.000000
3.088412 0.293517 -0.733959 32.000000
3.095094 0.284576 -0.735412 30.000000
3.110449 0.276373 -0.739043 32.000000
3.123849 0.267911 -0.742190 32.000000
3.135293 0.259209 -0.744853 34.000000
3.146712 0.250440 -0.747516 23.000000
3.281864 0.210641 -0.780441 24.000000
3.284431 0.200690 -0.780925 40.000000
3.283095 0.190500 -0.780441 37.000000
3.285601 0.180533 -0.780925 38.000000
3.278388 0.170048 -0.778988 32.000000
