ply
format ascii 1.0
element vertex 1287
property float x
property float y
property float z
property float intensity
end_header
2.297632 0.106847 0.506329 46.000000
2.300885 0.099925 0.506934 50.000000
2.296287 0.092669 0.505926 65.000000
2.292645 0.085478 0.505119 49.000000
2.294854 0.078510 0.505522 43.000000
2.293127 0.071409 0.505119 51.000000
2.295293 0.064428 0.505522 45.000000
2.299397 0.057483 0.506329 46.000000
2.298583 0.050407 0.506127 58.000000
2.302644 0.043428 0.506934 58.000000
2.302766 0.036363 0.506934 52.000000
2.304826 0.029323 0.507337 58.000000
2.306864 0.022270 0.507740 51.000000
2.301044 0.015155 0.506530 69.000000
2.304998 0.008109 0.507337 46.000000
2.298156 0.001035 0.505926 60.000000
2.303046 -0.006029 0.506934 57.000000
2.304975 -0.013106 0.507337 57.000000
2.307862 -0.020204 0.507942 55.000000
2.308769 -0.027296 0.508143 47.000000
2.310633 -0.034409 0.508546 47.000000
2.311496 -0.041515 0.508748 59.000000
2.317233 -0.048731 0.509957 58.000000
2.317073 -0.055840 0.509957 44.000000
2.316890 -0.062948 0.509957 58.000000
2.317666 -0.070086 0.510159 47.000000
2.314503 -0.077098 0.509554 47.000000
2.310340 -0.084055 0.508748 43.000000
2.310071 -0.091143 0.508748 47.000000
2.306845 -0.098104 0.508143 39.000000
2.298706 -0.104823 0.506530 55.000000
2.341419 -0.113977 0.515400 10.000000
2.311336 -0.126728 0.509353 8.000000
2.199942 0.711494 0.481718 42.000000
2.206789 0.706240 0.482670 52.000000
2.208945 0.699466 0.482670 45.000000
2.210144 0.692392 0.482480 54.000000
2.210382 0.685026 0.482099 50.000000
2.208720 0.677088 0.481337 57.000000
2.208908 0.669738 0.480956 51.000000
2.210953 0.662958 0.480956 54.000000
2.211094 0.655613 0.480575 47.000000
2.212153 0.648550 0.480384 64.000000
2.214133 0.641760 0.480384 53.000000
2.217978 0.635506 0.480765 51.000000
2.220862 0.628966 0.480956 51.000000
2.218055 0.620824 0.480004 52.000000
2.215219 0.612706 0.479051 69.000000
2.214248 0.605129 0.478480 62.000000
2.215146 0.598076 0.478289 65.000000
2.219816 0.592038 0.478861 43.000000
2.220673 0.584974 0.478670 57.000000
2.221507 0.577911 0.478480 60.000000
2.224220 0.571337 0.478670 72.000000
2.230720 0.565720 0.479623 56.000000
2.229588 0.558157 0.479051 63.000000
2.232243 0.551550 0.479242 62.000000
2.233925 0.544699 0.479242 66.000000
2.232722 0.537152 0.478670 68.000000
2.230540 0.529391 0.477908 56.000000
2.233109 0.522770 0.478099 46.000000
2.228964 0.514588 0.476956 55.000000
2.232446 0.508184 0.477337 70.000000
2.235910 0.501764 0.477718 59.000000
2.236481 0.494689 0.477527 70.000000
2.237988 0.487826 0.477527 61.000000
2.239474 0.480957 0.477527 54.000000
2.233257 0.472455 0.476004 59.000000
2.233734 0.465400 0.475813 65.000000
2.232267 0.457952 0.475242 59.000000
2.232699 0.450906 0.475051 73.000000
2.233109 0.443863 0.474861 58.000000
2.239277 0.437954 0.475813 61.000000
2.241574 0.431268 0.476004 63.000000
2.247710 0.425304 0.476956 58.000000
2.251899 0.418946 0.477527 55.000000
2.253173 0.412035 0.477527 52.000000
2.248630 0.404076 0.476385 81.000000
2.249859 0.397175 0.476385 61.000000
2.248166 0.389767 0.475813 78.000000
2.243545 0.381876 0.474670 81.000000
2.246642 0.375316 0.475051 71.000000
2.248752 0.368581 0.475242 59.000000
2.251810 0.361992 0.475623 65.000000
2.252910 0.355082 0.475623 67.000000
2.251079 0.347718 0.475051 64.000000
2.256017 0.341399 0.475813 70.000000
2.262880 0.335343 0.476956 63.000000
2.258070 0.327550 0.475813 79.000000
2.259064 0.320621 0.475813 75.000000
2.255175 0.313012 0.474861 74.000000
2.259043 0.306489 0.475432 66.000000
2.265811 0.300334 0.476575 68.000000
2.264775 0.293128 0.476194 79.000000
2.259820 0.285437 0.475051 87.000000
2.262634 0.278744 0.475432 72.000000
2.261529 0.271566 0.475051 48.000000
2.266252 0.265084 0.475813 51.000000
2.264128 0.257796 0.475242 67.000000
2.262957 0.250631 0.474861 54.000000
2.265667 0.243898 0.475242 68.000000
2.270311 0.237357 0.476004 50.000000
2.271028 0.230390 0.476004 48.000000
2.270747 0.223325 0.475813 58.000000
2.275331 0.216732 0.476575 53.000000
2.282827 0.210384 0.477908 53.000000
2.283462 0.203380 0.477908 51.000000
2.283097 0.196289 0.477718 49.000000
2.288580 0.189691 0.478670 63.000000
2.289151 0.182669 0.478670 57.000000
2.291658 0.175796 0.479051 57.000000
2.288271 0.168475 0.478289 48.000000
2.284860 0.161175 0.477527 56.000000
2.278488 0.153698 0.476194 57.000000
2.280908 0.146835 0.476575 50.000000
2.280368 0.139776 0.476385 63.000000
2.278826 0.132664 0.476004 65.000000
2.281183 0.125781 0.476385 40.000000
2.281558 0.118782 0.476385 42.000000
2.286814 0.112024 0.477337 41.000000
2.294011 0.105326 0.478670 42.000000
2.301189 0.098586 0.480004 41.000000
2.301481 0.091525 0.480004 55.000000
2.299789 0.084391 0.479623 48.000000
2.302980 0.077435 0.480194 46.000000
2.303207 0.070370 0.480194 72.000000
2.303412 0.063303 0.480194 46.000000
2.301633 0.056187 0.479813 53.000000
2.298850 0.049061 0.479242 48.000000
2.298989 0.042008 0.479242 61.000000
2.300089 0.034970 0.479432 66.000000
2.301167 0.027926 0.479623 45.000000
2.301242 0.020866 0.479623 57.000000
2.297368 0.013780 0.478861 47.000000
2.300345 0.006742 0.479432 50.000000
2.302318 -0.000315 0.479813 35.000000
2.303288 -0.007381 0.480004 36.000000
2.312090 -0.014498 0.481718 33.000000
2.313998 -0.021609 0.482099 49.000000
2.314902 -0.028720 0.482289 36.000000
2.310877 -0.035763 0.481527 52.000000
2.312719 -0.042888 0.481908 47.000000
2.316503 -0.050066 0.482670 39.000000
2.315356 -0.057149 0.482480 44.000000
2.314189 -0.064225 0.482289 47.000000
2.315944 -0.071384 0.482670 37.000000
2.315714 -0.078489 0.482670 44.000000
2.317424 -0.085665 0.483051 36.000000
2.316170 -0.092735 0.482861 52.000000
2.309989 -0.099590 0.481718 54.000000
2.325363 -0.107393 0.484765 32.000000
2.374049 -0.116917 0.494288 10.000000
2.209189 0.715908 0.454925 52.000000
2.208564 0.708226 0.454389 49.000000
2.212602 0.702042 0.454746 65.000000
2.214746 0.695250 0.454746 48.000000
2.220627 0.689619 0.455460 56.000000
2.221792 0.682514 0.455282 50.000000
2.224817 0.675981 0.455460 54.000000
2.226880 0.669152 0.455460 48.000000
2.228922 0.662317 0.455460 69.000000
2.226223 0.654089 0.454567 67.000000
2.227275 0.646982 0.454389 60.000000
2.228304 0.639874 0.454210 72.000000
2.225523 0.631692 0.453317 90.000000
2.226503 0.624596 0.453138 66.000000
2.226513 0.617237 0.452781 72.000000
2.225549 0.609624 0.452245 59.000000
2.227409 0.602793 0.452245 84.000000
2.230198 0.596210 0.452424 79.000000
2.231066 0.589114 0.452245 72.000000
2.231910 0.582019 0.452066 72.000000
2.235591 0.575659 0.452424 61.000000
2.240208 0.569524 0.452960 69.000000
2.246716 0.563846 0.453853 55.000000
2.251301 0.557659 0.454389 73.000000
2.255868 0.551450 0.454925 48.000000
2.253724 0.543605 0.454210 58.000000
2.253466 0.536233 0.453853 72.000000
2.249353 0.527968 0.452781 69.000000
2.246169 0.519956 0.451888 68.000000
2.241998 0.511750 0.450816 67.000000
2.239718 0.504006 0.450102 81.000000
2.242214 0.497345 0.450280 61.000000
2.241807 0.490044 0.449923 72.000000
2.247148 0.483992 0.450637 66.000000
2.246697 0.476687 0.450280 77.000000
2.250075 0.470194 0.450637 85.000000
2.251507 0.463289 0.450637 100.000000
2.253882 0.456574 0.450816 92.000000
2.257202 0.450042 0.451173 62.000000
2.252779 0.441979 0.450102 100.000000
2.257989 0.435811 0.450816 80.000000
2.260282 0.429065 0.450995 88.000000
2.256751 0.421226 0.450102 114.000000
2.261904 0.415010 0.450816 96.000000
2.263167 0.408069 0.450816 116.000000
2.266346 0.401467 0.451173 109.000000
2.270475 0.395017 0.451709 87.000000
2.266827 0.387222 0.450816 118.000000
2.269945 0.380591 0.451173 117.000000
2.271102 0.373625 0.451173 139.000000
2.269323 0.366186 0.450637 191.000000
2.270436 0.359222 0.450637 174.000000
2.272500 0.352405 0.450816 198.000000
2.278434 0.346170 0.451709 223.000000
2.285325 0.340046 0.452781 280.000000
2.285383 0.332891 0.452602 329.000000
2.286394 0.325878 0.452602 237.000000
2.283485 0.318320 0.451888 214.000000
2.280551 0.310782 0.451173 153.000000
2.273691 0.302746 0.449744 136.000000
2.282415 0.296783 0.451173 275.000000
2.278434 0.289160 0.450280 273.000000
2.282240 0.282531 0.450816 217.000000
2.283096 0.275528 0.450816 230.000000
2.282954 0.268407 0.450637 190.000000
2.284744 0.261514 0.450816 205.000000
2.278691 0.253742 0.449566 148.000000
2.283371 0.247173 0.450280 117.000000
2.283140 0.240064 0.450102 130.000000
2.284845 0.233158 0.450280 105.000000
2.287508 0.226340 0.450637 86.000000
2.293088 0.219790 0.451531 74.000000
2.293752 0.212754 0.451531 75.000000
2.294394 0.205715 0.451531 87.000000
2.295994 0.198760 0.451709 62.000000
2.296593 0.191715 0.451709 66.000000
2.296190 0.184590 0.451531 87.000000
2.299688 0.177771 0.452066 91.000000
2.301204 0.170788 0.452245 69.000000
2.299754 0.163588 0.451888 67.000000
2.296319 0.156265 0.451173 74.000000
2.293842 0.149028 0.450637 74.000000
2.292324 0.141869 0.450280 71.000000
2.291766 0.134778 0.450102 61.000000
2.289222 0.127582 0.449566 65.000000
2.291568 0.120662 0.449923 76.000000
2.293893 0.113728 0.450280 75.000000
2.298162 0.106872 0.450995 80.000000
2.301428 0.099948 0.451531 82.000000
2.302707 0.092927 0.451709 67.000000
2.302981 0.085862 0.451709 72.000000
2.303234 0.078796 0.451709 56.000000
2.303465 0.071729 0.451709 69.000000
2.300724 0.064580 0.451173 53.000000
2.304845 0.057618 0.451888 63.000000
2.310913 0.050675 0.452960 76.000000
2.313025 0.043622 0.453317 76.000000
2.320035 0.036633 0.454567 70.000000
2.322104 0.029540 0.454925 59.000000
2.324152 0.022434 0.455282 70.000000
2.328145 0.015329 0.455996 62.000000
2.324245 0.008173 0.455282 59.000000
2.321308 0.001042 0.454746 63.000000
2.315396 -0.006063 0.453674 73.000000
2.314383 -0.013161 0.453496 70.000000
2.316300 -0.020279 0.453853 52.000000
2.315243 -0.027374 0.453674 67.000000
2.317115 -0.034506 0.454031 63.000000
2.321918 -0.041704 0.454925 59.000000
2.317844 -0.048744 0.454210 72.000000
2.321618 -0.055950 0.454925 80.000000
2.325369 -0.063180 0.455639 51.000000
2.325165 -0.070314 0.455639 43.000000
2.325921 -0.077480 0.455818 62.000000
2.326656 -0.084651 0.455996 47.000000
2.326385 -0.091789 0.455996 39.000000
2.330025 -0.099094 0.456711 42.000000
2.331676 -0.106332 0.457068 40.000000
2.340183 -0.113917 0.458676 13.000000
2.344736 -0.121351 0.459569 8.000000
2.208513 0.714271 0.426520 36.000000
2.215389 0.708997 0.427355 45.000000
2.221313 0.703389 0.428023 40.000000
2.226282 0.697457 0.428523 63.000000
2.230295 0.691208 0.428857 60.000000
2.227693 0.682915 0.428023 54.000000
2.228834 0.675791 0.427856 56.000000
2.227119 0.667815 0.427188 63.000000
2.226322 0.660137 0.426687 62.000000
2.219823 0.650803 0.425185 73.000000
2.218022 0.642889 0.424517 70.000000
2.219984 0.636082 0.424517 57.000000
2.222873 0.629537 0.424684 65.000000
2.223845 0.622448 0.424517 50.000000
2.225744 0.615623 0.424517 62.000000
2.230475 0.609572 0.425018 63.000000
2.234238 0.603241 0.425351 59.000000
2.237031 0.596639 0.425518 71.000000
2.242664 0.590779 0.426186 60.000000
2.237788 0.582155 0.425018 69.000000
2.241473 0.575779 0.425351 54.000000
2.241318 0.568413 0.425018 58.000000
2.240182 0.560815 0.424517 76.000000
2.244763 0.554650 0.425018 66.000000
2.243581 0.547059 0.424517 62.000000
2.243332 0.539711 0.424183 65.000000
2.249773 0.533966 0.425018 67.000000
2.249481 0.526611 0.424684 70.000000
2.250125 0.519485 0.424517 54.000000
2.250747 0.512360 0.424350 66.000000
2.248461 0.504587 0.423682 87.000000
2.250961 0.497900 0.423849 67.000000
2.251514 0.490781 0.423682 88.000000
2.251082 0.483456 0.423348 93.000000
2.251590 0.476343 0.423181 75.000000
2.253041 0.469433 0.423181 69.000000
2.253505 0.462320 0.423014 67.000000
2.254912 0.455404 0.423014 68.000000
2.246629 0.446557 0.421345 102.000000
2.251859 0.440421 0.422013 67.000000
2.249327 0.432764 0.421345 74.000000
2.247738 0.425309 0.420844 88.000000
2.250002 0.418592 0.421011 118.000000
2.251275 0.411687 0.421011 108.000000
2.258350 0.405828 0.422013 115.000000
2.262497 0.399413 0.422513 124.000000
2.265654 0.392808 0.422847 109.000000
2.267821 0.386021 0.423014 105.000000
2.268994 0.379062 0.423014 118.000000
2.270147 0.372099 0.423014 115.000000
2.274198 0.365603 0.423515 147.000000
2.275309 0.358624 0.423515 144.000000
2.274449 0.351340 0.423181 138.000000
2.274542 0.344212 0.423014 155.000000
2.277538 0.337523 0.423348 155.000000
2.273684 0.329823 0.422513 127.000000
2.273709 0.322707 0.422347 122.000000
2.275665 0.315866 0.422513 133.000000
2.280531 0.309415 0.423181 144.000000
2.283424 0.302677 0.423515 127.000000
2.284342 0.295671 0.423515 126.000000
2.279370 0.287917 0.422513 100.000000
2.282199 0.281164 0.422847 126.000000
2.283051 0.274161 0.422847 96.000000
2.278986 0.266580 0.422013 79.000000
2.282731 0.259923 0.422513 73.000000
2.286458 0.253246 0.423014 85.000000
2.285264 0.246018 0.422680 96.000000
2.288949 0.239315 0.423181 78.000000
2.286730 0.231991 0.422680 83.000000
2.289393 0.225169 0.423014 71.000000
2.290073 0.218144 0.423014 68.000000
2.289750 0.211026 0.422847 67.000000
2.288423 0.203824 0.422513 69.000000
2.290019 0.196887 0.422680 67.000000
2.292578 0.190025 0.423014 67.000000
2.290202 0.182753 0.422513 49.000000
2.293701 0.175954 0.423014 54.000000
2.294230 0.168916 0.423014 64.000000
2.295721 0.161947 0.423181 55.000000
2.293256 0.154702 0.422680 61.000000
2.293720 0.147666 0.422680 75.000000
2.297114 0.140811 0.423181 70.000000
2.302456 0.134052 0.424016 61.000000
2.299903 0.126823 0.423515 65.000000
2.301266 0.119818 0.423682 60.000000
2.299654 0.112660 0.423348 62.000000
2.300973 0.105650 0.423515 56.000000
2.300302 0.098547 0.423348 65.000000
2.301578 0.091529 0.423515 66.000000
2.298892 0.084358 0.423014 57.000000
2.302097 0.077405 0.423515 66.000000
2.302323 0.070342 0.423515 53.000000
2.302528 0.063278 0.423515 62.000000
2.308626 0.056361 0.424517 53.000000
2.315688 0.049429 0.425685 57.000000
2.320757 0.042417 0.426520 54.000000
2.320877 0.035297 0.426520 55.000000
2.323931 0.028214 0.427021 51.000000
2.323021 0.021074 0.426854 54.000000
2.327019 0.013973 0.427522 54.000000
2.321135 0.006813 0.426520 55.000000
2.317201 -0.000309 0.425852 64.000000
2.311274 -0.007402 0.424851 62.000000
2.315184 -0.014516 0.425518 65.000000
2.315128 -0.021619 0.425518 53.000000
2.315051 -0.028721 0.425518 53.000000
2.321853 -0.035927 0.426687 50.000000
2.321732 -0.043050 0.426687 55.000000
2.321589 -0.050173 0.426687 79.000000
2.331281 -0.057534 0.428356 63.000000
2.329122 -0.064632 0.428023 66.000000
2.332855 -0.071897 0.428690 56.000000
2.338536 -0.079251 0.429692 43.000000
2.334340 -0.086281 0.429024 46.000000
2.339976 -0.093676 0.430026 50.000000
2.339678 -0.100855 0.430026 47.000000
2.310794 -0.106728 0.425185 26.000000
2.230814 0.714931 0.400959 51.000000
2.234880 0.708680 0.401269 57.000000
2.238930 0.702411 0.401579 62.000000
2.238243 0.694661 0.401114 46.000000
2.236586 0.686632 0.400494 72.000000
2.236791 0.679193 0.400185 64.000000
2.238864 0.672328 0.400185 66.000000
2.237128 0.664331 0.399565 69.000000
2.234416 0.656074 0.398791 72.000000
2.232623 0.648115 0.398171 70.000000
2.235550 0.641534 0.398326 73.000000
2.237508 0.634673 0.398326 55.000000
2.236591 0.627006 0.397861 57.000000
2.239456 0.620405 0.398016 79.000000
2.243255 0.614053 0.398326 86.000000
2.242267 0.606394 0.397861 73.000000
2.242208 0.599003 0.397552 73.000000
2.243079 0.591869 0.397397 67.000000
2.242973 0.584486 0.397087 71.000000
2.244756 0.577602 0.397087 79.000000
2.245559 0.570470 0.396932 76.000000
2.244424 0.562857 0.396467 70.000000
2.253813 0.557867 0.397707 71.000000
2.254554 0.550715 0.397552 70.000000
2.256233 0.543796 0.397552 63.000000
2.258852 0.537099 0.397707 51.000000
2.259527 0.529941 0.397552 68.000000
2.260180 0.522784 0.397397 70.000000
2.258883 0.515189 0.396932 70.000000
2.255633 0.507174 0.396158 65.000000
2.257179 0.500251 0.396158 69.000000
2.257738 0.493113 0.396003 83.000000
2.260206 0.486392 0.396158 92.000000
2.261688 0.479455 0.396158 83.000000
2.265082 0.472918 0.396467 90.000000
2.266522 0.465967 0.396467 74.000000
2.268909 0.459207 0.396622 85.000000
2.269339 0.452051 0.396467 68.000000
2.271684 0.445276 0.396622 84.000000
2.272070 0.438118 0.396467 82.000000
2.271462 0.430777 0.396158 80.000000
2.270830 0.423445 0.395848 99.000000
2.269203 0.415942 0.395383 119.000000
2.269496 0.408803 0.395228 101.000000
2.272686 0.402183 0.395538 123.000000
2.274882 0.395377 0.395693 138.000000
2.276084 0.388396 0.395693 133.000000
2.269470 0.380107 0.394454 96.000000
2.288174 0.376023 0.397242 168.000000
2.291267 0.369316 0.397552 187.000000
2.288486 0.361668 0.396932 165.000000
2.289585 0.354645 0.396932 156.000000
2.283825 0.346583 0.395848 139.000000
2.286832 0.339865 0.396158 156.000000
2.281998 0.331995 0.395228 119.000000
2.276159 0.324019 0.394144 107.000000
2.277142 0.317034 0.394144 96.000000
2.279083 0.310179 0.394299 130.000000
2.281003 0.303316 0.394454 131.000000
2.283882 0.296571 0.394764 102.000000
2.286742 0.289811 0.395074 108.000000
2.291542 0.283278 0.395693 97.000000
2.291420 0.276128 0.395538 87.000000
2.294219 0.269327 0.395848 84.000000
2.291108 0.261839 0.395228 83.000000
2.293864 0.255027 0.395538 74.000000
2.293653 0.247882 0.395383 84.000000
2.291456 0.240535 0.394919 85.000000
2.290217 0.233304 0.394609 69.000000
2.293872 0.226567 0.395074 75.000000
2.294556 0.219529 0.395074 66.000000
2.299154 0.212852 0.395693 78.000000
2.295859 0.205445 0.395074 74.000000
2.298448 0.198571 0.395383 67.000000
2.299046 0.191518 0.395383 60.000000
2.293714 0.183991 0.394454 87.000000
2.297223 0.177180 0.394919 84.000000
2.298741 0.170205 0.395074 84.000000
2.299252 0.163151 0.395074 84.000000
2.302699 0.156297 0.395538 61.000000
2.303168 0.149232 0.395538 72.000000
2.307559 0.142408 0.396158 64.000000
2.317847 0.135904 0.397707 73.000000
2.316281 0.128683 0.397397 57.000000
2.316665 0.121576 0.397397 72.000000
2.315053 0.114371 0.397087 58.000000
2.316380 0.107314 0.397242 76.000000
2.316698 0.100207 0.397242 63.000000
2.315021 0.093020 0.396932 88.000000
2.312333 0.085807 0.396467 63.000000
2.317522 0.078880 0.397242 65.000000
2.315779 0.071709 0.396932 66.000000
2.316975 0.064631 0.397087 72.000000
2.322101 0.057644 0.397861 62.000000
2.326218 0.050605 0.398481 70.000000
2.332289 0.043578 0.399410 73.000000
2.332411 0.036422 0.399410 60.000000
2.333500 0.029279 0.399565 57.000000
2.334567 0.022129 0.399720 68.000000
2.334623 0.014966 0.399720 71.000000
2.332683 0.007797 0.399410 68.000000
2.328744 0.000640 0.398791 75.000000
2.323795 -0.006490 0.398016 64.000000
2.322776 -0.013613 0.397861 81.000000
2.322724 -0.020739 0.397861 68.000000
2.322649 -0.027865 0.397861 83.000000
2.323540 -0.035006 0.398016 55.000000
2.329349 -0.042243 0.398946 60.000000
2.331183 -0.049431 0.399255 64.000000
2.332996 -0.056631 0.399565 73.000000
2.337749 -0.063924 0.400340 50.000000
2.339517 -0.071156 0.400649 70.000000
2.343237 -0.078466 0.401269 56.000000
2.348909 -0.085872 0.402198 46.000000
2.344686 -0.092921 0.401579 62.000000
2.348338 -0.100283 0.402198 38.000000
2.346046 -0.107397 0.401888 27.000000
2.353599 -0.114981 0.403127 8.000000
2.349289 -0.121996 0.402508 9.000000
2.222400 0.719195 0.371340 50.000000
2.223654 0.712072 0.371197 58.000000
2.223941 0.704647 0.370911 59.000000
2.227981 0.698414 0.371197 58.000000
2.231059 0.691869 0.371340 54.000000
2.235063 0.685602 0.371626 47.000000
2.234315 0.677879 0.371197 59.000000
2.237332 0.671306 0.371340 67.000000
2.238432 0.664156 0.371197 67.000000
2.238560 0.656728 0.370911 55.000000
2.238663 0.649304 0.370625 59.000000
2.238743 0.641887 0.370339 49.000000
2.240701 0.635015 0.370339 58.000000
2.243592 0.628405 0.370482 64.000000
2.240741 0.620197 0.369767 50.000000
2.247405 0.614627 0.370482 59.000000
2.248325 0.607471 0.370339 54.000000
2.248266 0.600059 0.370053 79.000000
2.251053 0.593411 0.370196 70.000000
2.254779 0.587002 0.370482 57.000000
2.251777 0.578847 0.369767 66.000000
2.255460 0.572424 0.370053 52.000000
2.250486 0.563814 0.369052 58.000000
2.249324 0.556193 0.368623 64.000000
2.252942 0.549760 0.368909 65.000000
2.248845 0.541452 0.368051 82.000000
2.247608 0.533863 0.367622 78.000000
2.255016 0.528322 0.368480 64.000000
2.258555 0.521848 0.368766 60.000000
2.265934 0.516239 0.369624 64.000000
2.268473 0.509502 0.369767 83.000000
2.266160 0.501682 0.369195 62.000000
2.264789 0.494093 0.368766 68.000000
2.266294 0.487142 0.368766 72.000000
2.265841 0.479776 0.368480 79.000000
2.266334 0.472620 0.368337 57.000000
2.264865 0.465066 0.367908 57.000000
2.269191 0.458705 0.368337 65.000000
2.268646 0.451354 0.368051 63.000000
2.274877 0.445345 0.368766 75.000000
2.276232 0.438363 0.368766 68.000000
2.274649 0.430824 0.368337 64.000000
2.277906 0.424207 0.368623 65.000000
2.268489 0.415251 0.367051 77.000000
2.267804 0.407938 0.366765 89.000000
2.279765 0.402878 0.368337 55.000000
2.269289 0.393845 0.366622 80.000000
2.275365 0.387715 0.367336 93.000000
2.275568 0.380569 0.367193 104.000000
2.275748 0.373425 0.367051 107.000000
2.276883 0.366441 0.367051 81.000000
2.280929 0.359918 0.367479 99.000000
2.280066 0.352615 0.367193 97.000000
2.282116 0.345767 0.367336 89.000000
2.282187 0.338618 0.367193 88.000000
2.282236 0.331472 0.367051 88.000000
2.280303 0.324050 0.366622 92.000000
2.284227 0.317463 0.367051 76.000000
2.281267 0.309918 0.366479 83.000000
2.281226 0.302787 0.366336 73.000000
2.285089 0.296170 0.366765 72.000000
2.291878 0.289907 0.367622 66.000000
2.294721 0.283117 0.367908 77.000000
2.294596 0.275957 0.367765 53.000000
2.296415 0.269032 0.367908 73.000000
2.292313 0.261422 0.367193 62.000000
2.289170 0.253950 0.366622 73.000000
2.288954 0.246819 0.366479 78.000000
2.286748 0.239484 0.366050 58.000000
2.288456 0.232568 0.366193 82.000000
2.296053 0.226229 0.367193 47.000000
2.291811 0.218711 0.366479 76.000000
2.295427 0.211953 0.366908 80.000000
2.300010 0.205264 0.367479 74.000000
2.301615 0.198292 0.367622 52.000000
2.297281 0.190818 0.366908 72.000000
2.293909 0.183451 0.366336 55.000000
2.293474 0.176337 0.366193 59.000000
2.299927 0.169739 0.367051 58.000000
2.298462 0.162542 0.366765 68.000000
2.298950 0.155490 0.366765 52.000000
2.298429 0.148372 0.366622 52.000000
2.302824 0.141564 0.367193 49.000000
2.305224 0.134615 0.367479 60.000000
2.305626 0.127542 0.367479 62.000000
2.305018 0.120416 0.367336 57.000000
2.309330 0.113540 0.367908 55.000000
2.310657 0.106501 0.368051 61.000000
2.315917 0.099626 0.368766 55.000000
2.313245 0.092401 0.368337 59.000000
2.317473 0.085451 0.368909 66.000000
2.319703 0.078409 0.369195 62.000000
2.323889 0.071415 0.369767 53.000000
2.322119 0.064230 0.369481 63.000000
2.324284 0.057155 0.369767 53.000000
2.320490 0.049936 0.369195 57.000000
2.328549 0.042967 0.370339 66.000000
2.324712 0.035760 0.369767 57.000000
2.323821 0.028615 0.369624 42.000000
2.328846 0.021534 0.370339 64.000000
2.326922 0.014376 0.370053 43.000000
2.329924 0.007248 0.370482 67.000000
2.329935 0.000099 0.370482 51.000000
2.328935 -0.007046 0.370339 48.000000
2.330882 -0.014202 0.370625 59.000000
2.328848 -0.021336 0.370339 48.000000
2.329761 -0.028492 0.370482 56.000000
2.332632 -0.035684 0.370911 38.000000
2.330532 -0.042805 0.370625 47.000000
2.329400 -0.049934 0.370482 64.000000
2.334183 -0.057199 0.371197 65.000000
2.335975 -0.064413 0.371483 57.000000
2.334778 -0.071550 0.371340 55.000000
2.338503 -0.078844 0.371912 47.000000
2.337261 -0.085982 0.371769 43.000000
2.336987 -0.093152 0.371769 59.000000
2.336690 -0.100322 0.371769 49.000000
2.288913 -0.105330 0.364906 16.000000
2.238538 0.717405 0.344817 42.000000
2.236003 0.709036 0.344162 72.000000
2.238168 0.702173 0.344162 53.000000
2.241258 0.695596 0.344293 54.000000
2.245277 0.689299 0.344555 56.000000
2.247381 0.682407 0.344555 58.000000
2.249464 0.675509 0.344555 64.000000
2.252476 0.668886 0.344686 80.000000
2.251664 0.661135 0.344293 64.000000
2.252730 0.653948 0.344162 66.000000
2.251867 0.646214 0.343769 63.000000
2.250977 0.638491 0.343376 55.000000
2.248152 0.630245 0.342720 75.000000
2.244343 0.621758 0.341934 64.000000
2.250065 0.615915 0.342458 79.000000
2.249073 0.608234 0.342065 96.000000
2.250928 0.601331 0.342065 85.000000
2.255638 0.595180 0.342458 86.000000
2.258413 0.588507 0.342589 73.000000
2.261168 0.581823 0.342720 81.000000
2.267747 0.576102 0.343376 76.000000
2.263734 0.567696 0.342589 70.000000
2.265465 0.560749 0.342589 61.000000
2.267174 0.553796 0.342589 56.000000
2.263080 0.545445 0.341803 88.000000
2.265707 0.538728 0.341934 60.000000
2.267349 0.531775 0.341934 73.000000
2.269936 0.525039 0.342065 74.000000
2.272503 0.518293 0.342196 73.000000
2.276984 0.511971 0.342589 77.000000
2.274672 0.504125 0.342065 68.000000
2.278145 0.497567 0.342327 64.000000
2.274815 0.489533 0.341672 71.000000
2.273396 0.481936 0.341279 67.000000
2.274865 0.474959 0.341279 86.000000
2.275340 0.467778 0.341148 65.000000
2.274821 0.460402 0.340886 72.000000
2.275250 0.453227 0.340755 67.000000
2.278576 0.446626 0.341017 87.000000
2.278962 0.439446 0.340886 76.000000
2.281273 0.432636 0.341017 82.000000
2.282590 0.425635 0.341017 72.000000
2.282910 0.418452 0.340886 96.000000
2.288086 0.412148 0.341410 84.000000
2.292268 0.405645 0.341803 77.000000
2.289595 0.397932 0.341279 93.000000
2.292760 0.391239 0.341541 79.000000
2.293949 0.384203 0.341541 89.000000
2.294139 0.377003 0.341410 96.000000
2.292348 0.369490 0.341017 76.000000
2.287596 0.361528 0.340230 82.000000
2.288694 0.354508 0.340230 104.000000
2.289771 0.347484 0.340230 91.000000
2.289845 0.340312 0.340099 116.000000
2.291860 0.333428 0.340230 80.000000
2.292872 0.326395 0.340230 94.000000
2.294845 0.319496 0.340362 98.000000
2.295814 0.312454 0.340362 77.000000
2.294796 0.305148 0.340099 80.000000
2.296705 0.298233 0.340230 60.000000
2.300560 0.291559 0.340624 66.000000
2.302427 0.284621 0.340755 63.000000
2.299352 0.277083 0.340230 74.000000
2.300191 0.270027 0.340230 86.000000
2.298054 0.262632 0.339837 111.000000
2.298849 0.255580 0.339837 62.000000
2.297651 0.248313 0.339575 80.000000
2.297416 0.241160 0.339444 75.000000
2.298145 0.234110 0.339444 66.000000
2.302799 0.227448 0.339968 74.000000
2.302499 0.220287 0.339837 77.000000
2.297241 0.212675 0.339051 68.000000
2.301832 0.205979 0.339575 57.000000
2.301466 0.198831 0.339444 91.000000
2.301077 0.191687 0.339313 88.000000
2.301654 0.184627 0.339313 77.000000
2.300233 0.177412 0.339051 87.000000
2.306699 0.170793 0.339837 60.000000
2.311167 0.163995 0.340362 79.000000
2.312649 0.156971 0.340493 80.000000
2.311141 0.149747 0.340230 63.000000
2.311589 0.142656 0.340230 63.000000
2.309047 0.135390 0.339837 64.000000
2.312421 0.128469 0.340230 72.000000
2.311814 0.121322 0.340099 67.000000
2.313166 0.114278 0.340230 60.000000
2.315486 0.107272 0.340493 86.000000
2.322737 0.100467 0.341410 75.000000
2.325016 0.093419 0.341672 64.000000
2.330245 0.086469 0.342327 92.000000
2.330499 0.079319 0.342327 71.000000
2.333704 0.072261 0.342720 86.000000
2.334906 0.065128 0.342851 69.000000
2.333113 0.057916 0.342589 65.000000
2.330306 0.050693 0.342196 87.000000
2.334415 0.043617 0.342720 64.000000
2.332556 0.036424 0.342458 64.000000
2.336622 0.029317 0.342982 63.000000
2.339675 0.022176 0.343376 66.000000
2.340723 0.015004 0.343507 63.000000
2.342741 0.007829 0.343769 50.000000
2.343745 0.000642 0.343900 60.000000
2.339771 -0.006537 0.343376 57.000000
2.342714 -0.013733 0.343769 67.000000
2.342661 -0.020920 0.343769 73.000000
2.338620 -0.028059 0.343245 51.000000
2.339514 -0.035249 0.343376 63.000000
2.336421 -0.042372 0.342982 66.000000
2.340245 -0.049625 0.343507 62.000000
2.344046 -0.056901 0.344031 68.000000
2.342870 -0.064065 0.343900 55.000000
2.343653 -0.071283 0.344031 54.000000
2.347387 -0.078606 0.344555 55.000000
2.351097 -0.085953 0.345079 41.000000
2.349832 -0.093126 0.344948 57.000000
2.352506 -0.100462 0.345341 44.000000
2.295738 -0.105086 0.337872 10.000000
2.292434 -0.111983 0.337479 9.000000
2.235345 0.716249 0.315436 60.000000
2.236586 0.709087 0.315317 60.000000
2.235909 0.701329 0.314961 58.000000
2.239946 0.695056 0.315198 46.000000
2.239221 0.687305 0.314842 62.000000
2.238469 0.679565 0.314485 63.000000
2.242445 0.673267 0.314723 61.000000
2.246404 0.666950 0.314961 74.000000
2.247487 0.659775 0.314842 64.000000
2.253314 0.653985 0.315317 63.000000
2.254356 0.646795 0.315198 64.000000
2.253464 0.639061 0.314842 69.000000
2.251590 0.631071 0.314366 81.000000
2.243948 0.621505 0.313177 48.000000
2.252547 0.616456 0.314009 72.000000
2.252512 0.609023 0.313771 68.000000
2.252451 0.601596 0.313534 72.000000
2.251406 0.593922 0.313177 83.000000
2.256100 0.587764 0.313534 75.000000
2.258854 0.581088 0.313652 69.000000
2.259664 0.573910 0.313534 78.000000
2.261414 0.566975 0.313534 63.000000
2.263143 0.560034 0.313534 63.000000
2.261957 0.552380 0.313177 64.000000
2.266536 0.546137 0.313534 55.000000
2.268201 0.539181 0.313534 67.000000
2.271778 0.532674 0.313771 67.000000
2.279205 0.527047 0.314485 114.000000
2.279843 0.519831 0.314366 87.000000
2.283365 0.513270 0.314604 69.000000
2.288806 0.507124 0.315080 72.000000
2.285501 0.499038 0.314485 80.000000
2.280227 0.490558 0.313652 72.000000
2.279779 0.483148 0.313415 73.000000
2.276392 0.475134 0.312820 74.000000
2.274921 0.467547 0.312463 77.000000
2.278291 0.460960 0.312701 58.000000
2.273852 0.452802 0.311988 70.000000
2.273282 0.445441 0.311750 67.000000
2.274638 0.438465 0.311750 54.000000
2.278899 0.432040 0.312106 73.000000
2.279238 0.424864 0.311988 83.000000
2.281507 0.418049 0.312106 67.000000
2.282779 0.411048 0.312106 90.000000
2.284029 0.404042 0.312106 91.000000
2.283301 0.396692 0.311869 74.000000
2.285487 0.389853 0.311988 64.000000
2.284713 0.382510 0.311750 68.000000
2.285876 0.375499 0.311750 70.000000
2.289958 0.368960 0.312106 85.000000
2.289118 0.361621 0.311869 76.000000
2.293160 0.355054 0.312225 88.000000
2.290312 0.347420 0.311750 90.000000
2.288421 0.339952 0.311393 72.000000
2.286506 0.332500 0.311036 69.000000
2.288498 0.325623 0.311155 62.000000
2.291453 0.318876 0.311393 67.000000
2.289469 0.311441 0.311036 61.000000
2.287461 0.304022 0.310679 70.000000
2.298229 0.298285 0.311869 65.000000
2.300118 0.291358 0.311988 74.000000
2.305928 0.284912 0.312582 66.000000
2.305806 0.277716 0.312463 58.000000
2.303689 0.270292 0.312106 73.000000
2.302534 0.262997 0.311869 70.000000
2.308264 0.256483 0.312463 57.000000
2.305092 0.248971 0.311988 68.000000
2.302882 0.241586 0.311631 78.000000
2.304600 0.234621 0.311750 67.000000
2.306297 0.227647 0.311869 73.000000
2.308961 0.220761 0.312106 69.000000
2.309628 0.213676 0.312106 71.000000
2.306317 0.206233 0.311631 68.000000
2.308917 0.199328 0.311869 66.000000
2.311497 0.192409 0.312106 82.000000
2.312076 0.185317 0.312106 72.000000
2.314614 0.178376 0.312344 63.000000
2.314160 0.171201 0.312225 68.000000
2.316655 0.164241 0.312463 70.000000
2.314176 0.156930 0.312106 54.000000
2.317619 0.150024 0.312463 84.000000
2.321042 0.143097 0.312820 53.000000
2.316514 0.135683 0.312225 63.000000
2.321876 0.128853 0.312820 78.000000
2.322260 0.121729 0.312820 55.000000
2.324606 0.114703 0.313058 50.000000
2.328914 0.107756 0.313534 66.000000
2.329234 0.100610 0.313534 62.000000
2.329532 0.093464 0.313534 55.000000
2.335761 0.086540 0.314247 81.000000
2.337008 0.079408 0.314366 58.000000
2.339225 0.072300 0.314604 91.000000
2.337451 0.065067 0.314366 69.000000
2.336647 0.057870 0.314247 64.000000
2.333835 0.050635 0.313890 70.000000
2.335965 0.043513 0.314128 70.000000
2.334102 0.036314 0.313890 68.000000
2.335195 0.029166 0.314009 64.000000
2.340238 0.022051 0.314604 64.000000
2.341288 0.014878 0.314723 75.000000
2.342315 0.007698 0.314842 78.000000
2.341335 0.000512 0.314723 47.000000
2.339340 -0.006667 0.314485 54.000000
2.344273 -0.013871 0.315080 61.000000
2.344219 -0.021063 0.315080 65.000000
2.339179 -0.028197 0.314485 63.000000
2.341067 -0.035403 0.314723 53.000000
2.341940 -0.042602 0.314842 65.000000
2.341799 -0.049787 0.314842 57.000000
2.342628 -0.056995 0.314961 45.000000
2.341449 -0.064155 0.314842 40.000000
2.343226 -0.071398 0.315080 46.000000
2.344981 -0.078652 0.315317 55.000000
2.345721 -0.085882 0.315436 53.000000
2.347430 -0.093156 0.315674 40.000000
2.320349 -0.099225 0.312463 25.000000
2.293253 -0.105130 0.309252 8.000000
2.242090 0.718971 0.287358 52.000000
2.242390 0.711488 0.287145 49.000000
2.244562 0.704605 0.287145 51.000000
2.249562 0.698600 0.287465 40.000000
2.244091 0.689360 0.286611 69.000000
2.247146 0.682761 0.286718 54.000000
2.250183 0.676150 0.286824 73.000000
2.255106 0.670092 0.287145 66.000000
2.257151 0.663170 0.287145 57.000000
2.261085 0.656797 0.287358 74.000000
2.266912 0.650954 0.287785 73.000000
2.268898 0.643996 0.287785 75.000000
2.267991 0.636227 0.287465 71.000000
2.268016 0.628735 0.287252 60.000000
2.269934 0.621774 0.287252 63.000000
2.270872 0.614547 0.287145 72.000000
2.267943 0.606294 0.286611 68.000000
2.268831 0.599080 0.286504 68.000000
2.270658 0.592116 0.286504 56.000000
2.269576 0.584404 0.286184 89.000000
2.268467 0.576704 0.285863 67.000000
2.268297 0.569258 0.285650 76.000000
2.270998 0.562535 0.285757 87.000000
2.271747 0.555329 0.285650 70.000000
2.274407 0.548590 0.285757 69.000000
2.274144 0.541149 0.285543 61.000000
2.275794 0.534170 0.285543 83.000000
2.279359 0.527633 0.285757 74.000000
2.278059 0.519975 0.285436 66.000000
2.280614 0.513201 0.285543 71.000000
2.283148 0.506417 0.285650 59.000000
2.284691 0.499410 0.285650 56.000000
2.293017 0.493863 0.286397 48.000000
2.286740 0.485176 0.285543 85.000000
2.285298 0.477549 0.285223 67.000000
2.285778 0.470335 0.285116 93.000000
2.288185 0.463517 0.285223 69.000000
2.292521 0.457078 0.285543 69.000000
2.290986 0.449469 0.285223 71.000000
2.290402 0.442061 0.285009 76.000000
2.290770 0.434847 0.284902 70.000000
2.291116 0.427635 0.284795 64.000000
2.289483 0.420066 0.284475 67.000000
2.289783 0.412864 0.284368 82.000000
2.290060 0.405663 0.284262 79.000000
2.291293 0.398636 0.284262 69.000000
2.294466 0.391939 0.284475 76.000000
2.293696 0.384569 0.284262 88.000000
2.297809 0.378014 0.284582 76.000000
2.296994 0.370646 0.284368 66.000000
2.298120 0.363597 0.284368 94.000000
2.296277 0.356089 0.284048 70.000000
2.295393 0.348744 0.283834 79.000000
2.293502 0.341261 0.283514 86.000000
2.301425 0.335225 0.284262 82.000000
2.300474 0.327883 0.284048 86.000000
2.303439 0.321098 0.284262 76.000000
2.307369 0.314432 0.284582 75.000000
2.307337 0.307220 0.284475 70.000000
2.309255 0.300268 0.284582 79.000000
2.313124 0.293557 0.284902 64.000000
2.308094 0.285727 0.284262 90.000000
2.307972 0.278526 0.284155 73.000000
2.304866 0.270980 0.283728 85.000000
2.305686 0.263907 0.283728 71.000000
2.310438 0.257272 0.284155 84.000000
2.310228 0.250075 0.284048 59.000000
2.312962 0.243194 0.284262 73.000000
2.319632 0.236702 0.284902 77.000000
2.320347 0.229584 0.284902 57.000000
2.325000 0.222843 0.285329 63.000000
2.327652 0.215892 0.285543 74.000000
2.331275 0.209016 0.285863 64.000000
2.330914 0.201777 0.285757 78.000000
2.335486 0.194955 0.286184 72.000000
2.333100 0.187551 0.285863 81.000000
2.333664 0.180392 0.285863 74.000000
2.333215 0.173158 0.285757 61.000000
2.328776 0.165647 0.285223 58.000000
2.328282 0.158434 0.285116 83.000000
2.332726 0.151548 0.285543 57.000000
2.336157 0.144574 0.285863 52.000000
2.333611 0.137232 0.285543 65.000000
2.337000 0.130237 0.285863 56.000000
2.339375 0.123171 0.286077 69.000000
2.340734 0.116042 0.286184 65.000000
2.341079 0.108860 0.286184 72.000000
2.342396 0.101721 0.286290 68.000000
2.343690 0.094574 0.286397 80.000000
2.347944 0.087530 0.286824 70.000000
2.348201 0.080327 0.286824 70.000000
2.350424 0.073184 0.287038 70.000000
2.350638 0.065972 0.287038 66.000000
2.348841 0.058711 0.286824 56.000000
2.348016 0.051483 0.286718 66.000000
2.346174 0.044242 0.286504 63.000000
2.344311 0.037013 0.286290 65.000000
2.342425 0.029795 0.286077 74.000000
2.342505 0.022609 0.286077 80.000000
2.342564 0.015422 0.286077 72.000000
2.344589 0.008242 0.286290 90.000000
2.343608 0.001048 0.286184 85.000000
2.344595 -0.006145 0.286290 65.000000
2.344565 -0.013338 0.286290 76.000000
2.346502 -0.020549 0.286504 61.000000
2.346428 -0.027747 0.286504 78.000000
2.347326 -0.034961 0.286611 76.000000
2.351184 -0.042234 0.287038 71.000000
2.355020 -0.049532 0.287465 56.000000
2.357838 -0.056829 0.287785 76.000000
2.360635 -0.064144 0.288106 60.000000
2.360427 -0.071386 0.288106 50.000000
2.360197 -0.078627 0.288106 55.000000
2.361931 -0.085941 0.288319 58.000000
2.357683 -0.093029 0.287892 57.000000
2.356393 -0.100219 0.287785 32.000000
2.334223 -0.106448 0.285436 10.000000
2.254169 0.729494 0.260724 42.000000
2.245969 0.719230 0.259679 50.000000
2.251961 0.713541 0.260059 48.000000
2.253189 0.706330 0.259964 42.000000
2.255346 0.699414 0.259964 34.000000
2.254626 0.691614 0.259679 46.000000
2.253880 0.683825 0.259395 60.000000
2.255014 0.676621 0.259300 53.000000
2.265667 0.672252 0.260154 65.000000
2.265809 0.664737 0.259964 63.000000
2.267838 0.657782 0.259964 59.000000
2.274629 0.652195 0.260439 55.000000
2.271831 0.643854 0.259964 76.000000
2.270920 0.636075 0.259679 70.000000
2.268064 0.627774 0.259205 57.000000
2.268060 0.620287 0.259015 73.000000
2.268030 0.612805 0.258825 72.000000
2.267015 0.605073 0.258540 69.000000
2.270785 0.598623 0.258730 73.000000
2.276464 0.592659 0.259110 62.000000
2.277308 0.585424 0.259015 69.000000
2.277164 0.577944 0.258825 58.000000
2.276994 0.570470 0.258635 58.000000
2.275836 0.562763 0.258350 69.000000
2.273683 0.554832 0.257970 49.000000
2.271504 0.546920 0.257590 64.000000
2.268329 0.538796 0.257115 58.000000
2.269971 0.531834 0.257115 63.000000
2.266743 0.523745 0.256640 48.000000
2.266398 0.516345 0.256450 50.000000
2.274770 0.510919 0.257115 61.000000
2.273412 0.503291 0.256830 59.000000
2.273972 0.496101 0.256735 60.000000
2.282296 0.490590 0.257400 72.000000
2.282816 0.483379 0.257305 77.000000
2.286237 0.476781 0.257495 62.000000
2.287689 0.469765 0.257495 60.000000
2.292047 0.463337 0.257780 72.000000
2.294434 0.456498 0.257875 53.000000
2.294847 0.449265 0.257780 65.000000
2.292305 0.441467 0.257400 65.000000
2.288758 0.433504 0.256925 56.000000
2.290077 0.426480 0.256925 53.000000
2.288437 0.418913 0.256640 62.000000
2.289712 0.411890 0.256640 77.000000
2.292925 0.405211 0.256830 72.000000
2.297100 0.398686 0.257115 74.000000
2.297331 0.391469 0.257020 46.000000
2.297539 0.384255 0.256925 61.000000
2.300672 0.377528 0.257115 59.000000
2.300836 0.370309 0.257020 70.000000
2.300978 0.363092 0.256925 70.000000
2.298147 0.355421 0.256545 64.000000
2.302179 0.348817 0.256830 67.000000
2.306192 0.342193 0.257115 79.000000
2.310186 0.335546 0.257400 68.000000
2.308249 0.328036 0.257115 75.000000
2.311216 0.321228 0.257305 72.000000
2.310218 0.313866 0.257115 72.000000
2.308209 0.306383 0.256830 77.000000
2.309139 0.299300 0.256830 75.000000
2.310046 0.292214 0.256830 73.000000
2.312907 0.285370 0.257020 60.000000
2.311796 0.278034 0.256830 69.000000
2.310660 0.270708 0.256640 58.000000
2.313458 0.263844 0.256830 60.000000
2.312278 0.256525 0.256640 83.000000
2.312064 0.249322 0.256545 56.000000
2.308858 0.241811 0.256165 58.000000
2.310580 0.234828 0.256260 68.000000
2.316242 0.228228 0.256735 54.000000
2.315941 0.221026 0.256640 66.000000
2.321564 0.214380 0.257115 67.000000
2.328160 0.207791 0.257685 58.000000
2.326803 0.200475 0.257495 50.000000
2.327407 0.193336 0.257495 69.000000
2.329974 0.186354 0.257685 74.000000
2.327557 0.178974 0.257400 63.000000
2.330081 0.171980 0.257590 56.000000
2.329604 0.164760 0.257495 57.000000
2.333078 0.157815 0.257780 52.000000
2.335538 0.150786 0.257970 73.000000
2.337977 0.143743 0.258160 69.000000
2.337413 0.136511 0.258065 64.000000
2.340803 0.129506 0.258350 59.000000
2.340195 0.122271 0.258255 81.000000
2.338570 0.114992 0.258065 63.000000
2.333941 0.107586 0.257590 64.000000
2.333265 0.100381 0.257495 62.000000
2.336546 0.093343 0.257780 62.000000
2.330853 0.085951 0.257210 42.000000
2.339064 0.079073 0.257970 58.000000
2.340291 0.071927 0.258065 53.000000
2.342491 0.064803 0.258255 64.000000
2.344669 0.057666 0.258445 60.000000
2.345830 0.050495 0.258540 74.000000
2.341993 0.043222 0.258160 50.000000
2.340124 0.036005 0.257970 59.000000
2.335246 0.028762 0.257495 67.000000
2.340300 0.021646 0.257970 58.000000
2.340356 0.014466 0.257970 51.000000
2.339394 0.007282 0.257875 45.000000
2.343387 0.000107 0.258255 59.000000
2.346363 -0.007090 0.258540 57.000000
2.349316 -0.014305 0.258825 59.000000
2.358220 -0.021590 0.259679 64.000000
2.355157 -0.028790 0.259395 53.000000
2.355057 -0.036016 0.259395 89.000000
2.360908 -0.043347 0.259964 57.000000
2.361759 -0.050611 0.260059 57.000000
2.363583 -0.057905 0.260249 67.000000
2.363394 -0.065156 0.260249 54.000000
2.363183 -0.072406 0.260249 46.000000
2.365935 -0.079755 0.260534 40.000000
2.362694 -0.086905 0.260249 44.000000
2.366395 -0.094310 0.260629 44.000000
2.356149 -0.101147 0.259679 23.000000
2.339916 -0.107651 0.258160 13.000000
2.273843 0.729147 0.232452 48.000000
2.275119 0.721867 0.232369 66.000000
2.273519 0.713690 0.232039 55.000000
2.274746 0.706416 0.231957 58.000000
2.272139 0.697971 0.231545 76.000000
2.265687 0.688391 0.230802 67.000000
2.266834 0.681150 0.230720 73.000000
2.268913 0.674193 0.230720 62.000000
2.268102 0.666386 0.230473 75.000000
2.272050 0.659980 0.230637 62.000000
2.275023 0.653282 0.230720 82.000000
2.274140 0.645483 0.230473 82.000000
2.281867 0.640117 0.230967 61.000000
2.283820 0.633113 0.230967 60.000000
2.284790 0.625840 0.230885 62.000000
2.287662 0.619088 0.230967 61.000000
2.286662 0.611295 0.230720 68.000000
2.284672 0.603260 0.230390 85.000000
2.291334 0.597504 0.230802 69.000000
2.287365 0.588982 0.230308 79.000000
2.287230 0.581470 0.230143 77.000000
2.285136 0.573481 0.229813 69.000000
2.287852 0.566707 0.229895 76.000000
2.287644 0.559212 0.229730 72.000000
2.286442 0.551491 0.229483 79.000000
2.288123 0.544473 0.229483 83.000000
2.286872 0.536768 0.229236 91.000000
2.293363 0.530873 0.229648 90.000000
2.294009 0.523613 0.229565 71.000000
2.294632 0.516354 0.229483 90.000000
2.298152 0.509743 0.229648 67.000000
2.294837 0.501626 0.229236 69.000000
2.300262 0.495422 0.229565 60.000000
2.302746 0.488569 0.229648 79.000000
2.302283 0.481095 0.229483 63.000000
2.305701 0.474431 0.229648 61.000000
2.305192 0.466959 0.229483 65.000000
2.304659 0.459496 0.229318 66.000000
2.310947 0.453381 0.229730 65.000000
2.306456 0.445157 0.229236 80.000000
2.309769 0.438450 0.229401 76.000000
2.311104 0.431362 0.229401 81.000000
2.313396 0.424449 0.229483 80.000000
2.312726 0.416997 0.229318 63.000000
2.314976 0.410073 0.229401 90.000000
2.315241 0.402798 0.229318 79.000000
2.312536 0.395023 0.228988 75.000000
2.309806 0.387267 0.228658 72.000000
2.312950 0.380502 0.228823 80.000000
2.313123 0.373246 0.228741 69.000000
2.317210 0.366614 0.228988 72.000000
2.317339 0.359351 0.228906 61.000000
2.319416 0.352389 0.228988 76.000000
2.323443 0.345711 0.229236 71.000000
2.324493 0.338582 0.229236 55.000000
2.322561 0.331027 0.228988 77.000000
2.322579 0.323763 0.228906 70.000000
2.322573 0.316501 0.228823 82.000000
2.327485 0.309900 0.229153 63.000000
2.327436 0.302629 0.229071 71.000000
2.328354 0.295487 0.229071 71.000000
2.327271 0.288098 0.228906 78.000000
2.329134 0.281076 0.228988 65.000000
2.324046 0.273232 0.228493 83.000000
2.318933 0.265421 0.227999 78.000000
2.319736 0.258306 0.227999 79.000000
2.318536 0.250973 0.227834 71.000000
2.320286 0.243963 0.227916 82.000000
2.320032 0.236742 0.227834 83.000000
2.317772 0.229330 0.227586 62.000000
2.326402 0.222977 0.228246 73.000000
2.329059 0.216023 0.228411 62.000000
2.330704 0.208965 0.228493 93.000000
2.332327 0.201899 0.228576 72.000000
2.334922 0.194908 0.228741 67.000000
2.341469 0.188222 0.229236 71.000000
2.347997 0.181498 0.229730 58.000000
2.347549 0.174220 0.229648 69.000000
2.351055 0.167228 0.229895 65.000000
2.353546 0.160149 0.230060 66.000000
2.354026 0.152928 0.230060 86.000000
2.352495 0.145583 0.229895 79.000000
2.349946 0.138190 0.229648 72.000000
2.349363 0.130924 0.229565 81.000000
2.347764 0.123611 0.229401 97.000000
2.351118 0.116555 0.229648 64.000000
2.346487 0.109111 0.229236 70.000000
2.348802 0.101998 0.229401 67.000000
2.350099 0.094831 0.229483 77.000000
2.351375 0.087658 0.229565 70.000000
2.352629 0.080477 0.229648 71.000000
2.350873 0.073197 0.229483 56.000000
2.348098 0.065901 0.229236 60.000000
2.354266 0.058846 0.229730 76.000000
2.354436 0.051623 0.229730 61.000000
2.354583 0.044399 0.229730 78.000000
2.358694 0.037237 0.230060 57.000000
2.352818 0.029926 0.229565 68.000000
2.360871 0.022783 0.230225 61.000000
2.362923 0.015553 0.230390 52.000000
2.357977 0.008286 0.229978 75.000000
2.361978 0.001053 0.230308 74.000000
2.363963 -0.006199 0.230473 57.000000
2.366923 -0.013469 0.230720 56.000000
2.371853 -0.020775 0.231132 67.000000
2.368788 -0.028015 0.230885 75.000000
2.369688 -0.035298 0.230967 64.000000
2.369568 -0.042568 0.230967 56.000000
2.369426 -0.049837 0.230967 65.000000
2.371255 -0.057155 0.231132 54.000000
2.365091 -0.064266 0.230637 42.000000
2.366875 -0.071582 0.230802 59.000000
2.368636 -0.078910 0.230967 63.000000
2.372367 -0.086322 0.231297 64.000000
2.376074 -0.093758 0.231627 64.000000
2.373784 -0.100962 0.231462 56.000000
2.379436 -0.108518 0.231957 66.000000
2.379092 -0.115817 0.231957 52.000000
2.369768 -0.122650 0.231215 9.000000
2.271498 0.749668 0.204427 41.000000
2.271891 0.742076 0.204286 38.000000
2.278902 0.736638 0.204639 37.000000
2.282101 0.729948 0.204710 48.000000
2.286231 0.723546 0.204851 55.000000
2.284633 0.715334 0.204568 61.000000
2.283006 0.707139 0.204286 56.000000
2.284211 0.699839 0.204215 75.000000
2.282530 0.691669 0.203933 53.000000
2.277954 0.682655 0.203438 62.000000
2.275256 0.674244 0.203085 61.000000
2.271571 0.665575 0.202661 58.000000
2.276476 0.659436 0.202873 69.000000
2.271777 0.650524 0.202379 61.000000
2.272802 0.643279 0.202308 68.000000
2.276686 0.636841 0.202450 63.000000
2.276706 0.629321 0.202308 59.000000
2.280551 0.622860 0.202450 61.000000
2.280525 0.615340 0.202308 67.000000
2.281438 0.608083 0.202238 53.000000
2.288116 0.602353 0.202591 65.000000
2.286092 0.594324 0.202308 55.000000
2.285973 0.586811 0.202167 69.000000
2.281961 0.578322 0.201743 71.000000
2.279855 0.570348 0.201461 68.000000
2.279657 0.562871 0.201320 82.000000
2.285249 0.556821 0.201602 61.000000
2.285977 0.549574 0.201531 65.000000
2.289593 0.543019 0.201673 57.000000
2.292220 0.536220 0.201743 69.000000
2.293854 0.529185 0.201743 62.000000
2.298384 0.522810 0.201955 56.000000
2.299977 0.515757 0.201955 64.000000
2.297653 0.507835 0.201673 61.000000
2.297251 0.500358 0.201531 54.000000
2.298776 0.493308 0.201531 51.000000
2.302230 0.486666 0.201673 59.000000
2.302736 0.479397 0.201602 77.000000
2.303219 0.472129 0.201531 68.000000
2.301723 0.464468 0.201320 65.000000
2.303137 0.457404 0.201320 88.000000
2.308445 0.451103 0.201602 54.000000
2.308839 0.443830 0.201531 53.000000
2.309210 0.436559 0.201461 49.000000
2.310538 0.429472 0.201461 64.000000
2.312826 0.422561 0.201531 74.000000
2.315093 0.415640 0.201602 72.000000
2.312428 0.407841 0.201320 65.000000
2.310720 0.400232 0.201108 55.000000
2.314887 0.393644 0.201320 68.000000
2.313133 0.386046 0.201108 67.000000
2.317259 0.379433 0.201320 69.000000
2.316443 0.372005 0.201178 63.000000
2.316588 0.364740 0.201108 69.000000
2.317696 0.357631 0.201108 68.000000
2.320755 0.350818 0.201249 58.000000
2.322807 0.343843 0.201320 53.000000
2.323851 0.336715 0.201320 57.000000
2.326848 0.329865 0.201461 57.000000
2.325873 0.322450 0.201320 68.000000
2.335747 0.316523 0.201955 53.000000
2.334729 0.309093 0.201814 64.000000
2.336656 0.302057 0.201885 87.000000
2.336582 0.294761 0.201814 67.000000
2.337476 0.287591 0.201814 54.000000
2.332405 0.279703 0.201390 62.000000
2.331270 0.272314 0.201249 72.000000
2.329122 0.264821 0.201037 66.000000
2.327940 0.257453 0.200896 84.000000
2.327728 0.250203 0.200825 47.000000
2.330468 0.243269 0.200966 67.000000
