ply
format ascii 1.0
element vertex 1244
property float x
property float y
property float z
property float intensity
end_header
2.971631 -0.543119 0.433404 214.000000
2.968001 -0.551871 0.433142 250.000000
2.967268 -0.561158 0.433273 246.000000
2.964559 -0.570072 0.433142 230.000000
2.961823 -0.578974 0.433011 275.000000
2.959061 -0.587864 0.432880 241.000000
2.956271 -0.596744 0.432748 255.000000
2.951513 -0.605213 0.432355 282.000000
2.949643 -0.614265 0.432355 261.000000
2.946774 -0.623106 0.432224 255.000000
2.956480 -0.634642 0.433797 198.000000
2.957425 -0.644343 0.434190 185.000000
2.953498 -0.652985 0.433928 154.000000
2.945677 -0.660741 0.433142 124.000000
2.937836 -0.668454 0.432355 91.000000
2.937704 -0.677910 0.432617 123.000000
2.929819 -0.685564 0.431831 106.000000
2.926737 -0.694320 0.431700 101.000000
2.925557 -0.703528 0.431831 123.000000
2.921458 -0.712031 0.431569 130.000000
2.925035 -0.722417 0.432355 96.000000
2.924728 -0.731869 0.432617 84.000000
2.922469 -0.740839 0.432617 63.000000
2.922103 -0.750294 0.432880 62.000000
2.919787 -0.759256 0.432880 62.000000
2.918402 -0.768462 0.433011 47.000000
2.915073 -0.777157 0.432880 56.000000
2.911718 -0.785838 0.432748 59.000000
2.906425 -0.793983 0.432355 60.000000
2.905886 -0.803425 0.432617 54.000000
2.900543 -0.811535 0.432224 47.000000
2.899948 -0.820970 0.432486 56.000000
2.898369 -0.830136 0.432617 57.000000
2.896760 -0.839300 0.432748 51.000000
2.894171 -0.848183 0.432748 45.000000
2.897259 -0.858750 0.433535 36.000000
2.891762 -0.866780 0.433142 55.000000
2.890037 -0.875935 0.433273 50.000000
2.891128 -0.885960 0.433797 52.000000
2.889343 -0.895119 0.433928 42.000000
2.883745 -0.903090 0.433535 37.000000
2.887577 -0.914028 0.434452 49.000000
2.885703 -0.923185 0.434583 54.000000
2.886630 -0.933254 0.435107 49.000000
2.887523 -0.943338 0.435631 48.000000
2.885557 -0.952503 0.435763 58.000000
2.885442 -0.962293 0.436156 48.000000
2.886234 -0.972407 0.436680 36.000000
2.887929 -0.982855 0.437335 77.000000
2.881150 -0.990421 0.436811 51.000000
2.874352 -0.997954 0.436287 46.000000
2.870342 -1.006440 0.436156 48.000000
2.867240 -1.015241 0.436156 48.000000
2.862245 -1.023365 0.435894 50.000000
2.856295 -1.031132 0.435500 40.000000
2.853118 -1.039890 0.435500 62.000000
2.853636 -1.050008 0.436025 46.000000
2.854118 -1.060139 0.436549 54.000000
2.853637 -1.069935 0.436942 40.000000
2.854049 -1.080089 0.437466 41.000000
2.853501 -1.089901 0.437859 45.000000
2.854768 -1.100434 0.438514 43.000000
2.852303 -1.109547 0.438646 43.000000
2.846117 -1.117205 0.438252 39.000000
2.824243 -1.118628 0.435631 19.000000
2.790420 -1.115143 0.431307 6.000000
3.012856 -0.286401 0.396780 45.000000
3.013940 -0.295836 0.397018 48.000000
3.014006 -0.305181 0.397137 68.000000
3.011081 -0.314221 0.396899 72.000000
3.014051 -0.323880 0.397375 43.000000
3.008108 -0.332582 0.396780 52.000000
3.007074 -0.341809 0.396780 49.000000
3.006998 -0.351148 0.396899 51.000000
3.005906 -0.360372 0.396899 72.000000
3.001830 -0.369229 0.396542 75.000000
2.996742 -0.377942 0.396067 68.000000
2.992615 -0.386753 0.395710 72.000000
2.988461 -0.395543 0.395353 62.000000
2.984281 -0.404311 0.394996 71.000000
2.980076 -0.413057 0.394640 85.000000
2.978795 -0.422198 0.394640 86.000000
2.978468 -0.431476 0.394759 97.000000
2.976148 -0.440467 0.394640 92.000000
2.978710 -0.450188 0.395115 132.000000
2.988110 -0.460985 0.396423 144.000000
2.986681 -0.470150 0.396423 142.000000
2.985225 -0.479311 0.396423 192.000000
2.981781 -0.488147 0.396186 200.000000
2.979290 -0.497130 0.396067 215.000000
2.977750 -0.506268 0.396067 186.000000
2.976183 -0.515401 0.396067 167.000000
2.974588 -0.524530 0.396067 174.000000
2.971987 -0.533478 0.395948 217.000000
2.974244 -0.543306 0.396423 319.000000
2.956943 -0.549531 0.394521 518.000000
2.953292 -0.558232 0.394283 575.000000
2.951565 -0.567290 0.394283 474.000000
2.966378 -0.579573 0.396305 320.000000
2.959716 -0.587706 0.395710 218.000000
2.966660 -0.598548 0.396780 160.000000
2.965782 -0.607845 0.396899 162.000000
2.955154 -0.615124 0.395829 210.000000
2.950338 -0.623572 0.395472 259.000000
2.948411 -0.632621 0.395472 270.000000
2.942576 -0.640820 0.394996 264.000000
2.951261 -0.652197 0.396305 198.000000
2.947309 -0.660815 0.396067 140.000000
2.939458 -0.668535 0.395353 121.000000
2.935458 -0.677104 0.395115 114.000000
2.931433 -0.685656 0.394877 107.000000
2.927383 -0.694188 0.394640 85.000000
2.919446 -0.701776 0.393926 72.000000
2.920174 -0.711434 0.394283 92.000000
2.917978 -0.720389 0.394283 91.000000
2.915754 -0.729338 0.394283 78.000000
2.915428 -0.738767 0.394521 93.000000
2.919880 -0.749433 0.395353 65.000000
2.929100 -0.761381 0.396780 43.000000
2.926750 -0.770364 0.396780 50.000000
2.921495 -0.778573 0.396423 46.000000
2.921010 -0.788049 0.396661 43.000000
2.920494 -0.797529 0.396899 66.000000
2.918991 -0.806750 0.397018 54.000000
2.912677 -0.814633 0.396542 55.000000
2.907297 -0.822755 0.396186 62.000000
2.907624 -0.832489 0.396542 62.000000
2.906963 -0.841958 0.396780 46.000000
2.903414 -0.850593 0.396661 56.000000
2.901742 -0.859779 0.396780 41.000000
2.899091 -0.868677 0.396780 44.000000
2.896412 -0.877567 0.396780 50.000000
2.899403 -0.888192 0.397494 46.000000
2.896664 -0.897083 0.397494 47.000000
2.893899 -0.905965 0.397494 43.000000
2.892999 -0.915438 0.397732 51.000000
2.889231 -0.924007 0.397613 43.000000
2.885438 -0.932562 0.397494 48.000000
2.890115 -0.943873 0.398445 38.000000
2.885319 -0.952114 0.398207 45.000000
2.883327 -0.961275 0.398326 41.000000
2.885070 -0.971699 0.398921 46.000000
2.883955 -0.981185 0.399159 49.000000
2.880931 -0.990028 0.399159 47.000000
2.880695 -0.999837 0.399516 52.000000
2.875740 -1.008014 0.399278 55.000000
2.871697 -1.016501 0.399159 39.000000
2.867630 -1.024973 0.399040 47.000000
2.862604 -1.033092 0.398802 53.000000
2.860354 -1.042210 0.398921 61.000000
2.859939 -1.052007 0.399278 50.000000
2.855767 -1.060431 0.399159 38.000000
2.855290 -1.070232 0.399516 40.000000
2.855708 -1.080391 0.399991 41.000000
2.857019 -1.090916 0.400586 41.000000
2.853658 -1.099676 0.400586 37.000000
2.851197 -1.108785 0.400705 49.000000
2.844084 -1.116078 0.400229 33.000000
2.839723 -1.124433 0.400110 39.000000
2.853782 -1.140132 0.402370 19.000000
2.908297 -1.172246 0.409862 6.000000
3.023552 -0.259124 0.360399 10.000000
3.021752 -0.268311 0.360292 14.000000
3.033786 -0.278764 0.361680 31.000000
3.031926 -0.287977 0.361574 34.000000
3.027071 -0.296888 0.361147 43.000000
3.027135 -0.306274 0.361253 44.000000
3.024203 -0.315353 0.361040 66.000000
3.017290 -0.323992 0.360399 61.000000
3.011340 -0.332701 0.359865 56.000000
3.005366 -0.341376 0.359331 64.000000
3.000354 -0.350134 0.358904 62.000000
3.001240 -0.359574 0.359118 43.000000
2.996176 -0.368294 0.358690 66.000000
2.997991 -0.377858 0.359011 78.000000
2.992873 -0.386544 0.358584 100.000000
2.991674 -0.395724 0.358584 84.000000
2.988889 -0.423381 0.358690 126.000000
2.987576 -0.432549 0.358690 98.000000
2.992136 -0.442587 0.359331 130.000000
2.990764 -0.451764 0.359331 133.000000
2.990347 -0.461089 0.359438 117.000000
2.993829 -0.471035 0.359972 192.000000
2.991388 -0.480060 0.359865 219.000000
2.988920 -0.489074 0.359758 236.000000
2.990348 -0.498733 0.360079 186.000000
2.987823 -0.507738 0.359972 202.000000
2.986252 -0.516902 0.359972 216.000000
2.987589 -0.526580 0.360292 237.000000
2.981066 -0.534864 0.359758 540.000000
2.997017 -0.547225 0.361680 1269.000000
3.010965 -0.559324 0.363389 1603.000000
3.009234 -0.568559 0.363389 1760.000000
2.982090 -0.572908 0.360613 1245.000000
2.971535 -0.580338 0.359652 607.000000
2.957063 -0.586934 0.358263 363.000000
2.965970 -0.598167 0.359438 243.000000
2.966068 -0.607663 0.359652 184.000000
2.964190 -0.616760 0.359652 201.000000
2.959365 -0.625234 0.359331 226.000000
2.960350 -0.634936 0.359652 251.000000
2.956445 -0.643592 0.359438 309.000000
2.952515 -0.652230 0.359224 262.000000
2.960202 -0.663461 0.360292 190.000000
2.948457 -0.670334 0.359224 137.000000
2.944449 -0.678929 0.359011 132.000000
2.941384 -0.687733 0.358904 102.000000
2.940228 -0.696984 0.359011 103.000000
2.938076 -0.706001 0.359011 105.000000
2.934930 -0.714776 0.358904 96.000000
2.933689 -0.724015 0.359011 90.000000
2.934347 -0.733736 0.359331 115.000000
2.929191 -0.742002 0.359011 71.000000
2.923048 -0.749997 0.358584 68.000000
2.924583 -0.759961 0.359011 80.000000
2.918392 -0.767918 0.358584 63.000000
2.918904 -0.777636 0.358904 80.000000
2.912665 -0.785551 0.358477 48.000000
2.917914 -0.796579 0.359331 46.000000
2.918332 -0.806322 0.359652 57.000000
2.921589 -0.816879 0.360292 52.000000
2.919070 -0.825838 0.360292 49.000000
2.918434 -0.835338 0.360506 57.000000
2.916812 -0.844564 0.360613 54.000000
2.910391 -0.852390 0.360185 35.000000
2.901089 -0.859338 0.359438 60.000000
2.897486 -0.867949 0.359331 50.000000
2.894810 -0.876834 0.359331 48.000000
2.897810 -0.887459 0.359972 50.000000
2.898873 -0.897521 0.360399 46.000000
2.895157 -0.906114 0.360292 38.000000
2.892363 -0.914992 0.360292 33.000000
2.898066 -0.926587 0.361253 63.000000
2.895209 -0.935474 0.361253 40.000000
2.894216 -0.944970 0.361467 55.000000
2.891303 -0.953844 0.361467 53.000000
2.885534 -0.961767 0.361147 48.000000
2.885396 -0.971567 0.361467 64.000000
2.885226 -0.981376 0.361787 57.000000
2.884082 -0.990869 0.362001 65.000000
2.880089 -0.999387 0.361894 45.000000
2.876071 -1.007889 0.361787 58.000000
2.871091 -1.016044 0.361574 50.000000
2.870769 -1.025852 0.361894 47.000000
2.870414 -1.035667 0.362214 50.000000
2.870960 -1.045830 0.362642 42.000000
2.864005 -1.053260 0.362214 43.000000
2.864489 -1.063427 0.362642 40.000000
2.864937 -1.073606 0.363069 52.000000
2.861629 -1.082390 0.363069 39.000000
2.861082 -1.092229 0.363389 47.000000
2.856790 -1.100644 0.363282 56.000000
2.855253 -1.110124 0.363496 46.000000
2.862015 -1.122874 0.364670 40.000000
2.853009 -1.129453 0.364030 26.000000
2.856918 -1.141152 0.364884 33.000000
2.805450 -1.130580 0.359331 16.000000
2.696355 -1.105879 0.347478 5.000000
3.026529 -0.288226 0.324739 24.000000
3.017705 -0.296733 0.323979 28.000000
3.019752 -0.306290 0.324264 57.000000
3.014837 -0.315141 0.323884 56.000000
3.016826 -0.324707 0.324169 44.000000
3.005920 -0.332869 0.323219 53.000000
2.998950 -0.341416 0.322649 47.000000
2.995911 -0.350385 0.322459 72.000000
2.994822 -0.359575 0.322459 61.000000
2.989753 -0.368276 0.322079 58.000000
2.989596 -0.377571 0.322174 65.000000
2.987437 -0.386613 0.322079 65.000000
2.987223 -0.395907 0.322174 66.000000
2.988954 -0.405470 0.322459 75.000000
2.987696 -0.414639 0.322459 91.000000
2.987396 -0.423942 0.322554 75.000000
2.988051 -0.433390 0.322744 91.000000
2.986708 -0.442556 0.322744 99.000000
2.985336 -0.451717 0.322744 90.000000
2.987871 -0.461480 0.323124 105.000000
2.990375 -0.471262 0.323504 129.000000
2.984983 -0.479804 0.323124 180.000000
2.988410 -0.489763 0.323599 248.000000
2.984929 -0.498602 0.323409 237.000000
2.983385 -0.507757 0.323409 222.000000
2.983775 -0.517247 0.323599 200.000000
2.979234 -0.525880 0.323314 180.000000
2.982506 -0.535896 0.323789 166.000000
2.977909 -0.544508 0.323504 192.000000
2.976225 -0.553642 0.323504 211.000000
2.973534 -0.562585 0.323409 215.000000
2.969839 -0.571330 0.323219 233.000000
2.966118 -0.580057 0.323029 298.000000
2.964324 -0.589154 0.323029 237.000000
2.960551 -0.597853 0.322839 220.000000
2.959678 -0.607132 0.322934 207.000000
2.960726 -0.616818 0.323219 206.000000
2.959793 -0.626104 0.323314 267.000000
2.959805 -0.635599 0.323504 267.000000
2.963677 -0.645946 0.324074 214.000000
2.949045 -0.652245 0.322839 150.000000
2.942173 -0.660202 0.322364 133.000000
2.944016 -0.670108 0.322744 89.000000
2.941947 -0.679137 0.322744 84.000000
2.939849 -0.688159 0.322744 86.000000
2.937724 -0.697175 0.322744 91.000000
2.934604 -0.705952 0.322649 80.000000
2.933391 -0.715188 0.322744 76.000000
2.931183 -0.724184 0.322744 68.000000
2.927982 -0.732932 0.322649 72.000000
2.925719 -0.741911 0.322649 71.000000
2.918608 -0.749647 0.322174 64.000000
2.916295 -0.758598 0.322174 59.000000
2.913954 -0.767541 0.322174 65.000000
2.914471 -0.777246 0.322459 70.000000
2.914956 -0.786961 0.322744 68.000000
2.918290 -0.797473 0.323314 68.000000
2.912951 -0.805627 0.323029 52.000000
2.917177 -0.816436 0.323694 63.000000
2.914659 -0.825382 0.323694 48.000000
2.912113 -0.834320 0.323694 55.000000
2.911452 -0.843804 0.323884 52.000000
2.908849 -0.852732 0.323884 58.000000
2.902402 -0.860522 0.323504 72.000000
2.904516 -0.870850 0.323979 56.000000
2.901831 -0.879756 0.323979 45.000000
2.901021 -0.889238 0.324169 44.000000
2.905888 -0.900488 0.324929 42.000000
2.901211 -0.908805 0.324739 45.000000
2.902206 -0.918902 0.325119 49.000000
2.904114 -0.929316 0.325594 61.000000
2.904092 -0.939139 0.325878 51.000000
2.898358 -0.947118 0.325594 53.000000
2.898274 -0.956941 0.325878 55.000000
2.890603 -0.964255 0.325404 44.000000
2.890461 -0.974071 0.325689 52.000000
2.887460 -0.982935 0.325689 57.000000
2.883488 -0.991465 0.325594 56.000000
2.877612 -0.999328 0.325309 54.000000
2.871714 -1.007165 0.325024 48.000000
2.868610 -1.015970 0.325024 55.000000
2.873917 -1.027780 0.325878 36.000000
2.870750 -1.036592 0.325878 50.000000
2.869427 -1.046076 0.326068 38.000000
2.869942 -1.056248 0.326448 48.000000
2.865755 -1.064702 0.326353 39.000000
2.869000 -1.075933 0.327018 36.000000
2.864755 -1.084378 0.326923 31.000000
2.857694 -1.091742 0.326543 36.000000
2.858047 -1.101935 0.326923 44.000000
2.860220 -1.112862 0.327493 42.000000
2.858646 -1.122359 0.327683 63.000000
2.857041 -1.131856 0.327873 34.000000
2.855404 -1.141355 0.328063 44.000000
2.851889 -1.150109 0.328063 33.000000
2.788402 -1.134491 0.321889 16.000000
2.961815 -0.308840 0.281268 20.000000
3.012379 -0.323464 0.285556 54.000000
3.010382 -0.332595 0.285474 44.000000
3.007367 -0.341604 0.285309 42.000000
3.006305 -0.350829 0.285309 43.000000
3.004225 -0.359932 0.285226 83.000000
3.000139 -0.368782 0.284979 67.000000
3.001960 -0.378359 0.285226 56.000000
2.998808 -0.387311 0.285061 66.000000
2.995473 -0.433694 0.285309 99.000000
2.992157 -0.442590 0.285144 95.000000
2.990785 -0.451767 0.285144 123.000000
2.991355 -0.461245 0.285309 120.000000
2.990910 -0.470575 0.285391 118.000000
2.993388 -0.480381 0.285721 130.000000
2.991900 -0.489562 0.285721 149.000000
2.991367 -0.498903 0.285803 172.000000
2.994735 -0.508914 0.286216 202.000000
2.992178 -0.517929 0.286133 225.000000
2.991556 -0.527279 0.286216 202.000000
2.986981 -0.535926 0.285968 249.000000
2.984343 -0.544909 0.285886 252.000000
2.983637 -0.554244 0.285968 231.000000
2.976047 -0.562284 0.285474 269.000000
2.972351 -0.571036 0.285309 287.000000
2.970585 -0.580152 0.285309 288.000000
2.970746 -0.589651 0.285474 308.000000
2.971853 -0.599354 0.285721 248.000000
2.974882 -0.609470 0.286133 225.000000
2.979828 -0.620016 0.286711 185.000000
2.969136 -0.627299 0.285968 147.000000
2.962326 -0.635360 0.285556 122.000000
2.961337 -0.644657 0.285639 106.000000
2.962264 -0.654385 0.285886 82.000000
2.965105 -0.664560 0.286298 71.000000
2.964996 -0.674096 0.286463 64.000000
2.958058 -0.682069 0.286051 82.000000
2.957892 -0.691595 0.286216 81.000000
2.952848 -0.699977 0.285968 66.000000
2.945841 -0.707868 0.285556 74.000000
2.947529 -0.717846 0.285886 73.000000
2.946280 -0.727124 0.285968 56.000000
2.940168 -0.735192 0.285639 64.000000
2.935967 -0.743720 0.285474 61.000000
2.930775 -0.751980 0.285226 59.000000
2.929419 -0.761219 0.285309 50.000000
2.926106 -0.769949 0.285226 64.000000
2.923730 -0.778922 0.285226 64.000000
2.924213 -0.788668 0.285474 71.000000
2.921780 -0.797635 0.285474 54.000000
2.922201 -0.807392 0.285721 59.000000
2.922589 -0.817159 0.285968 47.000000
2.923904 -0.827207 0.286298 64.000000
2.925185 -0.837271 0.286628 61.000000
2.920688 -0.845687 0.286463 58.000000
2.919036 -0.854924 0.286546 48.000000
2.921177 -0.865291 0.286958 54.000000
2.913735 -0.872818 0.286546 69.000000
2.912951 -0.882331 0.286711 41.000000
2.908325 -0.890680 0.286546 54.000000
2.907483 -0.900188 0.286711 58.000000
2.909463 -0.910593 0.287123 48.000000
2.902855 -0.918312 0.286793 44.000000
2.898125 -0.926606 0.286628 44.000000
2.902855 -0.937946 0.287288 38.000000
2.900911 -0.947156 0.287370 57.000000
2.899884 -0.956677 0.287535 35.000000
2.898827 -0.966199 0.287700 41.000000
2.896793 -0.975406 0.287782 46.000000
2.893787 -0.984289 0.287782 47.000000
2.887926 -0.992191 0.287535 40.000000
2.886752 -1.001700 0.287700 38.000000
2.883665 -1.010551 0.287700 44.000000
2.880551 -1.019393 0.287700 40.000000
2.879287 -1.028897 0.287865 38.000000
2.880804 -1.039418 0.288277 30.000000
2.884156 -1.050639 0.288854 49.000000
2.889337 -1.062580 0.289597 48.000000
2.887931 -1.072133 0.289762 42.000000
2.888361 -1.082387 0.290091 49.000000
2.885027 -1.091244 0.290091 33.000000
2.884459 -1.101156 0.290339 15.000000
2.825272 -1.088496 0.285391 8.000000
2.999010 -0.323850 0.248640 22.000000
3.020806 -0.335574 0.250264 46.000000
3.017780 -0.344614 0.250123 40.000000
3.009773 -0.353060 0.249628 45.000000
3.010656 -0.362530 0.249770 31.000000
3.000620 -0.370668 0.249134 54.000000
2.999469 -0.379872 0.249134 55.000000
2.992354 -0.388304 0.248710 36.000000
2.999059 -0.398531 0.249275 55.000000
2.994857 -0.407328 0.249063 49.000000
2.997545 -0.417062 0.249346 70.000000
2.998227 -0.426537 0.249487 72.000000
2.996904 -0.435734 0.249487 64.000000
2.994567 -0.444780 0.249417 75.000000
2.993188 -0.453965 0.249417 65.000000
2.992767 -0.463298 0.249487 72.000000
2.994287 -0.472943 0.249699 83.000000
2.992822 -0.482127 0.249699 84.000000
2.989360 -0.490984 0.249558 66.000000
2.989808 -0.500482 0.249699 70.000000
2.988258 -0.509652 0.249699 61.000000
2.985698 -0.518647 0.249628 65.000000
2.986057 -0.528151 0.249770 58.000000
2.982459 -0.536957 0.249628 68.000000
2.978835 -0.545746 0.249487 82.000000
2.977147 -0.554882 0.249487 85.000000
2.975430 -0.564013 0.249487 85.000000
2.971727 -0.572762 0.249346 69.000000
2.970935 -0.582068 0.249417 67.000000
2.967178 -0.590791 0.249275 75.000000
2.963397 -0.599497 0.249134 86.000000
2.963498 -0.608987 0.249275 76.000000
2.959662 -0.617669 0.249134 95.000000
2.959705 -0.627159 0.249275 77.000000
2.962643 -0.637283 0.249628 66.000000
2.961649 -0.646582 0.249699 78.000000
2.960625 -0.655880 0.249770 72.000000
2.963466 -0.666052 0.250123 63.000000
2.959463 -0.674698 0.249982 70.000000
2.961267 -0.684672 0.250264 59.000000
2.961095 -0.694208 0.250405 47.000000
2.957981 -0.703059 0.250335 43.000000
2.953870 -0.711664 0.250193 48.000000
2.949735 -0.720251 0.250052 76.000000
2.948479 -0.729536 0.250123 71.000000
2.948163 -0.739063 0.250264 75.000000
2.946848 -0.748349 0.250335 52.000000
2.946471 -0.757883 0.250476 43.000000
2.942201 -0.766417 0.250335 43.000000
2.936942 -0.774678 0.250123 40.000000
2.931660 -0.782914 0.249911 44.000000
2.928281 -0.791644 0.249840 26.000000
2.927763 -0.801150 0.249982 27.000000
2.922407 -0.809331 0.249770 39.000000
2.922792 -0.819099 0.249982 35.000000
2.923145 -0.828878 0.250193 42.000000
2.926342 -0.839490 0.250617 34.000000
2.930459 -0.850407 0.251112 41.000000
2.925922 -0.858833 0.250970 43.000000
2.925186 -0.868372 0.251112 47.000000
2.923464 -0.877629 0.251182 38.000000
2.920757 -0.886594 0.251182 38.000000
2.912301 -0.893797 0.250758 49.000000
2.907640 -0.902137 0.250617 49.000000
2.901051 -0.909861 0.250335 48.000000
2.895393 -0.917854 0.250123 42.000000
2.896363 -0.927948 0.250405 36.000000
2.897299 -0.938057 0.250688 42.000000
2.858377 -0.935169 0.248004 24.000000
2.849812 -0.942058 0.247580 20.000000
3.009531 -0.333030 0.211439 14.000000
3.041227 -0.345989 0.213356 41.000000
3.030236 -0.354158 0.212775 39.000000
3.030127 -0.363572 0.212833 52.000000
3.023052 -0.372134 0.212485 51.000000
3.019915 -0.381157 0.212368 69.000000
3.016752 -0.390163 0.212252 73.000000
3.004484 -0.435532 0.211904 71.000000
2.998196 -0.444016 0.211613 54.000000
2.996820 -0.453212 0.211613 63.000000
2.992455 -0.461947 0.211439 50.000000
2.999899 -0.472524 0.211962 83.000000
3.003364 -0.482518 0.212252 68.000000
3.001869 -0.491730 0.212252 65.000000
3.001331 -0.501102 0.212310 55.000000
2.999780 -0.510307 0.212310 85.000000
2.996233 -0.519167 0.212194 65.000000
2.995609 -0.528531 0.212252 73.000000
2.989060 -0.536835 0.211962 68.000000
2.986417 -0.545824 0.211904 65.000000
2.982248 -0.573475 0.211962 67.000000
2.980474 -0.582622 0.211962 79.000000
2.980631 -0.592153 0.212078 104.000000
2.973907 -0.600306 0.211788 494.000000
2.966184 -0.608223 0.211439 456.000000
2.973100 -0.619153 0.211962 578.000000
2.985837 -0.631371 0.212833 247.000000
2.976077 -0.638852 0.212368 124.000000
2.976054 -0.648404 0.212485 67.000000
2.976975 -0.658179 0.212659 42.000000
2.974942 -0.667309 0.212659 41.000000
2.969960 -0.675768 0.212485 55.000000
2.970791 -0.685550 0.212659 58.000000
2.968674 -0.694661 0.212659 45.000000
2.966529 -0.703766 0.212659 41.000000
2.958532 -0.711462 0.212310 49.000000
2.956336 -0.720536 0.212310 51.000000
2.958957 -0.730800 0.212601 47.000000
2.964448 -0.741814 0.213065 43.000000
2.965061 -0.751642 0.213240 43.000000
2.961775 -0.760486 0.213182 60.000000
2.972954 -0.773088 0.213995 45.000000
2.981187 -0.785003 0.214634 37.000000
2.971048 -0.792087 0.214169 57.000000
2.968604 -0.801199 0.214169 46.000000
2.969021 -0.811092 0.214343 52.000000
2.966518 -0.820197 0.214343 47.000000
3.056278 -0.855129 0.219920 30.000000
3.274561 -0.927074 0.233280 21.000000
3.291855 -0.942891 0.234499 40.000000
3.311959 -0.959657 0.235894 29.000000
3.354983 -0.983296 0.238682 47.000000
3.339508 -0.989894 0.237927 42.000000
3.314461 -0.993540 0.236591 32.000000
3.291335 -0.997620 0.235371 19.000000
3.037810 -0.356873 0.177020 30.000000
3.031741 -0.365595 0.176789 41.000000
3.030605 -0.374894 0.176789 49.000000
3.029441 -0.384190 0.176789 45.000000
3.024285 -0.392969 0.176604 40.000000
3.021085 -0.401983 0.176511 54.000000
3.011919 -0.410174 0.176142 46.000000
3.007678 -0.419001 0.176003 60.000000
3.005389 -0.428086 0.175957 45.000000
2.995165 -0.436012 0.175540 52.000000
2.992825 -0.445053 0.175494 56.000000
2.990458 -0.454083 0.175448 50.000000
2.991025 -0.463561 0.175540 44.000000
2.995509 -0.473669 0.175818 50.000000
2.999959 -0.483808 0.176095 54.000000
3.004375 -0.493980 0.176373 45.000000
3.000875 -0.502866 0.176280 39.000000
2.998334 -0.511902 0.176234 41.000000
2.996749 -0.521098 0.176234 46.000000
2.996120 -0.530464 0.176280 41.000000
2.992512 -0.539300 0.176188 48.000000
2.982983 -0.547039 0.175818 48.000000
2.984236 -0.556737 0.175957 44.000000
2.987422 -0.566819 0.176188 49.000000
2.989592 -0.576737 0.176373 36.000000
2.991730 -0.586674 0.176558 53.000000
2.987957 -0.595460 0.176465 43.000000
2.992970 -0.606009 0.176789 41.000000
2.999903 -0.616996 0.177205 48.000000
2.995062 -0.625585 0.177066 44.000000
2.996061 -0.635392 0.177205 41.000000
3.000934 -0.646049 0.177529 35.000000
2.995034 -0.654402 0.177344 43.000000
3.009593 -0.667257 0.178130 42.000000
2.998759 -0.674517 0.177714 44.000000
3.021026 -0.689260 0.178869 41.000000
3.073402 -0.711115 0.181459 30.000000
3.147069 -0.738310 0.185065 19.000000
3.226429 -0.767348 0.188949 36.000000
3.255138 -0.784723 0.190428 46.000000
3.273095 -0.799678 0.191399 57.000000
3.276445 -0.811154 0.191676 38.000000
3.276847 -0.821931 0.191815 30.000000
3.320786 -0.843772 0.194034 18.000000
3.315279 -0.853210 0.193896 13.000000
3.276878 -0.854068 0.192185 25.000000
3.316744 -0.875318 0.194219 43.000000
3.322729 -0.887808 0.194635 48.000000
3.332527 -0.901384 0.195236 45.000000
3.336490 -0.913448 0.195560 25.000000
3.353890 -0.929274 0.196531 16.000000
3.361605 -0.942523 0.197040 19.000000
3.365425 -0.954738 0.197363 53.000000
3.372082 -0.967811 0.197826 33.000000
3.379651 -0.981212 0.198334 25.000000
3.380459 -0.992700 0.198519 30.000000
3.385059 -1.005339 0.198889 31.000000
3.381959 -1.015720 0.198889 27.000000
3.382650 -1.027251 0.199074 13.000000
3.023508 -0.363310 0.138795 47.000000
3.025355 -0.372951 0.138896 50.000000
3.022214 -0.381980 0.138829 45.000000
3.017063 -0.390736 0.138693 38.000000
3.015659 -0.437688 0.138862 42.000000
3.015291 -0.447085 0.138896 42.000000
3.013905 -0.456333 0.138896 47.000000
3.015454 -0.466036 0.138998 47.000000
3.011049 -0.474818 0.138896 52.000000
3.011551 -0.484371 0.138964 45.000000
3.008079 -0.493284 0.138896 52.000000
2.999651 -0.501356 0.138659 49.000000
3.000069 -0.510893 0.138727 42.000000
2.995533 -0.519582 0.138626 48.000000
2.990973 -0.528247 0.138524 48.000000
2.997207 -0.538837 0.138795 49.000000
3.388813 -0.652321 0.152539 13.000000
3.386796 -0.662714 0.152539 18.000000
3.335736 -0.663350 0.150846 32.000000
3.353277 -0.677541 0.151523 42.000000
3.358036 -0.689233 0.151760 45.000000
3.342208 -0.696675 0.151286 30.000000
3.335166 -0.705891 0.151117 24.000000
3.352527 -0.720321 0.151794 42.000000
3.350301 -0.730603 0.151794 48.000000
3.349996 -0.741310 0.151862 41.000000
3.356482 -0.753555 0.152167 60.000000
3.348308 -0.762517 0.151964 30.000000
3.340110 -0.771436 0.151760 26.000000
3.332862 -0.780540 0.151591 26.000000
3.329479 -0.790530 0.151557 32.000000
3.326066 -0.800507 0.151523 34.000000
3.321653 -0.810234 0.151456 48.000000
3.319152 -0.820420 0.151456 37.000000
3.325344 -0.832786 0.151760 52.000000
3.328586 -0.844459 0.151964 49.000000
3.335659 -0.857156 0.152302 54.000000
3.331079 -0.866881 0.152234 73.000000
3.331303 -0.877861 0.152336 59.000000
3.329560 -0.888335 0.152370 48.000000
3.312347 -0.894635 0.151862 17.000000
3.321155 -0.907957 0.152268 34.000000
3.328948 -0.921075 0.152641 22.000000
3.336693 -0.934249 0.153013 34.000000
3.350157 -0.949115 0.153588 34.000000
3.367405 -0.965173 0.154299 31.000000
3.381706 -0.980511 0.154909 23.000000
3.387312 -0.993414 0.155213 24.000000
3.398621 -1.008066 0.155721 21.000000
3.396470 -1.018775 0.155755 34.000000
3.384721 -1.026579 0.155450 12.000000
3.015395 -0.371956 0.101603 37.000000
3.027134 -0.382831 0.101884 24.000000
3.020988 -0.391475 0.101776 50.000000
3.016799 -0.400348 0.101711 34.000000
3.019520 -0.410139 0.101798 40.000000
3.019238 -0.419538 0.101820 34.000000
2.998139 -0.425994 0.101387 19.000000
2.988902 -0.434043 0.101214 10.000000
2.986567 -0.443065 0.101192 6.000000
2.985194 -0.452225 0.101192 8.000000
3.415475 -0.635790 0.111038 15.000000
3.410561 -0.645708 0.110973 10.000000
3.438018 -0.661828 0.111623 20.000000
3.434009 -0.671990 0.111579 17.000000
3.430950 -0.682327 0.111558 19.000000
3.408260 -0.688699 0.111103 24.000000
3.397317 -0.697345 0.110908 47.000000
3.395161 -0.707765 0.110908 32.000000
3.378301 -0.715077 0.110584 32.000000
3.376092 -0.725438 0.110584 36.000000
3.366035 -0.734091 0.110411 29.000000
3.350101 -0.741395 0.110108 12.000000
3.348785 -0.751888 0.110129 24.000000
3.331840 -0.758833 0.109805 23.000000
3.322677 -0.767479 0.109653 27.000000
3.318359 -0.777214 0.109610 25.000000
3.304286 -0.784623 0.109350 17.000000
3.302835 -0.794990 0.109372 19.000000
3.316894 -0.809142 0.109740 22.000000
3.320220 -0.820752 0.109870 44.000000
3.320596 -0.831662 0.109935 33.000000
3.320936 -0.842582 0.110000 38.000000
3.319304 -0.853015 0.110021 43.000000
3.314736 -0.862691 0.109978 41.000000
3.315941 -0.873875 0.110065 33.000000
3.316143 -0.884816 0.110129 52.000000
3.316308 -0.895767 0.110194 37.000000
3.317402 -0.906990 0.110281 24.000000
3.319422 -0.918495 0.110389 36.000000
3.328142 -0.931905 0.110649 50.000000
3.338736 -0.945922 0.110952 34.000000
3.354080 -0.961389 0.111363 27.000000
3.371281 -0.977515 0.111817 38.000000
3.385536 -0.992912 0.112207 17.000000
3.393977 -1.006702 0.112467 23.000000
3.402365 -1.020553 0.112726 25.000000
3.403046 -1.032146 0.112813 8.000000
3.396039 -1.041410 0.112726 5.000000
3.441547 -0.663098 0.068455 14.000000
3.434590 -0.672692 0.068409 24.000000
3.427607 -0.682249 0.068363 16.000000
3.410796 -0.689787 0.068224 20.000000
3.402787 -0.699040 0.068169 25.000000
3.390838 -0.707433 0.068076 25.000000
3.375935 -0.715137 0.067956 47.000000
3.370792 -0.724860 0.067928 46.000000
3.362690 -0.733918 0.067873 53.000000
3.352612 -0.742500 0.067799 45.000000
3.345441 -0.751686 0.067752 55.000000
3.338244 -0.760834 0.067706 58.000000
3.332972 -0.770396 0.067678 47.000000
3.325725 -0.779477 0.067632 59.000000
3.323318 -0.789676 0.067632 55.000000
3.318935 -0.799400 0.067614 55.000000
3.316467 -0.809578 0.067614 43.000000
3.312997 -0.819509 0.067604 53.000000
3.308527 -0.829183 0.067586 58.000000
3.306937 -0.839576 0.067595 71.000000
3.304346 -0.849717 0.067595 78.000000
3.304626 -0.860607 0.067623 59.000000
3.308738 -0.872527 0.067688 46.000000
3.310876 -0.883964 0.067734 57.000000
3.312010 -0.895162 0.067771 60.000000
3.320822 -0.908487 0.067882 53.000000
3.325728 -0.920806 0.067956 58.000000
3.331553 -0.933434 0.068039 61.000000
3.345028 -0.948289 0.068196 44.000000
3.351715 -0.961304 0.068289 42.000000
3.369877 -0.977715 0.068492 25.000000
3.389889 -0.994810 0.068714 20.000000
3.406951 -1.011182 0.068909 11.000000
3.392340 -1.018179 0.068798 24.000000
3.405467 -1.033520 0.068955 24.000000
3.461388 -0.666319 0.024543 10.000000
3.431847 -0.671567 0.024636 22.000000
3.419962 -0.680146 0.024669 21.000000
3.407076 -0.688460 0.024706 21.000000
3.386335 -0.695095 0.024769 25.000000
3.375375 -0.703647 0.024798 37.000000
3.361460 -0.711518 0.024838 31.000000
3.353395 -0.720569 0.024858 35.000000
3.348237 -0.730216 0.024868 41.000000
3.353792 -0.742211 0.024842 26.000000
3.331984 -0.748122 0.024908 55.000000
3.325773 -0.757454 0.024921 46.000000
3.321484 -0.767204 0.024928 44.000000
3.316194 -0.776707 0.024938 52.000000
3.310876 -0.786186 0.024948 61.000000
3.309421 -0.796573 0.024944 61.000000
3.305990 -0.806486 0.024948 62.000000
3.303500 -0.816625 0.024948 51.000000
3.300979 -0.826756 0.024948 39.000000
3.301335 -0.837616 0.024938 51.000000
3.299719 -0.847989 0.024934 46.000000
3.300005 -0.858863 0.024924 49.000000
3.299289 -0.869492 0.024918 58.000000
3.300471 -0.880640 0.024905 51.000000
3.304512 -0.892585 0.024881 46.000000
3.311405 -0.905353 0.024848 38.000000
3.317286 -0.917905 0.024818 42.000000
3.326974 -0.931579 0.024775 38.000000
3.336609 -0.945321 0.024732 41.000000
3.343307 -0.958305 0.024699 47.000000
3.359562 -0.974121 0.024633 36.000000
3.366154 -0.987234 0.024599 27.000000
3.386121 -1.004374 0.024520 18.000000
3.386856 -1.015906 0.024507 37.000000
3.383723 -1.026292 0.024507 27.000000
3.388207 -1.039011 0.024480 28.000000
3.431683 -0.659959 -0.018469 14.000000
3.415904 -0.667797 -0.018249 10.000000
3.425607 -0.680613 -0.018437 17.000000
3.414682 -0.689338 -0.018296 20.000000
3.390024 -0.695189 -0.017935 31.000000
3.383960 -0.704770 -0.017872 28.000000
3.367108 -0.712044 -0.017636 31.000000
3.354154 -0.720061 -0.017464 48.000000
3.336298 -0.726940 -0.017212 67.000000
3.332100 -0.736740 -0.017181 56.000000
3.326897 -0.746303 -0.017134 48.000000
3.322642 -0.756062 -0.017102 46.000000
3.320307 -0.766252 -0.017102 46.000000
3.318914 -0.776663 -0.017118 67.000000
3.315543 -0.786611 -0.017102 75.000000
3.317002 -0.797715 -0.017165 48.000000
3.313568 -0.807651 -0.017149 61.000000
3.310104 -0.817573 -0.017134 56.000000
3.306610 -0.827481 -0.017118 69.000000
3.302117 -0.837130 -0.017087 46.000000
3.296628 -0.846511 -0.017039 56.000000
3.292080 -0.856117 -0.017008 74.000000
3.288471 -0.865958 -0.016992 69.000000
3.286765 -0.876301 -0.017008 43.000000
3.290819 -0.888205 -0.017118 56.000000
3.291936 -0.899351 -0.017181 44.000000
3.295907 -0.911313 -0.017291 62.000000
3.314279 -0.927350 -0.017636 46.000000
3.320076 -0.939966 -0.017778 51.000000
3.343129 -0.957584 -0.018202 29.000000
3.350739 -0.970898 -0.018375 39.000000
3.365016 -0.986237 -0.018657 30.000000
3.384022 -1.003095 -0.019019 33.000000
3.391464 -1.016631 -0.019191 28.000000
3.393113 -1.028482 -0.019270 28.000000
3.399502 -1.041818 -0.019427 27.000000
3.398200 -1.052835 -0.019458 13.000000
3.438483 -0.661918 -0.060580 10.000000
3.423682 -0.669972 -0.060219 10.000000
3.430435 -0.682225 -0.060469 12.000000
3.419507 -0.690967 -0.060219 12.000000
3.394848 -0.696840 -0.059581 16.000000
3.379972 -0.704604 -0.059220 26.000000
3.363124 -0.711870 -0.058804 35.000000
3.354083 -0.720717 -0.058610 33.000000
3.346972 -0.729940 -0.058471 37.000000
3.335932 -0.738264 -0.058221 36.000000
3.330725 -0.747839 -0.058138 42.000000
3.325491 -0.757390 -0.058055 48.000000
3.323152 -0.767588 -0.058055 44.000000
3.320781 -0.777780 -0.058055 41.000000
3.318379 -0.787964 -0.058055 45.000000
3.313030 -0.797441 -0.057972 53.000000
3.308626 -0.807128 -0.057916 46.000000
3.302252 -0.816317 -0.057805 59.000000
3.300702 -0.826687 -0.057833 49.000000
3.295243 -0.836073 -0.057750 59.000000
3.293631 -0.846427 -0.057777 48.000000
3.291986 -0.856779 -0.057805 36.000000
3.295142 -0.868401 -0.057972 26.000000
3.292462 -0.878506 -0.057972 43.000000
3.296507 -0.890426 -0.058166 30.000000
3.297618 -0.901588 -0.058277 40.000000
3.299653 -0.913032 -0.058415 30.000000
3.306464 -0.925843 -0.058693 23.000000
3.314188 -0.938977 -0.058998 23.000000
3.321863 -0.952166 -0.059303 23.000000
3.333328 -0.966524 -0.059720 26.000000
3.338981 -0.979275 -0.059969 28.000000
3.359922 -0.996613 -0.060663 19.000000
3.370255 -1.010932 -0.061051 31.000000
3.378618 -1.024745 -0.061384 25.000000
3.381192 -1.036862 -0.061551 34.000000
3.394228 -1.052257 -0.062023 23.000000
3.482565 -1.091332 -0.064686 7.000000
3.518616 -0.676688 -0.107721 16.000000
3.495930 -0.683451 -0.106874 13.000000
3.482057 -0.691836 -0.106391 18.000000
3.465227 -0.699548 -0.105786 15.000000
3.430764 -0.703548 -0.104456 20.000000
3.404135 -0.708974 -0.103448 32.000000
3.385326 -0.715899 -0.102763 31.000000
3.377252 -0.725022 -0.102521 29.000000
3.372083 -0.734742 -0.102400 42.000000
3.358106 -0.742494 -0.101917 52.000000
3.352888 -0.752136 -0.101796 40.000000
3.346667 -0.761532 -0.101635 49.000000
3.342368 -0.771346 -0.101554 52.000000
3.334148 -0.780230 -0.101312 43.000000
3.328823 -0.789763 -0.101191 67.000000
3.320555 -0.798570 -0.100949 53.000000
3.320031 -0.809227 -0.101030 54.000000
3.312683 -0.818210 -0.100829 37.000000
3.310157 -0.828369 -0.100829 49.000000
3.304694 -0.837784 -0.100708 60.000000
3.303076 -0.848167 -0.100748 47.000000
3.303360 -0.859052 -0.100869 47.000000
3.307472 -0.870964 -0.101151 46.000000
3.305750 -0.881365 -0.101191 62.000000
3.308818 -0.893065 -0.101433 57.000000
3.311846 -0.904793 -0.101675 48.000000
3.312906 -0.916015 -0.101836 39.000000
3.312005 -0.926713 -0.101917 40.000000
3.318760 -0.939593 -0.102320 46.000000
3.319704 -0.950871 -0.102481 26.000000
3.327327 -0.964111 -0.102924 39.000000
3.334901 -0.977408 -0.103368 35.000000
3.345298 -0.991611 -0.103932 28.000000
3.363296 -1.008184 -0.104819 23.000000
3.373574 -1.022557 -0.105383 28.000000
3.382839 -1.036710 -0.105907 16.000000
3.405411 -1.055070 -0.106995 16.000000
3.469856 -1.086722 -0.109857 6.000000
3.514475 -0.655448 -0.150355 16.000000
3.503617 -0.664555 -0.149884 28.000000
3.489794 -0.673035 -0.149256 26.000000
3.471052 -0.680478 -0.148367 17.000000
3.456215 -0.688591 -0.147686 24.000000
3.440383 -0.696422 -0.146954 17.000000
3.422578 -0.703761 -0.146116 25.000000
3.403784 -0.710793 -0.145227 39.000000
3.391817 -0.719165 -0.144703 40.000000
3.379831 -0.727469 -0.144180 18.000000
3.377584 -0.737835 -0.144180 39.000000
3.362628 -0.745389 -0.143499 32.000000
3.353505 -0.754170 -0.143133 44.000000
3.345334 -0.763124 -0.142819 43.000000
3.340057 -0.772710 -0.142662 42.000000
3.328920 -0.780904 -0.142191 50.000000
3.324565 -0.790651 -0.142086 40.000000
3.316299 -0.799445 -0.141772 32.000000
3.312860 -0.809379 -0.141720 52.000000
3.309392 -0.819299 -0.141668 32.000000
3.308800 -0.829934 -0.141772 48.000000
3.306239 -0.840081 -0.141772 42.000000
3.306548 -0.850966 -0.141929 35.000000
3.302955 -0.860855 -0.141877 38.000000
3.304161 -0.872002 -0.142086 39.000000
3.300505 -0.881878 -0.142034 38.000000
3.300676 -0.892781 -0.142191 48.000000
3.299848 -0.903430 -0.142296 38.000000
3.299948 -0.914348 -0.142453 30.000000
3.303859 -0.926353 -0.142819 28.000000
3.311570 -0.939479 -0.143395 40.000000
3.315392 -0.951561 -0.143761 29.000000
3.318212 -0.963396 -0.144075 29.000000
3.323865 -0.976101 -0.144546 29.000000
3.332344 -0.989702 -0.145174 36.000000
3.348422 -1.005660 -0.146221 23.000000
3.356789 -1.019406 -0.146849 25.000000
3.357464 -1.030871 -0.147058 35.000000
3.365732 -1.044716 -0.147686 28.000000
3.380616 -1.060711 -0.148681 23.000000
3.388770 -1.074696 -0.149309 9.000000
3.469041 -0.667148 -0.191858 24.000000
3.451308 -0.674723 -0.190823 37.000000
3.446286 -0.684724 -0.190629 39.000000
3.435365 -0.693516 -0.190046 41.000000
3.423446 -0.702047 -0.189399 43.000000
3.412484 -0.710714 -0.188817 44.000000
3.403454 -0.719734 -0.188364 46.000000
3.393424 -0.728496 -0.187846 43.000000
3.388248 -0.738266 -0.187652 38.000000
3.376224 -0.746502 -0.187005 42.000000
3.369049 -0.755764 -0.186682 43.000000
3.366715 -0.766096 -0.186682 26.000000
3.357542 -0.774850 -0.186229 39.000000
3.350291 -0.784010 -0.185905 43.000000
3.344957 -0.793593 -0.185711 41.000000
3.339596 -0.803151 -0.185517 41.000000
3.338086 -0.813629 -0.185582 57.000000
3.330730 -0.822670 -0.185258 53.000000
3.325287 -0.832157 -0.185064 55.000000
3.327554 -0.843582 -0.185388 58.000000
3.323017 -0.853290 -0.185258 65.000000
3.320384 -0.863481 -0.185258 31.000000
3.324474 -0.875443 -0.185711 52.000000
3.321773 -0.885639 -0.185711 41.000000
3.320004 -0.896086 -0.185776 44.000000
3.320126 -0.907056 -0.185970 49.000000
3.313481 -0.916174 -0.185711 48.000000
3.316420 -0.927949 -0.186099 35.000000
3.316438 -0.938935 -0.186293 42.000000
3.314501 -0.949380 -0.186358 41.000000
3.314448 -0.960378 -0.186552 50.000000
3.319147 -0.972788 -0.187070 45.000000
3.323801 -0.985237 -0.187588 41.000000
3.336056 -1.000015 -0.188623 26.000000
3.352072 -1.016037 -0.189917 20.000000
3.349893 -1.026609 -0.189982 34.000000
3.357212 -1.040131 -0.190693 28.000000
3.366385 -1.054304 -0.191535 18.000000
3.365037 -1.065230 -0.191664 31.000000
3.376960 -1.080416 -0.192699 21.000000
3.429525 -0.661432 -0.230747 9.000000
3.446072 -0.675589 -0.232202 15.000000
3.439093 -0.685186 -0.231819 23.000000
3.437952 -0.695931 -0.231895 29.000000
3.420174 -0.703268 -0.230671 37.000000
3.412143 -0.712536 -0.230211 20.000000
3.407015 -0.722382 -0.229982 35.000000
3.393085 -0.730317 -0.229063 25.000000
3.388880 -0.740299 -0.228910 35.000000
3.381726 -0.749615 -0.228527 26.000000
3.376491 -0.759331 -0.228298 45.000000
3.376090 -0.770129 -0.228451 32.000000
3.369825 -0.779586 -0.228145 38.000000
3.364506 -0.789238 -0.227915 39.000000
3.360128 -0.799096 -0.227762 53.000000
3.353783 -0.808468 -0.227456 40.000000
3.351287 -0.818753 -0.227456 24.000000
3.341016 -0.827117 -0.226844 36.000000
3.334594 -0.836394 -0.226537 32.000000
3.333945 -0.847111 -0.226690 36.000000
3.334228 -0.858080 -0.226920 29.000000
3.338334 -0.870063 -0.227456 32.000000
3.333720 -0.879793 -0.227303 29.000000
3.330042 -0.889759 -0.227226 33.000000
3.331147 -0.901011 -0.227532 29.000000
3.326444 -0.910701 -0.227379 33.000000
3.318829 -0.919573 -0.226997 36.000000
3.316953 -0.930019 -0.227073 23.000000
3.307368 -0.938288 -0.226537 25.000000
3.303516 -0.948156 -0.226461 24.000000
3.305380 -0.959675 -0.226844 37.000000
3.306247 -0.970934 -0.227150 28.000000
3.309944 -0.983058 -0.227685 42.000000
3.313597 -0.995213 -0.228221 35.000000
3.315299 -1.006822 -0.228604 28.000000
3.317914 -1.018742 -0.229063 30.000000
3.323344 -1.031574 -0.229752 25.000000
3.323969 -1.042957 -0.230058 26.000000
3.322655 -1.053753 -0.230211 17.000000
3.320356 -1.064245 -0.230288 22.000000
3.447644 -0.675250 -0.275335 21.000000
3.431881 -0.683100 -0.274093 27.000000
3.432698 -0.694219 -0.274359 42.000000
3.423722 -0.703343 -0.273738 35.000000
3.413748 -0.712215 -0.273028 41.000000
3.403751 -0.721033 -0.272318 29.000000
3.395680 -0.730215 -0.271786 31.000000
3.395370 -0.741054 -0.271963 28.000000
3.390164 -0.750821 -0.271697 44.000000
3.382985 -0.760126 -0.271254 30.000000
3.377724 -0.769837 -0.270987 42.000000
3.375346 -0.780196 -0.270987 36.000000
3.372937 -0.790548 -0.270987 32.000000
3.367588 -0.800201 -0.270721 44.000000
3.358339 -0.808895 -0.270100 42.000000
3.358744 -0.819904 -0.270366 83.000000
3.360081 -0.831162 -0.270721 39.000000
3.354616 -0.840739 -0.270455 37.000000
3.351056 -0.850782 -0.270366 70.000000
3.350359 -0.861555 -0.270544 34.000000
3.343845 -0.870826 -0.270189 34.000000
3.343084 -0.881588 -0.270366 28.000000
3.333627 -0.890041 -0.269745 28.000000
3.325112 -0.898705 -0.269213 32.000000
3.321378 -0.908639 -0.269124 42.000000
3.323374 -0.920154 -0.269568 77.000000
3.303272 -0.925506 -0.267971 43.000000
3.302333 -0.936180 -0.268148 38.000000
3.298488 -0.946032 -0.268060 39.000000
3.301310 -0.957813 -0.268592 44.000000
3.295489 -0.967095 -0.268326 40.000000
3.294416 -0.977768 -0.268503 37.000000
3.298078 -0.989876 -0.269124 64.000000
3.295026 -0.999990 -0.269124 51.000000
3.291943 -1.010094 -0.269124 48.000000
3.291682 -1.021074 -0.269390 25.000000
3.295187 -1.033255 -0.270011 32.000000
3.298648 -1.045467 -0.270633 23.000000
3.299219 -1.056798 -0.270987 18.000000
3.301647 -1.068756 -0.271520 25.000000
3.299299 -1.079190 -0.271608 12.000000
3.465946 -0.678854 -0.321586 17.000000
3.445307 -0.685800 -0.319663 30.000000
3.437336 -0.695185 -0.319055 24.000000
3.424467 -0.703529 -0.317942 21.000000
3.401839 -0.709771 -0.315816 35.000000
3.387966 -0.717734 -0.314601 39.000000
3.382830 -0.727499 -0.314298 34.000000
3.389330 -0.739780 -0.315209 30.000000
3.384130 -0.749530 -0.314905 46.000000
3.384727 -0.760563 -0.315209 37.000000
3.386258 -0.771826 -0.315614 33.000000
3.387752 -0.783107 -0.316019 41.000000
3.390177 -0.794630 -0.316525 37.000000
3.383851 -0.804108 -0.316120 32.000000
3.375564 -0.813090 -0.315512 36.000000
3.376920 -0.824385 -0.315917 33.000000
3.376307 -0.835218 -0.316120 55.000000
3.381449 -0.847505 -0.316930 24.000000
3.373047 -0.856408 -0.316322 39.000000
3.362695 -0.864773 -0.315512 49.000000
3.355212 -0.873833 -0.315006 30.000000
3.350591 -0.883616 -0.314804 24.000000
3.340174 -0.891841 -0.313994 33.000000
3.334541 -0.901307 -0.313690 26.000000
3.321203 -0.908648 -0.312577 28.000000
3.314565 -0.917773 -0.312172 48.000000
3.310775 -0.927669 -0.312071 71.000000
3.297384 -0.934841 -0.310957 24.000000
3.295457 -0.945227 -0.311058 44.000000
3.303053 -0.958378 -0.312172 30.000000
3.301052 -0.968787 -0.312273 36.000000
3.303787 -0.980607 -0.312880 34.000000
3.303622 -0.991595 -0.313184 44.000000
3.296756 -1.000571 -0.312779 52.000000
3.298426 -1.012138 -0.313285 29.000000
3.301958 -1.024314 -0.313994 26.000000
3.289306 -1.031466 -0.312982 32.000000
3.294662 -1.044255 -0.313893 39.000000
3.292390 -1.054661 -0.313994 22.000000
3.297659 -1.067512 -0.314905 24.000000
3.303825 -1.080714 -0.315917 22.000000
3.469496 -0.678906 -0.364193 21.000000
3.453754 -0.686833 -0.362611 17.000000
3.442865 -0.695653 -0.361594 26.000000
3.427089 -0.703414 -0.360011 41.000000
3.414215 -0.711694 -0.358768 30.000000
3.406184 -0.720930 -0.358090 31.000000
3.402984 -0.731168 -0.357977 26.000000
3.397813 -0.740969 -0.357638 35.000000
3.393584 -0.750960 -0.357412 36.000000
3.394172 -0.762022 -0.357751 53.000000
3.398600 -0.773976 -0.358542 46.000000
3.401049 -0.785518 -0.359107 35.000000
3.403460 -0.797082 -0.359672 47.000000
3.401966 -0.807749 -0.359785 33.000000
3.403335 -0.819113 -0.360237 34.000000
3.408529 -0.831435 -0.361142 48.000000
3.404997 -0.841650 -0.361029 54.000000
3.410109 -0.854024 -0.361933 41.000000
3.407473 -0.864482 -0.361933 33.000000
3.399031 -0.873448 -0.361255 36.000000
3.390566 -0.882370 -0.360577 59.000000
3.379196 -0.890488 -0.359559 30.000000
3.364929 -0.897776 -0.358203 30.000000
3.355444 -0.906281 -0.357412 32.000000
3.348814 -0.915523 -0.356960 29.000000
3.341202 -0.924467 -0.356394 46.000000
3.334523 -0.933641 -0.355942 48.000000
3.329731 -0.943325 -0.355716 49.000000
3.327776 -0.953810 -0.355829 45.000000
3.326743 -0.964569 -0.356055 31.000000
3.324722 -0.975050 -0.356168 34.000000
3.318857 -0.984398 -0.355829 45.000000
3.319628 -0.995717 -0.356281 34.000000
3.314656 -1.005320 -0.356055 32.000000
3.312505 -1.015776 -0.356168 47.000000
3.308425 -1.025640 -0.356055 37.000000
3.306211 -1.036082 -0.356168 54.000000
3.300175 -1.045320 -0.355829 25.000000
3.301684 -1.056955 -0.356394 37.000000
3.296535 -1.066468 -0.356168 35.000000
3.299858 -1.078738 -0.356960 22.000000
3.307854 -1.092598 -0.358316 12.000000
3.439724 -0.684690 -0.404892 16.000000
3.436635 -0.695044 -0.404767 8.000000
3.425739 -0.703790 -0.403639 25.000000
3.421622 -0.713892 -0.403388 24.000000
3.416503 -0.723770 -0.403012 33.000000
3.412327 -0.733832 -0.402761 38.000000
3.405212 -0.743241 -0.402135 50.000000
3.403885 -0.753899 -0.402260 31.000000
3.400588 -0.764121 -0.402135 41.000000
3.406934 -0.776532 -0.403263 50.000000
3.408402 -0.787873 -0.403764 41.000000
3.411765 -0.799682 -0.404516 29.000000
3.415088 -0.811520 -0.405268 26.000000
3.421263 -0.824082 -0.406396 28.000000
3.426430 -0.836454 -0.407399 45.000000
3.436369 -0.850055 -0.409028 37.000000
3.439519 -0.862039 -0.409780 30.000000
3.439744 -0.873319 -0.410156 18.000000
3.434165 -0.883127 -0.409780 13.000000
3.408637 -0.910096 -0.407524 13.000000
3.371346 -0.911241 -0.403012 16.000000
3.368535 -0.921580 -0.403012 28.000000
3.364736 -0.931646 -0.402887 32.000000
3.353263 -0.939558 -0.401759 28.000000
3.342728 -0.947679 -0.400756 32.000000
3.336943 -0.957111 -0.400380 25.000000
3.331132 -0.966515 -0.400004 34.000000
3.331960 -0.977847 -0.400505 15.000000
3.322286 -0.986091 -0.399628 27.000000
3.319245 -0.996279 -0.399628 27.000000
3.315223 -1.006169 -0.399503 46.000000
3.323503 -1.019824 -0.401007 57.000000
3.317516 -1.029135 -0.400631 27.000000
3.311503 -1.038418 -0.400255 19.000000
3.308301 -1.048573 -0.400255 30.000000
3.306014 -1.059020 -0.400380 26.000000
3.299917 -1.068242 -0.400004 18.000000
3.468399 -0.699561 -0.452599 14.000000
3.442949 -0.705425 -0.449301 32.000000
3.439799 -0.715782 -0.449163 23.000000
3.424019 -0.723464 -0.447239 30.000000
3.415004 -0.732510 -0.446277 28.000000
3.408870 -0.742141 -0.445727 36.000000
3.402708 -0.751740 -0.445177 39.000000
3.398453 -0.761743 -0.444903 39.000000
3.399963 -0.773044 -0.445452 37.000000
3.409157 -0.786144 -0.447102 35.000000
3.416374 -0.798855 -0.448476 39.000000
3.422581 -0.811390 -0.449713 22.000000
3.429706 -0.824202 -0.451088 42.000000
3.436785 -0.837066 -0.452462 26.000000
3.440932 -0.849268 -0.453424 32.000000
3.442154 -0.860782 -0.453974 26.000000
3.445258 -0.872799 -0.454799 18.000000
3.408513 -0.919350 -0.451500 19.000000
3.395166 -0.926932 -0.449988 16.000000
3.391351 -0.937080 -0.449851 30.000000
3.386553 -0.946947 -0.449576 30.000000
3.373148 -0.954364 -0.448064 26.000000
3.360682 -0.961982 -0.446689 27.000000
3.357715 -0.972288 -0.446689 33.000000
3.352815 -0.982027 -0.446414 32.000000
3.348836 -0.992028 -0.446277 40.000000
3.345778 -1.002297 -0.446277 44.000000
3.337947 -1.011121 -0.445590 32.000000
3.342406 -1.023678 -0.446689 18.000000
3.341141 -1.034514 -0.446964 43.000000
3.336061 -1.044167 -0.446689 46.000000
3.340397 -1.056788 -0.447789 21.000000
3.327705 -1.064014 -0.446414 29.000000
3.325367 -1.074523 -0.446552 21.000000
3.319231 -1.083797 -0.446140 11.000000
3.450091 -0.709409 -0.492877 15.000000
3.435314 -0.717367 -0.490938 23.000000
3.430195 -0.727288 -0.490490 16.000000
3.410546 -0.734070 -0.487805 30.000000
3.406346 -0.744108 -0.487507 33.000000
3.400185 -0.753700 -0.486910 29.000000
3.404610 -0.765645 -0.487954 41.000000
3.410923 -0.778063 -0.489297 32.000000
3.420081 -0.791194 -0.491087 25.000000
3.431116 -0.804840 -0.493176 41.000000
3.439213 -0.817876 -0.494817 29.000000
3.449185 -0.831432 -0.496756 35.000000
3.457185 -0.844587 -0.498397 19.000000
3.456497 -0.855664 -0.498696 20.000000
3.469203 -0.870109 -0.501083 16.000000
3.377236 -0.935735 -0.490192 9.000000
3.367684 -0.944225 -0.489148 18.000000
3.368577 -0.955631 -0.489744 21.000000
3.351371 -0.961874 -0.487507 23.000000
3.351253 -0.972977 -0.487954 17.000000
3.340662 -0.981028 -0.486761 19.000000
3.338584 -0.991553 -0.486910 16.000000
3.329844 -1.000087 -0.486015 21.000000
