ply
format ascii 1.0
element vertex 1274
property float x
property float y
property float z
property float intensity
end_header
2.944014 0.623733 0.321794 39.000000
2.954684 0.616531 0.322649 86.000000
2.949736 0.606059 0.321984 103.000000
2.958411 0.598390 0.322649 148.000000
2.958281 0.588922 0.322459 135.000000
2.955189 0.578884 0.321984 102.000000
2.961839 0.570759 0.322459 106.000000
2.963575 0.561669 0.322459 87.000000
2.971156 0.553671 0.323029 106.000000
2.973820 0.544733 0.323124 78.000000
2.977437 0.535960 0.323314 76.000000
2.976126 0.526302 0.323029 89.000000
2.975765 0.516827 0.322839 64.000000
2.976356 0.507528 0.322744 81.000000
2.975935 0.498065 0.322554 81.000000
2.977449 0.488932 0.322554 82.000000
2.978935 0.479795 0.322554 75.000000
2.984326 0.471276 0.322934 68.000000
2.983791 0.461813 0.322744 71.000000
2.984210 0.452507 0.322649 73.000000
2.986568 0.443496 0.322744 79.000000
2.990870 0.434762 0.323029 82.000000
2.993175 0.425725 0.323124 55.000000
2.997425 0.416952 0.323409 63.000000
2.995731 0.407351 0.323124 77.000000
2.999927 0.398553 0.323409 67.000000
3.001135 0.389347 0.323409 55.000000
3.006266 0.380640 0.323789 68.000000
3.008408 0.371537 0.323884 69.000000
3.013487 0.362783 0.324264 57.000000
3.016563 0.353769 0.324454 53.000000
3.017634 0.344513 0.324454 60.000000
3.020655 0.335474 0.324644 52.000000
3.024639 0.326526 0.324929 56.000000
3.023647 0.317037 0.324739 84.000000
3.021634 0.307456 0.324454 65.000000
3.023554 0.298282 0.324549 70.000000
3.028419 0.289385 0.324929 77.000000
3.029292 0.280093 0.324929 80.000000
3.033112 0.271064 0.325214 64.000000
3.036904 0.262016 0.325499 66.000000
3.039678 0.252863 0.325689 56.000000
3.047385 0.244095 0.326353 62.000000
3.048120 0.234745 0.326353 62.000000
3.046840 0.225245 0.326163 73.000000
3.047517 0.215896 0.326163 51.000000
3.047172 0.206478 0.326068 57.000000
3.048784 0.197193 0.326163 53.000000
3.054343 0.188146 0.326638 52.000000
3.057887 0.178950 0.326923 48.000000
3.064385 0.169901 0.327493 52.000000
3.073838 0.160971 0.328348 63.000000
3.074318 0.151540 0.328348 52.000000
3.076757 0.142200 0.328538 52.000000
3.079168 0.132846 0.328728 59.000000
3.075583 0.123238 0.328348 72.000000
3.076941 0.113839 0.328443 68.000000
3.074291 0.104296 0.328158 67.000000
3.077582 0.094957 0.328443 62.000000
3.082834 0.085655 0.328918 44.000000
3.080097 0.076121 0.328633 60.000000
3.080316 0.066671 0.328633 57.000000
3.079510 0.057202 0.328538 54.000000
3.081662 0.047786 0.328728 47.000000
3.083785 0.038356 0.328918 69.000000
3.086874 0.028924 0.329203 54.000000
3.089935 0.019474 0.329488 54.000000
3.095953 0.010016 0.330057 36.000000
3.099951 0.000519 0.330437 50.000000
3.104916 -0.009004 0.330912 42.000000
3.109851 -0.018557 0.331387 44.000000
3.110775 -0.028107 0.331482 46.000000
3.110674 -0.037650 0.331482 43.000000
3.110544 -0.047193 0.331482 40.000000
3.110384 -0.056736 0.331482 40.000000
3.107209 -0.066216 0.331197 28.000000
3.112963 -0.075892 0.331767 44.000000
3.065945 -0.084176 0.327303 11.000000
2.950533 0.692427 0.285639 46.000000
2.953614 0.683596 0.285721 70.000000
2.954726 0.674309 0.285639 55.000000
2.963587 0.666772 0.286216 48.000000
2.976321 0.660048 0.287123 43.000000
2.951070 0.644960 0.284814 79.000000
2.966675 0.638838 0.285968 171.000000
2.965696 0.629114 0.285721 221.000000
2.967613 0.620012 0.285721 228.000000
2.970477 0.611105 0.285803 184.000000
2.968431 0.601198 0.285474 202.000000
2.972216 0.592478 0.285639 195.000000
2.972064 0.582973 0.285474 190.000000
2.970902 0.573286 0.285226 130.000000
2.973627 0.564354 0.285309 168.000000
2.974364 0.555046 0.285226 102.000000
2.977033 0.546098 0.285309 105.000000
2.977714 0.536785 0.285226 103.000000
2.979347 0.527647 0.285226 109.000000
2.983897 0.519016 0.285474 107.000000
2.987440 0.510195 0.285639 93.000000
2.988992 0.501027 0.285639 93.000000
2.990515 0.491854 0.285639 83.000000
2.990042 0.482360 0.285474 73.000000
2.993476 0.473496 0.285639 82.000000
2.990976 0.463699 0.285309 92.000000
2.992384 0.454521 0.285309 86.000000
2.995736 0.445631 0.285474 61.000000
3.000047 0.436869 0.285721 64.000000
3.002360 0.427803 0.285803 71.000000
3.006620 0.419003 0.286051 82.000000
3.008879 0.409911 0.286133 77.000000
3.011110 0.400809 0.286216 61.000000
3.015290 0.391954 0.286463 53.000000
3.018770 0.364186 0.286463 60.000000
3.018883 0.354806 0.286381 71.000000
3.020948 0.345656 0.286463 54.000000
3.027937 0.337047 0.286958 50.000000
3.031929 0.328077 0.287205 67.000000
3.035895 0.319086 0.287453 85.000000
3.042809 0.310376 0.287947 68.000000
3.047714 0.301432 0.288277 76.000000
3.050608 0.292270 0.288442 58.000000
3.049506 0.282726 0.288277 54.000000
3.046388 0.273013 0.287947 50.000000
3.047211 0.263666 0.287947 56.000000
3.043040 0.253902 0.287535 75.000000
3.047778 0.244884 0.287865 48.000000
3.046528 0.235379 0.287700 42.000000
3.047236 0.226031 0.287700 49.000000
3.048909 0.216752 0.287782 45.000000
3.051548 0.207532 0.287947 74.000000
3.049187 0.197975 0.287700 46.000000
3.053759 0.188865 0.288030 66.000000
3.052335 0.179379 0.287865 56.000000
3.055856 0.170180 0.288112 57.000000
3.054373 0.160699 0.287947 57.000000
3.053856 0.151278 0.287865 48.000000
3.058288 0.142093 0.288195 42.000000
3.063688 0.132925 0.288607 45.000000
3.065077 0.123565 0.288690 45.000000
3.070421 0.114346 0.289102 52.000000
3.074742 0.105061 0.289432 48.000000
3.079034 0.095751 0.289762 55.000000
3.084294 0.086443 0.290174 59.000000
3.084545 0.076980 0.290174 60.000000
3.086759 0.067560 0.290339 54.000000
3.086952 0.058090 0.290339 56.000000
3.084126 0.048572 0.290091 71.000000
3.090240 0.039185 0.290586 49.000000
3.092339 0.029723 0.290751 60.000000
3.093412 0.020242 0.290834 60.000000
3.095453 0.010758 0.290998 45.000000
3.094475 0.001261 0.290916 37.000000
3.099447 -0.008247 0.291328 31.000000
3.102397 -0.017773 0.291576 39.000000
3.101331 -0.027282 0.291493 36.000000
3.102229 -0.036809 0.291576 29.000000
3.105091 -0.046371 0.291823 40.000000
3.049134 -0.054886 0.287205 7.000000
2.950690 0.728910 0.250264 27.000000
2.936438 0.715831 0.249063 55.000000
2.944439 0.708221 0.249487 53.000000
2.947568 0.699415 0.249558 48.000000
2.945816 0.689458 0.249275 57.000000
2.936255 0.677720 0.248428 227.000000
2.985002 0.679352 0.251818 1641.000000
2.963715 0.664941 0.250123 1510.000000
2.966715 0.656061 0.250193 1083.000000
2.949223 0.642701 0.248781 445.000000
2.972635 0.638265 0.250335 252.000000
2.971652 0.628521 0.250123 201.000000
2.968684 0.618383 0.249770 174.000000
2.971544 0.609473 0.249840 248.000000
2.968511 0.599364 0.249487 208.000000
2.968379 0.589865 0.249346 222.000000
2.968217 0.580371 0.249205 164.000000
2.970964 0.571451 0.249275 168.000000
2.971723 0.562148 0.249205 133.000000
2.972453 0.552845 0.249134 113.000000
2.972172 0.543364 0.248993 90.000000
2.972844 0.534066 0.248922 89.000000
2.976433 0.525290 0.249063 88.000000
2.980979 0.516669 0.249275 84.000000
2.984516 0.507856 0.249417 60.000000
2.988028 0.499027 0.249558 58.000000
2.991514 0.490181 0.249699 75.000000
2.993989 0.481159 0.249770 67.000000
2.994465 0.471816 0.249699 45.000000
2.999842 0.463237 0.249982 64.000000
2.999276 0.453732 0.249840 61.000000
3.003614 0.444968 0.250052 68.000000
3.003978 0.435608 0.249982 56.000000
3.004313 0.426249 0.249911 66.000000
3.008570 0.417442 0.250123 54.000000
3.008849 0.408076 0.250052 65.000000
3.008109 0.398580 0.249911 62.000000
3.009317 0.389349 0.249911 70.000000
3.008519 0.379864 0.249770 73.000000
3.007690 0.370388 0.249628 62.000000
3.009803 0.361278 0.249699 59.000000
3.011888 0.352159 0.249770 55.000000
3.016918 0.343369 0.250052 45.000000
3.021923 0.334553 0.250335 64.000000
3.027894 0.325815 0.250688 59.000000
3.029871 0.316628 0.250758 49.000000
3.037775 0.308038 0.251253 49.000000
3.037713 0.298619 0.251182 65.000000
3.041594 0.289583 0.251394 66.000000
3.041474 0.280158 0.251324 61.000000
3.041326 0.270737 0.251253 42.000000
3.045124 0.261663 0.251465 58.000000
3.046906 0.252402 0.251535 73.000000
3.048661 0.243132 0.251606 66.000000
3.051381 0.233931 0.251747 60.000000
3.051090 0.224495 0.251677 57.000000
3.053754 0.215275 0.251818 61.000000
3.054400 0.205905 0.251818 57.000000
3.052031 0.196340 0.251606 42.000000
3.056602 0.187221 0.251889 64.000000
3.055170 0.177726 0.251747 50.000000
3.053709 0.168241 0.251606 56.000000
3.054211 0.158872 0.251606 62.000000
3.054684 0.149501 0.251606 54.000000
3.055128 0.140129 0.251606 55.000000
3.057537 0.130841 0.251747 50.000000
3.064901 0.121740 0.252242 40.000000
3.067254 0.112410 0.252383 51.000000
3.076556 0.103304 0.253019 48.000000
3.083838 0.094080 0.253513 54.000000
3.087104 0.084702 0.253725 49.000000
3.094329 0.075403 0.254219 38.000000
3.092552 0.065866 0.254078 46.000000
3.092739 0.056378 0.254078 70.000000
3.092897 0.046890 0.254078 67.000000
3.088040 0.037338 0.253725 62.000000
3.087142 0.027855 0.253654 51.000000
3.084221 0.018365 0.253442 47.000000
3.087255 0.008912 0.253654 39.000000
3.089263 -0.000559 0.253795 33.000000
3.079271 -0.010008 0.253089 46.000000
3.070249 -0.019402 0.252454 24.000000
2.929510 0.753676 0.211265 51.000000
2.935679 0.745668 0.211497 40.000000
2.939889 0.737143 0.211613 46.000000
2.939230 0.727401 0.211439 66.000000
2.941447 0.718380 0.211439 52.000000
2.948490 0.710521 0.211729 59.000000
2.969110 0.705857 0.212833 211.000000
2.973206 0.697200 0.212949 310.000000
2.950042 0.682230 0.211439 402.000000
2.973535 0.678056 0.212717 309.000000
2.970731 0.667836 0.212426 244.000000
2.969842 0.658071 0.212252 238.000000
2.972822 0.649170 0.212310 224.000000
2.973824 0.639836 0.212252 262.000000
2.975773 0.630710 0.212252 262.000000
2.977693 0.621577 0.212252 235.000000
2.978609 0.612238 0.212194 268.000000
2.979494 0.602899 0.212136 211.000000
2.981330 0.593755 0.212136 196.000000
2.980199 0.584030 0.211962 177.000000
2.980016 0.574507 0.211846 144.000000
2.980783 0.565176 0.211788 105.000000
2.983485 0.556211 0.211846 108.000000
2.986159 0.547235 0.211904 98.000000
2.987824 0.538071 0.211904 99.000000
2.992410 0.529423 0.212078 95.000000
2.995004 0.520411 0.212136 104.000000
2.993634 0.510717 0.211962 92.000000
2.997156 0.501859 0.212078 68.000000
3.000652 0.492985 0.212194 77.000000
3.004121 0.484095 0.212310 82.000000
3.008550 0.475343 0.212485 86.000000
3.010981 0.466263 0.212543 79.000000
3.012397 0.457023 0.212543 67.000000
3.014773 0.447926 0.212601 63.000000
3.016133 0.438675 0.212601 58.000000
3.016476 0.429279 0.212543 72.000000
3.013824 0.419472 0.212310 62.000000
3.012129 0.409821 0.212136 47.000000
3.022279 0.401760 0.212659 37.000000
3.012607 0.391074 0.212020 58.000000
3.017070 0.363449 0.212078 76.000000
3.019162 0.354308 0.212136 59.000000
3.025195 0.345609 0.212426 73.000000
3.024256 0.336106 0.212310 57.000000
3.031228 0.327469 0.212659 44.000000
3.035197 0.318480 0.212833 59.000000
3.039140 0.309470 0.213007 56.000000
3.042062 0.300340 0.213124 76.000000
3.043962 0.291101 0.213182 52.000000
3.042853 0.281577 0.213065 56.000000
3.050663 0.272862 0.213472 59.000000
3.050492 0.263415 0.213414 51.000000
3.054270 0.254304 0.213588 68.000000
3.059016 0.245251 0.213821 52.000000
3.062740 0.236094 0.213995 56.000000
3.067433 0.226991 0.214227 65.000000
3.070106 0.217720 0.214343 77.000000
3.068768 0.208165 0.214227 48.000000
3.069392 0.198750 0.214227 47.000000
3.066998 0.189148 0.214053 70.000000
3.067564 0.179738 0.214053 62.000000
3.063117 0.170050 0.213762 66.000000
3.062627 0.160599 0.213704 76.000000
3.068091 0.151448 0.213995 40.000000
3.070536 0.142126 0.214111 67.000000
3.079934 0.133092 0.214634 40.000000
3.078332 0.123563 0.214518 66.000000
3.078697 0.114118 0.214518 47.000000
3.093999 0.105179 0.215389 34.000000
3.089318 0.095533 0.215098 53.000000
3.094586 0.086193 0.215389 65.000000
3.095834 0.076723 0.215447 55.000000
3.096055 0.067224 0.215447 60.000000
3.097245 0.057744 0.215505 49.000000
3.102398 0.048319 0.215796 36.000000
3.092549 0.038677 0.215215 43.000000
3.092654 0.029189 0.215215 42.000000
3.099717 0.019744 0.215621 39.000000
3.098764 0.010231 0.215563 33.000000
3.018916 0.000715 0.210916 5.000000
2.941138 0.735586 0.175772 39.000000
2.939502 0.725600 0.175587 53.000000
2.941714 0.716578 0.175587 64.000000
2.945841 0.708018 0.175679 45.000000
2.947027 0.698746 0.175633 42.000000
2.946240 0.689017 0.175494 49.000000
2.949313 0.680200 0.175540 53.000000
2.973899 0.666687 0.176511 147.000000
2.973004 0.656913 0.176373 162.000000
2.972078 0.647150 0.176234 227.000000
2.974049 0.638029 0.176234 191.000000
2.973061 0.628281 0.176095 161.000000
2.972040 0.618545 0.175957 145.000000
2.970010 0.608620 0.175772 137.000000
2.969905 0.599110 0.175679 126.000000
2.968790 0.589410 0.175540 93.000000
2.970584 0.580300 0.175540 91.000000
2.971370 0.570994 0.175494 81.000000
2.971145 0.561504 0.175402 72.000000
2.972853 0.552386 0.175402 94.000000
2.972569 0.542903 0.175309 80.000000
2.976187 0.534134 0.175402 90.000000
2.977812 0.525001 0.175402 83.000000
2.983345 0.516546 0.175587 72.000000
2.987870 0.507894 0.175725 65.000000
2.990399 0.498890 0.175772 80.000000
2.996844 0.490522 0.176003 68.000000
3.000308 0.481643 0.176095 65.000000
3.001771 0.472436 0.176095 63.000000
3.006168 0.463682 0.176234 60.000000
3.002638 0.453709 0.176003 55.000000
3.005004 0.444641 0.176049 73.000000
3.008331 0.435707 0.176142 53.000000
3.008665 0.426335 0.176095 70.000000
3.011938 0.417378 0.176188 47.000000
3.020133 0.409077 0.176511 39.000000
3.017413 0.399283 0.176326 73.000000
3.019614 0.390152 0.176373 74.000000
3.022779 0.381137 0.176465 53.000000
3.020960 0.371495 0.176326 61.000000
3.021093 0.362106 0.176280 62.000000
3.021198 0.352719 0.176234 46.000000
3.025244 0.343788 0.176373 45.000000
3.029263 0.334836 0.176511 50.000000
3.030275 0.325540 0.176511 42.000000
3.034240 0.316554 0.176650 67.000000
3.039172 0.307648 0.176835 48.000000
3.044079 0.298714 0.177020 52.000000
3.047964 0.289658 0.177159 50.000000
3.046849 0.280122 0.177066 65.000000
3.047694 0.270773 0.177066 58.000000
3.047515 0.261336 0.177020 41.000000
3.052284 0.252316 0.177205 65.000000
3.053044 0.242950 0.177205 59.000000
3.053775 0.233582 0.177205 67.000000
3.062447 0.224801 0.177575 32.000000
3.059137 0.215122 0.177390 66.000000
3.063769 0.206006 0.177575 54.000000
3.066380 0.196734 0.177667 63.000000
3.067966 0.187387 0.177714 58.000000
3.074511 0.178323 0.177991 47.000000
3.072051 0.168724 0.177852 66.000000
3.074549 0.159402 0.177945 64.000000
3.076021 0.150018 0.177991 56.000000
3.080458 0.140764 0.178176 40.000000
3.077882 0.131184 0.178037 60.000000
3.079268 0.121780 0.178083 49.000000
3.078629 0.112296 0.178037 53.000000
3.082952 0.102985 0.178222 47.000000
3.085251 0.093588 0.178315 45.000000
3.088519 0.084205 0.178453 44.000000
3.084768 0.074631 0.178268 47.000000
3.087979 0.065231 0.178407 36.000000
3.083170 0.055665 0.178176 47.000000
3.083327 0.046205 0.178176 45.000000
3.153374 0.037605 0.181412 14.000000
2.958143 0.693128 0.138558 31.000000
2.964150 0.684949 0.138693 46.000000
2.962340 0.674964 0.138558 54.000000
2.956596 0.664121 0.138287 62.000000
2.970329 0.657638 0.138693 46.000000
2.964521 0.646819 0.138422 52.000000
2.968446 0.638141 0.138490 61.000000
2.974301 0.629858 0.138626 60.000000
2.972306 0.619915 0.138490 65.000000
2.967340 0.609386 0.138253 94.000000
2.971155 0.600676 0.138321 97.000000
2.973964 0.591752 0.138355 87.000000
2.974785 0.582434 0.138321 81.000000
2.976557 0.573304 0.138321 91.000000
2.978302 0.564170 0.138321 71.000000
2.979037 0.554847 0.138287 79.000000
2.981708 0.545885 0.138321 79.000000
2.986320 0.537265 0.138422 61.000000
2.987954 0.528100 0.138422 61.000000
2.994484 0.519785 0.138592 61.000000
2.997050 0.510763 0.138626 59.000000
3.000574 0.501896 0.138693 83.000000
3.003086 0.492849 0.138727 60.000000
3.004584 0.483634 0.138727 53.000000
3.009015 0.474881 0.138829 75.000000
3.010458 0.465647 0.138829 76.000000
3.009896 0.456109 0.138761 64.000000
3.009304 0.446580 0.138693 62.000000
3.009671 0.437202 0.138659 66.000000
3.011987 0.428107 0.138693 68.000000
3.014277 0.419002 0.138727 61.000000
3.017529 0.410021 0.138795 78.000000
3.020754 0.401024 0.138862 63.000000
3.021970 0.391755 0.138862 55.000000
3.033386 0.364878 0.139133 52.000000
3.034491 0.355570 0.139133 58.000000
3.033581 0.346033 0.139066 63.000000
3.034629 0.336724 0.139066 56.000000
3.035647 0.327413 0.139066 62.000000
3.032662 0.317682 0.138930 77.000000
3.039588 0.308982 0.139133 61.000000
3.042511 0.299851 0.139201 42.000000
3.047396 0.290895 0.139336 62.000000
3.053250 0.282003 0.139506 48.000000
3.053106 0.272546 0.139472 66.000000
3.057910 0.263520 0.139607 59.000000
3.056713 0.253972 0.139540 50.000000
3.051500 0.244116 0.139336 43.000000
3.057217 0.235135 0.139506 57.000000
3.055930 0.225608 0.139438 57.000000
3.060596 0.216513 0.139573 53.000000
3.067229 0.207526 0.139776 65.000000
3.068848 0.198179 0.139810 54.000000
3.074430 0.189069 0.139980 50.000000
3.075993 0.179694 0.140013 47.000000
3.073536 0.170091 0.139912 55.000000
3.075042 0.160713 0.139946 62.000000
3.076519 0.151327 0.139980 62.000000
3.078965 0.141980 0.140047 61.000000
3.078387 0.132490 0.140013 54.000000
3.081775 0.123164 0.140115 50.000000
3.088131 0.113929 0.140318 48.000000
3.097456 0.104758 0.140623 34.000000
3.118741 0.095897 0.141334 32.000000
3.125015 0.086493 0.141537 36.000000
3.155239 0.077639 0.142552 29.000000
3.436237 0.073971 0.152065 17.000000
3.467425 0.063997 0.153115 34.000000
3.392657 0.052214 0.150576 7.000000
2.968464 0.647441 0.101603 36.000000
2.974345 0.639173 0.101690 46.000000
2.978249 0.630460 0.101733 54.000000
2.978211 0.620911 0.101690 39.000000
2.979123 0.611569 0.101668 38.000000
2.979025 0.602030 0.101625 38.000000
2.978897 0.592497 0.101581 40.000000
2.980701 0.583355 0.101581 50.000000
2.980514 0.573828 0.101538 52.000000
2.983243 0.564868 0.101560 45.000000
2.985944 0.555896 0.101581 57.000000
2.985669 0.546372 0.101538 70.000000
2.989299 0.537564 0.101581 64.000000
2.986996 0.527694 0.101495 58.000000
2.989586 0.518698 0.101517 55.000000
2.989192 0.509188 0.101473 49.000000
2.989754 0.499849 0.101452 41.000000
2.989301 0.490350 0.101408 52.000000
2.995726 0.481973 0.101517 57.000000
3.002128 0.473560 0.101625 49.000000
3.005543 0.464654 0.101668 64.000000
3.006954 0.455431 0.101668 57.000000
3.010315 0.446498 0.101711 51.000000
3.007713 0.436684 0.101625 58.000000
3.012008 0.427877 0.101690 41.000000
3.015287 0.418911 0.101733 52.000000
3.016558 0.409658 0.101733 62.000000
3.020774 0.400797 0.101798 52.000000
3.024964 0.391914 0.101863 49.000000
3.034086 0.383638 0.102036 48.000000
3.035249 0.374328 0.102036 47.000000
3.037376 0.365134 0.102058 52.000000
3.034510 0.355347 0.101971 37.000000
3.033599 0.345808 0.101928 44.000000
3.036633 0.336721 0.101971 46.000000
3.037652 0.327403 0.101971 51.000000
3.037648 0.317977 0.101949 61.000000
3.040598 0.308859 0.101993 55.000000
3.041532 0.299529 0.101993 49.000000
3.050398 0.290959 0.102166 59.000000
3.057249 0.282153 0.102296 56.000000
3.053122 0.272326 0.102187 42.000000
3.056931 0.263216 0.102252 41.000000
3.061709 0.254169 0.102339 54.000000
3.060482 0.244615 0.102296 64.000000
3.061217 0.235224 0.102296 49.000000
3.056940 0.225462 0.102187 61.000000
3.057617 0.216082 0.102187 52.000000
3.060260 0.206836 0.102231 50.000000
3.060881 0.197446 0.102231 53.000000
3.066461 0.188363 0.102339 44.000000
3.071017 0.179189 0.102425 52.000000
3.071552 0.169766 0.102425 49.000000
3.077051 0.160604 0.102534 49.000000
3.079526 0.151262 0.102577 46.000000
3.084969 0.142046 0.102685 33.000000
3.087388 0.132667 0.102728 47.000000
3.102764 0.123798 0.103053 34.000000
3.120114 0.114910 0.103421 47.000000
3.169412 0.107008 0.104481 24.000000
3.383572 0.103926 0.109112 19.000000
3.453831 0.095503 0.110627 27.000000
3.499084 0.086027 0.111601 29.000000
3.497332 0.075248 0.111558 24.000000
3.530533 0.065138 0.112272 11.000000
2.983610 0.602653 0.064191 59.000000
2.985445 0.593496 0.064191 49.000000
2.985289 0.583951 0.064173 39.000000
2.990012 0.575356 0.064200 44.000000
2.987833 0.565437 0.064163 51.000000
2.991520 0.556633 0.064182 55.000000
2.989279 0.546733 0.064145 62.000000
2.992910 0.537913 0.064163 69.000000
2.994547 0.528729 0.064163 59.000000
2.997140 0.519710 0.064173 59.000000
2.998720 0.510512 0.064173 69.000000
3.002245 0.501639 0.064191 56.000000
3.001796 0.492103 0.064173 63.000000
3.004279 0.483050 0.064182 67.000000
3.005747 0.473830 0.064182 70.000000
3.001257 0.463691 0.064126 38.000000
3.007609 0.455229 0.064173 54.000000
3.009981 0.446146 0.064182 72.000000
3.009356 0.436623 0.064163 53.000000
3.012662 0.427669 0.064182 49.000000
3.015941 0.418699 0.064200 49.000000
3.020184 0.409847 0.064228 58.000000
3.025392 0.401105 0.064265 64.000000
3.029583 0.392206 0.064293 80.000000
3.041008 0.365259 0.064367 77.000000
3.037148 0.355347 0.064321 59.000000
3.035243 0.345688 0.064293 58.000000
3.040265 0.336815 0.064330 63.000000
3.042278 0.327593 0.064339 68.000000
3.047247 0.318673 0.064376 50.000000
3.047216 0.309222 0.064367 59.000000
3.049145 0.299969 0.064376 45.000000
3.055028 0.291087 0.064422 56.000000
3.059890 0.282079 0.064459 49.000000
3.059745 0.272602 0.064450 61.000000
3.057578 0.262957 0.064422 58.000000
3.060364 0.253740 0.064441 61.000000
3.062124 0.244429 0.064450 47.000000
3.063857 0.235110 0.064459 52.000000
3.068553 0.226002 0.064496 57.000000
3.069232 0.216587 0.064496 37.000000
3.070879 0.207237 0.064506 59.000000
3.072499 0.197879 0.064515 57.000000
3.071095 0.188330 0.064496 48.000000
3.070660 0.178849 0.064487 43.000000
3.078184 0.169812 0.064552 44.000000
3.081686 0.160523 0.064580 47.000000
3.101140 0.151995 0.064755 50.000000
3.106587 0.142709 0.064802 54.000000
3.166952 0.135740 0.065357 33.000000
3.373183 0.134187 0.067262 22.000000
3.437534 0.126178 0.067854 40.000000
3.466887 0.116602 0.068122 37.000000
3.491216 0.106696 0.068344 35.000000
3.522515 0.096833 0.068631 24.000000
3.541788 0.086487 0.068807 21.000000
3.549035 0.075770 0.068872 20.000000
3.556250 0.065008 0.068936 24.000000
2.991011 0.575854 0.026132 19.000000
2.972132 0.562760 0.026201 36.000000
2.981709 0.555106 0.026175 47.000000
2.979463 0.545234 0.026188 43.000000
2.983090 0.536445 0.026181 45.000000
2.987676 0.527814 0.026171 53.000000
2.994207 0.519502 0.026155 56.000000
3.001701 0.511323 0.026135 47.000000
3.008187 0.502938 0.026118 43.000000
3.010703 0.493869 0.026115 50.000000
3.013191 0.484789 0.026112 40.000000
3.011701 0.475074 0.026122 62.000000
3.015121 0.466138 0.026115 43.000000
3.016536 0.456886 0.026115 42.000000
3.014957 0.447188 0.026125 51.000000
3.016314 0.437936 0.026125 50.000000
3.015664 0.428398 0.026132 52.000000
3.018945 0.419420 0.026125 49.000000
3.022199 0.410426 0.026118 60.000000
3.024435 0.401284 0.026115 50.000000
3.028627 0.392390 0.026105 52.000000
3.032793 0.383474 0.026095 64.000000
3.036932 0.374536 0.026085 54.000000
3.041045 0.365576 0.026075 52.000000
3.045132 0.356595 0.026065 42.000000
3.043231 0.346910 0.026075 50.000000
3.047263 0.337903 0.026065 48.000000
3.045302 0.328230 0.026075 56.000000
3.052262 0.319513 0.026055 37.000000
3.046264 0.309437 0.026078 57.000000
3.042224 0.299598 0.026095 51.000000
3.043128 0.290263 0.026095 69.000000
3.043009 0.280833 0.026098 53.000000
3.045848 0.271675 0.026092 50.000000
3.051649 0.262760 0.026075 54.000000
3.056427 0.253728 0.026062 51.000000
3.072143 0.245551 0.026012 39.000000
3.073879 0.236202 0.026009 60.000000
3.077580 0.226992 0.025999 62.000000
3.079260 0.217620 0.025996 47.000000
3.081908 0.208307 0.025989 51.000000
3.088520 0.199240 0.025969 38.000000
3.099098 0.190380 0.025936 46.000000
3.114642 0.181751 0.025886 53.000000
3.154124 0.174361 0.025757 29.000000
3.248514 0.169619 0.025445 26.000000
3.338908 0.164101 0.025147 35.000000
3.394337 0.156408 0.024964 45.000000
3.417779 0.146989 0.024888 33.000000
3.443193 0.137509 0.024805 53.000000
3.464584 0.127726 0.024735 32.000000
3.486947 0.117846 0.024662 27.000000
3.496288 0.107427 0.024633 41.000000
3.503598 0.096896 0.024609 36.000000
3.518874 0.086520 0.024560 39.000000
3.528121 0.075921 0.024530 29.000000
3.524338 0.065021 0.024543 19.000000
3.520521 0.054146 0.024556 25.000000
2.963564 0.552500 -0.010929 12.000000
2.972130 0.544666 -0.011039 24.000000
2.967882 0.534482 -0.010945 23.000000
2.980339 0.527289 -0.011118 24.000000
2.998689 0.521051 -0.011385 36.000000
3.001260 0.512017 -0.011401 61.000000
3.000844 0.502476 -0.011369 82.000000
3.007305 0.494078 -0.011448 48.000000
3.009794 0.485008 -0.011463 56.000000
3.013243 0.476083 -0.011495 53.000000
3.016665 0.467143 -0.011526 60.000000
3.018085 0.457885 -0.011526 51.000000
3.018486 0.448477 -0.011510 59.000000
3.018858 0.439071 -0.011495 53.000000
3.023161 0.430229 -0.011542 60.000000
3.022485 0.420677 -0.011510 50.000000
3.019799 0.410863 -0.011448 71.000000
3.021045 0.401597 -0.011448 61.000000
3.025238 0.392712 -0.011495 71.000000
3.033688 0.365449 -0.011573 71.000000
3.039760 0.356722 -0.011652 65.000000
3.044814 0.347848 -0.011715 49.000000
3.048848 0.338836 -0.011762 37.000000
3.051862 0.329695 -0.011793 51.000000
3.053853 0.320435 -0.011809 54.000000
3.057806 0.311368 -0.011856 57.000000
3.053772 0.301495 -0.011777 60.000000
3.051696 0.291839 -0.011730 67.000000
3.052577 0.282475 -0.011730 71.000000
3.053429 0.273109 -0.011730 50.000000
3.060230 0.264255 -0.011825 52.000000
3.062023 0.254948 -0.011840 45.000000
3.071761 0.246271 -0.011982 34.000000
3.081474 0.237536 -0.012123 47.000000
3.094154 0.228965 -0.012312 38.000000
3.101824 0.219966 -0.012421 55.000000
3.117448 0.211461 -0.012657 60.000000
3.134047 0.202928 -0.012908 52.000000
3.236449 0.199577 -0.014511 52.000000
3.323887 0.194724 -0.015877 44.000000
3.401342 0.188783 -0.017087 84.000000
3.396913 0.178086 -0.017008 54.000000
3.413422 0.168451 -0.017259 54.000000
3.423911 0.158439 -0.017416 63.000000
3.432372 0.148278 -0.017542 65.000000
3.444800 0.138226 -0.017731 65.000000
3.464192 0.128359 -0.018029 49.000000
3.479560 0.118238 -0.018265 41.000000
3.499894 0.108178 -0.018579 36.000000
3.509204 0.097689 -0.018720 38.000000
3.527480 0.087366 -0.019003 32.000000
3.541726 0.076846 -0.019223 27.000000
3.536947 0.065887 -0.019144 22.000000
3.534133 0.054989 -0.019097 24.000000
3.527287 0.044060 -0.018987 19.000000
3.013982 0.465962 -0.048038 32.000000
3.013421 0.456413 -0.047983 42.000000
3.013818 0.447019 -0.047955 40.000000
3.016165 0.437914 -0.047983 51.000000
3.018484 0.428800 -0.048010 46.000000
3.019785 0.419537 -0.048010 54.000000
3.017096 0.409731 -0.047899 54.000000
3.021311 0.400868 -0.047983 44.000000
3.021536 0.391468 -0.047955 51.000000
3.025698 0.382574 -0.048038 47.000000
3.032809 0.374026 -0.048205 46.000000
3.038905 0.365318 -0.048343 46.000000
3.046961 0.356810 -0.048538 48.000000
3.053007 0.348028 -0.048676 52.000000
3.057040 0.338991 -0.048759 51.000000
3.064029 0.330256 -0.048926 64.000000
3.062045 0.320541 -0.048843 45.000000
3.065004 0.311348 -0.048898 48.000000
3.062960 0.301648 -0.048815 49.000000
3.060886 0.291964 -0.048732 49.000000
3.062762 0.282664 -0.048759 54.000000
3.063615 0.273266 -0.048759 36.000000
3.061451 0.263607 -0.048676 47.000000
3.072207 0.255045 -0.048954 55.000000
3.076961 0.245938 -0.049065 59.000000
3.096637 0.237959 -0.049592 54.000000
3.181091 0.234666 -0.051923 38.000000
3.186781 0.225259 -0.052061 27.000000
3.371960 0.228022 -0.057195 59.000000
3.383617 0.218388 -0.057500 58.000000
3.389259 0.208315 -0.057639 54.000000
3.401857 0.198619 -0.057972 52.000000
3.407441 0.188459 -0.058110 47.000000
3.407005 0.177952 -0.058083 59.000000
3.411528 0.167696 -0.058194 48.000000
3.412027 0.157229 -0.058194 47.000000
3.421481 0.147150 -0.058443 45.000000
3.427909 0.136893 -0.058610 42.000000
3.442298 0.126896 -0.058998 35.000000
3.453660 0.116710 -0.059303 39.000000
3.460996 0.106331 -0.059498 26.000000
3.479292 0.096216 -0.059997 34.000000
3.491563 0.085840 -0.060330 20.000000
3.511797 0.075564 -0.060885 31.000000
3.533000 0.065184 -0.061468 20.000000
3.542180 0.054486 -0.061717 21.000000
3.564320 0.043896 -0.062328 11.000000
3.019423 0.420251 -0.086157 38.000000
3.020699 0.410985 -0.086157 45.000000
3.025907 0.402242 -0.086318 50.000000
3.024154 0.392571 -0.086197 52.000000
3.042520 0.366512 -0.086802 48.000000
3.051569 0.358107 -0.087124 63.000000
3.057617 0.349309 -0.087326 48.000000
3.061654 0.340258 -0.087447 68.000000
3.062683 0.330863 -0.087447 51.000000
3.060703 0.321153 -0.087326 70.000000
3.064656 0.312064 -0.087447 44.000000
3.069576 0.303053 -0.087608 40.000000
3.072481 0.293824 -0.087689 43.000000
3.087297 0.285684 -0.088253 40.000000
3.101097 0.277366 -0.088777 39.000000
3.095960 0.267336 -0.088535 57.000000
3.168460 0.263797 -0.091437 35.000000
3.335587 0.267389 -0.098168 45.000000
3.408121 0.262675 -0.101070 70.000000
3.408910 0.252217 -0.101070 62.000000
3.412658 0.241970 -0.101191 71.000000
3.410394 0.231296 -0.101070 54.000000
3.414079 0.221025 -0.101191 77.000000
3.411749 0.210366 -0.101070 81.000000
3.412378 0.199898 -0.101070 73.000000
3.416966 0.189649 -0.101232 76.000000
3.419527 0.179269 -0.101312 49.000000
3.424053 0.168974 -0.101473 71.000000
3.428548 0.158653 -0.101635 55.000000
3.433012 0.148305 -0.101796 53.000000
3.438442 0.137972 -0.101997 51.000000
3.460817 0.128234 -0.102884 21.000000
3.462192 0.117649 -0.102924 32.000000
3.479515 0.107550 -0.103610 25.000000
3.494811 0.097290 -0.104214 31.000000
3.510076 0.086937 -0.104819 39.000000
3.528307 0.076556 -0.105544 25.000000
3.547507 0.066082 -0.106310 24.000000
3.555686 0.055322 -0.106633 20.000000
3.558836 0.044450 -0.106754 19.000000
3.561953 0.033560 -0.106874 15.000000
3.059521 0.385784 -0.124606 31.000000
3.071592 0.377741 -0.125182 33.000000
3.063813 0.367243 -0.124711 43.000000
3.064925 0.357841 -0.124711 42.000000
3.053110 0.346966 -0.124031 57.000000
3.049197 0.337047 -0.123769 55.000000
3.048232 0.327476 -0.123664 37.000000
3.055181 0.318747 -0.123978 46.000000
3.059125 0.309675 -0.124135 46.000000
3.097826 0.304009 -0.126124 33.000000
3.115644 0.296116 -0.127014 45.000000
3.237854 0.297756 -0.133399 20.000000
3.344189 0.297229 -0.138946 36.000000
3.387867 0.290653 -0.141197 40.000000
3.411633 0.282158 -0.142400 52.000000
3.420446 0.272327 -0.142819 61.000000
3.418278 0.261602 -0.142662 54.000000
3.413090 0.250673 -0.142348 32.000000
3.412846 0.240130 -0.142296 42.000000
3.410578 0.229457 -0.142139 45.000000
3.412262 0.219056 -0.142191 35.000000
3.412919 0.208587 -0.142191 52.000000
3.415536 0.198231 -0.142296 43.000000
3.419120 0.187917 -0.142453 46.000000
3.421674 0.177531 -0.142557 44.000000
3.430182 0.167425 -0.142976 37.000000
3.434670 0.157084 -0.143185 34.000000
3.439127 0.146717 -0.143395 31.000000
3.444550 0.136365 -0.143656 34.000000
3.454932 0.126164 -0.144180 43.000000
3.468277 0.116002 -0.144860 37.000000
3.477600 0.105637 -0.145331 35.000000
3.480902 0.095050 -0.145488 48.000000
3.498149 0.084788 -0.146378 45.000000
3.511372 0.074334 -0.147058 38.000000
3.527559 0.063856 -0.147896 36.000000
3.535727 0.053156 -0.148314 25.000000
3.542863 0.042394 -0.148681 26.000000
3.553961 0.031626 -0.149256 26.000000
3.508920 0.433562 -0.192052 30.000000
3.481502 0.419337 -0.190176 36.000000
3.484753 0.408886 -0.190305 29.000000
3.469137 0.396270 -0.189205 42.000000
3.339417 0.371092 -0.180664 29.000000
3.203624 0.346071 -0.171734 34.000000
3.159017 0.331456 -0.168758 38.000000
3.315886 0.337615 -0.178917 21.000000
3.394367 0.335078 -0.183964 48.000000
3.415247 0.326560 -0.185258 45.000000
3.428157 0.317183 -0.186035 51.000000
3.428119 0.306575 -0.185970 44.000000
3.428050 0.295970 -0.185905 47.000000
3.426953 0.285286 -0.185776 52.000000
3.426817 0.274692 -0.185711 54.000000
3.421674 0.263718 -0.185323 54.000000
3.422467 0.253219 -0.185323 50.000000
3.423227 0.242718 -0.185323 48.000000
3.424952 0.232282 -0.185388 62.000000
3.430627 0.222095 -0.185711 40.000000
3.433285 0.211691 -0.185840 47.000000
3.438899 0.201448 -0.186164 53.000000
3.443486 0.191118 -0.186423 59.000000
3.452029 0.180969 -0.186940 50.000000
3.455558 0.170525 -0.187135 47.000000
3.453074 0.159785 -0.186940 52.000000
3.459530 0.149448 -0.187329 39.000000
3.465955 0.139073 -0.187717 52.000000
3.466365 0.128439 -0.187717 55.000000
3.470732 0.117939 -0.187976 51.000000
3.476065 0.107444 -0.188299 47.000000
3.487351 0.097083 -0.189011 39.000000
3.496611 0.086605 -0.189593 46.000000
3.501848 0.075985 -0.189917 43.000000
3.515036 0.065481 -0.190758 25.000000
3.527193 0.054882 -0.191535 35.000000
3.545306 0.044283 -0.192699 16.000000
3.545425 0.033406 -0.192699 24.000000
3.551498 0.022566 -0.193088 27.000000
3.576499 0.011749 -0.194705 12.000000
3.482425 0.428421 -0.231972 13.000000
3.484713 0.417854 -0.232049 23.000000
3.487959 0.407394 -0.232202 14.000000
3.481267 0.395787 -0.231589 21.000000
3.474538 0.384225 -0.230977 33.000000
3.469752 0.372923 -0.230518 20.000000
3.455014 0.360614 -0.229293 36.000000
3.460072 0.350416 -0.229599 37.000000
3.462123 0.339897 -0.229676 42.000000
3.460171 0.328989 -0.229446 47.000000
3.459179 0.318189 -0.229293 50.000000
3.460139 0.307575 -0.229293 38.000000
3.463053 0.297129 -0.229446 46.000000
3.461961 0.286338 -0.229293 32.000000
3.458848 0.275398 -0.228987 52.000000
3.446753 0.263791 -0.227992 74.000000
3.446551 0.253142 -0.227915 35.000000
3.441344 0.242145 -0.227456 44.000000
3.436102 0.231183 -0.226997 52.000000
3.432815 0.220383 -0.226690 32.000000
3.429494 0.209605 -0.226384 41.000000
3.426140 0.198850 -0.226078 36.000000
3.435693 0.188834 -0.226767 46.000000
3.436257 0.178292 -0.226767 30.000000
3.439775 0.167896 -0.226997 29.000000
3.450234 0.157801 -0.227762 49.000000
3.452694 0.147301 -0.227915 29.000000
3.464089 0.137145 -0.228757 44.000000
3.465489 0.126553 -0.228834 38.000000
3.462872 0.115820 -0.228604 31.000000
3.460222 0.105103 -0.228374 35.000000
3.461524 0.094515 -0.228451 29.000000
3.461798 0.083894 -0.228451 38.000000
3.465030 0.073338 -0.228681 42.000000
3.470223 0.062799 -0.229063 23.000000
3.487347 0.052412 -0.230365 25.000000
3.495468 0.041811 -0.230977 28.000000
3.493585 0.031069 -0.230824 14.000000
3.503634 0.020412 -0.231589 25.000000
3.497699 0.009644 -0.231130 16.000000
3.472262 0.417001 -0.273915 37.000000
3.477482 0.406809 -0.274270 20.000000
3.473765 0.395575 -0.273826 30.000000
3.475953 0.385026 -0.273915 31.000000
3.469195 0.373508 -0.273205 31.000000
3.466362 0.362449 -0.272851 37.000000
3.467457 0.351812 -0.272851 42.000000
3.470503 0.341367 -0.273028 38.000000
3.467568 0.330341 -0.272673 55.000000
3.463605 0.319245 -0.272230 37.000000
3.465561 0.308705 -0.272318 48.000000
3.467484 0.298157 -0.272407 39.000000
3.464412 0.287189 -0.272052 42.000000
3.466269 0.276638 -0.272141 48.000000
3.461143 0.265545 -0.271608 45.000000
3.460948 0.254853 -0.271520 68.000000
3.458733 0.244023 -0.271254 64.000000
3.454496 0.233076 -0.270810 50.000000
3.444261 0.221774 -0.269834 31.000000
3.442937 0.211085 -0.269657 45.000000
3.434619 0.200001 -0.268858 48.000000
3.431238 0.189244 -0.268503 34.000000
3.432797 0.178767 -0.268592 45.000000
3.436314 0.168381 -0.268858 46.000000
3.440795 0.158020 -0.269213 62.000000
3.441263 0.147463 -0.269213 65.000000
3.448666 0.137181 -0.269834 44.000000
3.456038 0.126855 -0.270455 52.000000
3.453425 0.116151 -0.270189 55.000000
3.453765 0.105556 -0.270189 41.000000
3.453077 0.094932 -0.270100 40.000000
3.454348 0.084362 -0.270189 50.000000
3.461561 0.073912 -0.270810 42.000000
3.457788 0.063219 -0.270455 46.000000
3.462945 0.052686 -0.270899 41.000000
3.474046 0.042193 -0.271875 38.000000
3.481132 0.031597 -0.272496 44.000000
3.501133 0.021034 -0.274270 19.000000
3.500185 0.010290 -0.274181 26.000000
3.528090 -0.000455 -0.276666 9.000000
3.493767 0.419559 -0.320270 16.000000
3.487133 0.407911 -0.319460 23.000000
3.485403 0.396872 -0.319157 26.000000
3.482649 0.385738 -0.318752 28.000000
3.476892 0.374304 -0.318043 44.000000
3.467141 0.362493 -0.316930 29.000000
3.461308 0.351149 -0.316221 37.000000
3.464349 0.340724 -0.316423 44.000000
3.462407 0.329810 -0.316120 29.000000
3.458449 0.318728 -0.315614 39.000000
3.461393 0.308293 -0.315816 52.000000
3.465296 0.297929 -0.316120 56.000000
3.470159 0.287626 -0.316525 38.000000
3.475984 0.277376 -0.317031 41.000000
3.479794 0.266939 -0.317335 35.000000
3.484565 0.256556 -0.317739 33.000000
3.490298 0.246216 -0.318246 42.000000
3.489052 0.235372 -0.318043 52.000000
3.488765 0.224602 -0.317942 39.000000
3.488444 0.213837 -0.317841 74.000000
3.478159 0.202494 -0.316727 31.000000
3.469824 0.191326 -0.315816 38.000000
3.464434 0.180367 -0.315209 43.000000
3.457021 0.169346 -0.314399 37.000000
3.447587 0.158279 -0.313387 45.000000
3.438117 0.147272 -0.312374 71.000000
3.436565 0.136644 -0.312172 40.000000
3.435973 0.126063 -0.312071 52.000000
3.434355 0.115454 -0.311868 37.000000
3.440660 0.105101 -0.312476 34.000000
3.441961 0.094572 -0.312577 32.000000
3.446213 0.084111 -0.312982 33.000000
3.455406 0.073731 -0.313893 39.000000
3.458600 0.063186 -0.314196 31.000000
3.457783 0.052559 -0.314095 33.000000
3.468870 0.042087 -0.315209 45.000000
3.472963 0.031482 -0.315614 41.000000
3.478017 0.020858 -0.316120 30.000000
3.498957 0.010256 -0.318246 18.000000
3.499966 -0.000479 -0.318347 17.000000
3.499149 0.420844 -0.362950 14.000000
3.485621 0.408374 -0.361255 21.000000
3.483896 0.397341 -0.360916 33.000000
3.481148 0.386213 -0.360464 30.000000
3.471451 0.374360 -0.359220 24.000000
3.471594 0.363605 -0.359107 46.000000
3.468740 0.352551 -0.358655 31.000000
3.466838 0.341615 -0.358316 55.000000
3.471827 0.331355 -0.358768 48.000000
3.467880 0.320246 -0.358203 41.000000
3.470825 0.309781 -0.358429 37.000000
3.478689 0.299728 -0.359220 46.000000
3.481572 0.289218 -0.359446 46.000000
3.490367 0.279168 -0.360350 51.000000
3.494179 0.268687 -0.360690 45.000000
3.502914 0.258550 -0.361594 57.000000
3.513602 0.248502 -0.362724 48.000000
3.520296 0.238123 -0.363402 98.000000
3.514069 0.226874 -0.362611 69.000000
3.521690 0.216518 -0.363402 37.000000
3.506468 0.204788 -0.361594 72.000000
3.497159 0.193481 -0.360464 44.000000
3.484837 0.182079 -0.358994 39.000000
3.469501 0.170607 -0.357186 47.000000
3.458097 0.159415 -0.355829 52.000000
3.446658 0.148293 -0.354473 67.000000
3.441140 0.137481 -0.353795 42.000000
3.438567 0.126814 -0.353456 40.000000
3.438940 0.116264 -0.353456 42.000000
3.442260 0.105804 -0.353795 48.000000
3.445548 0.095325 -0.354134 69.000000
3.448804 0.084827 -0.354473 46.000000
3.456001 0.074394 -0.355264 42.000000
3.461180 0.063882 -0.355829 39.000000
3.468314 0.053369 -0.356620 57.000000
3.472436 0.042777 -0.357073 49.000000
3.482486 0.032214 -0.358203 34.000000
3.491511 0.021584 -0.359220 33.000000
3.492554 0.010875 -0.359333 24.000000
3.506481 0.000159 -0.360916 16.000000
3.506465 -0.010598 -0.360916 11.000000
3.524841 0.412335 -0.410156 16.000000
3.517218 0.400505 -0.409028 16.000000
3.506597 0.388398 -0.407524 25.000000
3.498895 0.376680 -0.406396 22.000000
3.492140 0.365115 -0.405393 19.000000
3.480413 0.353094 -0.403764 33.000000
3.477530 0.342025 -0.403263 51.000000
3.479551 0.331449 -0.403388 55.000000
3.479564 0.320681 -0.403263 39.000000
3.487449 0.310622 -0.404140 33.000000
3.496293 0.300604 -0.405143 48.000000
3.498187 0.289959 -0.405268 43.000000
3.502027 0.279463 -0.405644 42.000000
3.505835 0.268946 -0.406020 41.000000
3.508623 0.258335 -0.406271 40.000000
3.516326 0.248061 -0.407148 45.000000
3.524990 0.237808 -0.408151 73.000000
3.526692 0.227057 -0.408276 51.000000
3.533314 0.216602 -0.409028 19.000000
3.519105 0.204891 -0.407148 39.000000
3.509812 0.193544 -0.405895 22.000000
3.490574 0.181737 -0.403388 41.000000
3.483188 0.170636 -0.402385 27.000000
3.470811 0.159353 -0.400756 35.000000
3.459390 0.148191 -0.399252 35.000000
3.459828 0.137577 -0.399252 24.000000
3.453294 0.126705 -0.398375 38.000000
3.450691 0.116008 -0.397999 41.000000
3.454006 0.105513 -0.398375 41.000000
3.453322 0.094888 -0.398249 24.000000
3.454588 0.084318 -0.398375 45.000000
3.467725 0.073998 -0.400004 75.000000
3.453057 0.063082 -0.398124 42.000000
3.462162 0.052627 -0.399252 44.000000
3.465283 0.042042 -0.399628 27.000000
3.475317 0.031504 -0.400881 31.000000
3.478374 0.020860 -0.401257 24.000000
3.481397 0.010199 -0.401633 26.000000
3.495302 -0.000480 -0.403388 14.000000
3.507189 -0.011237 -0.404892 7.000000
3.529331 0.392795 -0.454386 17.000000
3.519687 0.380794 -0.452874 27.000000
3.512958 0.369167 -0.451775 27.000000
3.499293 0.356882 -0.449713 28.000000
3.490514 0.345170 -0.448339 37.000000
3.496487 0.334932 -0.449026 35.000000
3.495526 0.324021 -0.448751 35.000000
3.499463 0.313560 -0.449163 42.000000
3.509290 0.303589 -0.450400 34.000000
3.517114 0.293397 -0.451362 52.000000
3.524909 0.283160 -0.452325 38.000000
3.531687 0.272802 -0.453149 48.000000
3.533495 0.262038 -0.453287 31.000000
3.538234 0.251477 -0.453836 48.000000
3.539977 0.240688 -0.453974 60.000000
3.543664 0.230018 -0.454386 54.000000
3.543365 0.219084 -0.454249 34.000000
3.547975 0.208444 -0.454799 22.000000
3.546621 0.197448 -0.454524 19.000000
3.523470 0.185321 -0.451225 43.000000
3.515118 0.174070 -0.449988 37.000000
3.494857 0.162322 -0.447102 42.000000
3.484453 0.151128 -0.445590 35.000000
3.469065 0.139801 -0.443391 34.000000
3.456610 0.128680 -0.441604 45.000000
3.449069 0.117805 -0.440504 51.000000
3.441494 0.106977 -0.439405 29.000000
3.436855 0.096280 -0.438718 47.000000
3.444066 0.085908 -0.439680 35.000000
3.453226 0.075535 -0.440917 24.000000
3.477209 0.065385 -0.444215 55.000000
3.480365 0.054763 -0.444628 32.000000
3.500325 0.044334 -0.447377 31.000000
3.509359 0.033679 -0.448614 40.000000
3.516379 0.022957 -0.449576 27.000000
3.528319 0.012209 -0.451225 25.000000
3.547159 0.001389 -0.453836 11.000000
3.542407 0.380756 -0.498994 17.000000
3.527824 0.368239 -0.496607 29.000000
3.515165 0.356014 -0.494518 30.000000
3.506400 0.344259 -0.493027 34.000000
3.505471 0.333312 -0.492728 34.000000
3.498600 0.321828 -0.491535 50.000000
3.494647 0.310654 -0.490789 42.000000
3.503464 0.300610 -0.491982 45.000000
3.504370 0.289860 -0.491982 48.000000
3.513128 0.279738 -0.493176 44.000000
3.525800 0.269868 -0.494966 39.000000
3.535487 0.259704 -0.496309 45.000000
3.546131 0.249554 -0.497801 38.000000
3.557732 0.239407 -0.499442 39.000000
3.564370 0.228873 -0.500337 31.000000
3.570977 0.218301 -0.501232 17.000000
3.517093 0.171696 -0.492728 24.000000
3.509701 0.160541 -0.491535 24.000000
3.481528 0.148541 -0.487208 27.000000
3.487895 0.138095 -0.488103 18.000000
3.466564 0.126593 -0.484821 27.000000
3.461007 0.115757 -0.483926 23.000000
3.449485 0.104774 -0.482136 34.000000
3.447814 0.094136 -0.481837 31.000000
3.458960 0.083825 -0.483478 31.000000
3.468098 0.073404 -0.484821 32.000000
3.485114 0.063073 -0.487357 25.000000
3.492211 0.052487 -0.488402 31.000000
3.511142 0.042004 -0.491236 22.000000
3.527075 0.031378 -0.493623 20.000000
3.534075 0.020599 -0.494668 36.000000
3.541044 0.009778 -0.495712 28.000000
3.518088 0.369087 -0.538610 19.000000
3.510366 0.357393 -0.537160 18.000000
3.504571 0.345944 -0.536033 29.000000
3.502669 0.334909 -0.535549 37.000000
3.506628 0.324434 -0.536033 31.000000
3.507607 0.313674 -0.536033 37.000000
3.518386 0.303759 -0.537643 36.000000
3.525202 0.293454 -0.538610 32.000000
3.535924 0.283425 -0.540221 26.000000
3.542681 0.273030 -0.541187 37.000000
3.556297 0.263106 -0.543281 29.000000
3.562010 0.252542 -0.544087 31.000000
3.571630 0.242213 -0.545537 39.000000
3.570387 0.231127 -0.545215 23.000000
3.521281 0.152109 -0.536516 20.000000
3.508912 0.140792 -0.534422 43.000000
3.499464 0.129662 -0.532811 30.000000
3.497873 0.118858 -0.532489 32.000000
3.490329 0.107883 -0.531200 31.000000
3.473872 0.096709 -0.528461 46.000000
3.472179 0.086002 -0.528139 50.000000
3.472427 0.075350 -0.528139 60.000000
3.479549 0.064824 -0.529267 59.000000
3.491573 0.054331 -0.531200 38.000000
3.493697 0.043644 -0.531522 38.000000
3.499736 0.032980 -0.532489 29.000000
3.506729 0.022286 -0.533616 24.000000
3.505795 0.011524 -0.533455 13.000000
3.532656 0.368745 -0.584782 18.000000
3.517112 0.356212 -0.581842 27.000000
3.516228 0.345227 -0.581496 22.000000
3.504525 0.333222 -0.579247 41.000000
3.496704 0.321653 -0.577691 49.000000
3.500617 0.311187 -0.578210 45.000000
3.506462 0.300868 -0.579075 55.000000
3.519147 0.291087 -0.581150 29.000000
3.532787 0.281310 -0.583398 37.000000
3.544436 0.271300 -0.585301 48.000000
3.554091 0.261077 -0.586858 38.000000
3.563718 0.250797 -0.588414 43.000000
3.578228 0.240793 -0.590836 29.000000
3.506749 0.138848 -0.577345 20.000000
3.505190 0.128016 -0.576999 31.000000
3.499660 0.117063 -0.575961 37.000000
3.494096 0.106144 -0.574923 29.000000
3.485544 0.095179 -0.573367 24.000000
3.477943 0.084291 -0.571983 29.000000
3.481139 0.073684 -0.572502 33.000000
3.478395 0.062949 -0.571983 34.000000
3.475616 0.052232 -0.571464 29.000000
3.490533 0.041750 -0.574059 25.000000
3.496554 0.031096 -0.575096 25.000000
3.493678 0.020350 -0.574577 33.000000
3.508498 0.009677 -0.577172 12.000000
3.529076 0.368999 -0.626827 9.000000
3.520413 0.357179 -0.624982 23.000000
3.529317 0.347146 -0.626458 17.000000
3.525474 0.335851 -0.625535 35.000000
3.519637 0.324403 -0.624244 30.000000
3.528447 0.314300 -0.625720 38.000000
3.535270 0.303978 -0.626827 40.000000
3.545981 0.293941 -0.628671 48.000000
3.553724 0.283607 -0.629962 49.000000
3.561437 0.273229 -0.631254 39.000000
3.567160 0.262662 -0.632176 51.000000
3.573832 0.252131 -0.633283 45.000000
3.584394 0.241826 -0.635128 26.000000
3.521753 0.118442 -0.622215 33.000000
3.520135 0.107577 -0.621846 35.000000
3.509641 0.096481 -0.619817 49.000000
3.507956 0.085665 -0.619448 53.000000
3.504271 0.074819 -0.618710 63.000000
3.498588 0.063960 -0.617603 35.000000
3.497785 0.053212 -0.617419 32.000000
3.503829 0.042551 -0.618526 42.000000
3.507874 0.031837 -0.619263 32.000000
3.512869 0.021104 -0.620186 35.000000
3.512918 0.010326 -0.620186 36.000000
3.518830 -0.000453 -0.621293 27.000000
3.547314 -0.011343 -0.626642 7.000000
3.560040 0.371612 -0.676548 18.000000
3.559212 0.360490 -0.676156 25.000000
3.553471 0.348896 -0.674783 31.000000
3.547691 0.337340 -0.673410 32.000000
3.548709 0.326455 -0.673410 42.000000
3.550671 0.315653 -0.673607 39.000000
3.556508 0.305179 -0.674587 39.000000
3.565245 0.294915 -0.676156 40.000000
3.570043 0.284289 -0.676941 39.000000
3.574809 0.273635 -0.677725 44.000000
3.580522 0.263027 -0.678706 45.000000
3.583268 0.252180 -0.679098 49.000000
3.589895 0.241582 -0.680275 22.000000
3.561701 0.119158 -0.673410 24.000000
3.540487 0.107569 -0.669096 35.000000
3.533939 0.096516 -0.667723 33.000000
3.533238 0.085650 -0.667527 31.000000
3.520740 0.074536 -0.664977 36.000000
3.515069 0.063625 -0.663801 48.000000
3.518189 0.052886 -0.664389 35.000000
3.517354 0.042080 -0.664193 34.000000
3.514525 0.031262 -0.663605 31.000000
3.517547 0.020497 -0.664193 37.000000
3.518574 0.009709 -0.664389 33.000000
3.518587 -0.001086 -0.664389 30.000000
3.510722 -0.011857 -0.662820 20.000000
3.475369 -0.022412 -0.655760 6.000000
3.549429 0.361366 -0.718168 25.000000
3.542733 0.349707 -0.716506 38.000000
3.543789 0.338836 -0.716506 42.000000
3.544812 0.327963 -0.716506 53.000000
3.549699 0.317434 -0.717337 42.000000
3.557478 0.307130 -0.718791 41.000000
3.562303 0.296539 -0.719622 33.000000
3.571972 0.286311 -0.721492 36.000000
3.571858 0.275276 -0.721284 57.000000
3.580490 0.264893 -0.722946 50.000000
3.583237 0.254045 -0.723361 54.000000
3.584975 0.243116 -0.723569 56.000000
3.591561 0.232495 -0.724815 32.000000
3.538346 0.120229 -0.712351 20.000000
3.545542 0.109583 -0.713805 57.000000
3.540972 0.098570 -0.712766 73.000000
3.535391 0.087561 -0.711520 59.000000
3.531731 0.076630 -0.710689 43.000000
3.516301 0.065505 -0.707365 34.000000
3.518442 0.054747 -0.707781 55.000000
3.515658 0.043916 -0.707157 63.000000
3.511864 0.033093 -0.706327 52.000000
3.512928 0.022325 -0.706534 38.000000
3.513958 0.011550 -0.706742 34.000000
3.511042 0.000769 -0.706119 48.000000
3.518853 -0.010026 -0.707781 44.000000
3.515872 -0.020804 -0.707157 24.000000
3.587218 0.362706 -0.770171 17.000000
