ply
format ascii 1.0
element vertex 1273
property float x
property float y
property float z
property float intensity
end_header
3.104449 -0.200303 0.560240 41.000000
3.106771 -0.210025 0.560740 39.000000
3.107096 -0.219624 0.560907 37.000000
3.107391 -0.229228 0.561074 42.000000
3.105690 -0.238685 0.560907 36.000000
3.109857 -0.248603 0.561742 28.000000
3.110062 -0.258224 0.561909 38.000000
3.110238 -0.267849 0.562076 39.000000
3.110384 -0.277477 0.562243 31.000000
3.110500 -0.287108 0.562410 33.000000
3.108623 -0.296556 0.562243 26.000000
3.098867 -0.305226 0.560740 8.000000
3.053182 0.549832 0.520064 24.000000
3.049017 0.539431 0.519135 38.000000
3.049685 0.529905 0.518980 52.000000
3.049348 0.520214 0.518670 64.000000
3.048981 0.510531 0.518360 57.000000
3.053458 0.501654 0.518825 51.000000
3.055958 0.492441 0.518980 39.000000
3.053551 0.482447 0.518360 49.000000
3.056969 0.473378 0.518670 44.000000
3.057430 0.463850 0.518515 62.000000
3.057862 0.454322 0.518360 53.000000
3.061196 0.445223 0.518670 51.000000
3.059613 0.435412 0.518205 49.000000
3.059957 0.425887 0.518050 48.000000
3.062228 0.416630 0.518205 55.000000
3.063491 0.407234 0.518205 59.000000
3.067666 0.398214 0.518670 35.000000
3.067893 0.388677 0.518515 51.000000
3.067110 0.379021 0.518205 53.000000
3.066297 0.369373 0.517896 46.000000
3.068397 0.360079 0.518050 40.000000
3.067524 0.350440 0.517741 54.000000
3.071530 0.341354 0.518205 44.000000
3.073545 0.332035 0.518360 41.000000
3.072584 0.322398 0.518050 57.000000
3.074542 0.313070 0.518205 56.000000
3.077454 0.303830 0.518515 45.000000
3.073454 0.293917 0.517741 54.000000
3.074342 0.284487 0.517741 60.000000
3.072248 0.274790 0.517276 64.000000
3.070124 0.265108 0.516811 60.000000
3.073876 0.255933 0.517276 64.000000
3.071692 0.246265 0.516811 66.000000
3.069479 0.236613 0.516347 72.000000
3.073146 0.227413 0.516811 62.000000
3.073829 0.217984 0.516811 45.000000
3.075469 0.208619 0.516966 65.000000
3.081024 0.199501 0.517741 64.000000
3.084580 0.190230 0.518205 67.000000
3.089094 0.180996 0.518825 82.000000
3.091607 0.171628 0.519135 61.000000
3.092120 0.162142 0.519135 61.000000
3.092602 0.152655 0.519135 72.000000
3.092069 0.143120 0.518980 50.000000
3.092494 0.133633 0.518980 67.000000
3.087954 0.123948 0.518205 73.000000
3.084370 0.114327 0.517586 51.000000
3.079835 0.066874 0.516657 50.000000
3.086940 0.057553 0.517741 43.000000
3.091053 0.048143 0.518360 48.000000
3.095138 0.038709 0.518980 47.000000
3.099194 0.029250 0.519599 54.000000
3.097293 0.019729 0.519290 48.000000
3.102278 0.010242 0.520064 35.000000
3.106247 0.000725 0.520683 61.000000
3.102283 -0.008793 0.520064 54.000000
3.102241 -0.018311 0.520064 54.000000
3.103158 -0.027837 0.520219 51.000000
3.104046 -0.037369 0.520374 52.000000
3.106880 -0.046937 0.520838 55.000000
3.101595 -0.065895 0.520064 50.000000
3.107058 -0.085087 0.520993 50.000000
3.105795 -0.094589 0.520838 48.000000
3.106477 -0.104150 0.520993 49.000000
3.106143 -0.113680 0.520993 39.000000
3.105780 -0.123209 0.520993 44.000000
3.106375 -0.132779 0.521148 36.000000
3.105953 -0.142309 0.521148 51.000000
3.104514 -0.151789 0.520993 56.000000
3.105020 -0.161364 0.521148 64.000000
3.105497 -0.170944 0.521303 47.000000
3.105945 -0.180528 0.521458 46.000000
3.109320 -0.190298 0.522077 55.000000
3.107736 -0.199773 0.521923 59.000000
3.108094 -0.209373 0.522077 38.000000
3.109408 -0.219046 0.522387 53.000000
3.107736 -0.228512 0.522232 51.000000
3.105050 -0.237894 0.521923 51.000000
3.108245 -0.247734 0.522542 43.000000
3.108455 -0.257350 0.522697 49.000000
3.112573 -0.267309 0.523471 31.000000
3.116658 -0.277295 0.524246 40.000000
3.114809 -0.286765 0.524091 40.000000
3.114898 -0.296414 0.524246 29.000000
3.064814 -0.301132 0.516502 8.000000
3.048150 -0.308938 0.514024 6.000000
3.065752 0.561609 0.484147 19.000000
3.062590 0.551323 0.483432 35.000000
3.063293 0.541751 0.483289 25.000000
3.053240 0.530314 0.481573 47.000000
3.052901 0.520611 0.481287 50.000000
3.053508 0.511078 0.481144 74.000000
3.052132 0.501226 0.480715 48.000000
3.056587 0.492333 0.481144 36.000000
3.059060 0.483108 0.481287 64.000000
3.065418 0.474479 0.482002 49.000000
3.063924 0.464626 0.481573 57.000000
3.067292 0.455516 0.481859 43.000000
3.070634 0.446389 0.482145 54.000000
3.073949 0.437245 0.482431 52.000000
3.072335 0.427402 0.482002 43.000000
3.073632 0.417975 0.482002 47.000000
3.064943 0.368998 0.479857 55.000000
3.063112 0.359246 0.479428 54.000000
3.058300 0.349171 0.478571 50.000000
3.062308 0.340116 0.478999 43.000000
3.063337 0.330719 0.478999 57.000000
3.062369 0.321112 0.478714 67.000000
3.065308 0.311917 0.478999 59.000000
3.068221 0.302706 0.479285 59.000000
3.065194 0.292913 0.478714 72.000000
3.065093 0.283417 0.478571 75.000000
3.062991 0.273746 0.478142 74.000000
3.062830 0.264262 0.477999 71.000000
3.066585 0.255112 0.478428 87.000000
3.071300 0.246020 0.478999 71.000000
3.075000 0.236825 0.479428 70.000000
3.079661 0.227684 0.480000 76.000000
3.081332 0.218305 0.480143 55.000000
3.080012 0.208716 0.479857 60.000000
3.077675 0.199073 0.479428 74.000000
3.076296 0.189507 0.479142 54.000000
3.075875 0.180010 0.478999 66.000000
3.076412 0.170572 0.478999 47.000000
3.076921 0.161133 0.478999 71.000000
3.076412 0.151644 0.478857 71.000000
3.077852 0.142251 0.478999 57.000000
3.081240 0.132936 0.479428 66.000000
3.078667 0.123363 0.478999 61.000000
3.076064 0.113806 0.478571 52.000000
3.080355 0.104504 0.479142 61.000000
3.080661 0.095053 0.479142 62.000000
3.086874 0.085768 0.480000 46.000000
3.089102 0.076347 0.480286 55.000000
3.094269 0.066979 0.481001 48.000000
3.097428 0.057542 0.481430 48.000000
3.102538 0.048117 0.482145 68.000000
3.099703 0.038560 0.481716 56.000000
3.098816 0.029041 0.481573 42.000000
3.099881 0.019540 0.481716 40.000000
3.096957 0.010019 0.481287 44.000000
3.101922 0.000520 0.482002 34.000000
3.096960 -0.008984 0.481287 34.000000
3.095928 -0.018479 0.481144 63.000000
3.098826 -0.028003 0.481573 39.000000
3.101694 -0.037545 0.482002 57.000000
3.104534 -0.047105 0.482431 36.000000
3.104374 -0.056629 0.482431 40.000000
3.103197 -0.066132 0.482288 52.000000
3.106937 -0.075747 0.482860 39.000000
3.106690 -0.085279 0.482860 43.000000
3.104435 -0.094750 0.482574 53.000000
3.101162 -0.104175 0.482145 61.000000
3.100828 -0.113689 0.482145 40.000000
3.101454 -0.123240 0.482288 59.000000
3.102050 -0.132797 0.482431 52.000000
3.096684 -0.142088 0.481716 57.000000
3.096234 -0.151588 0.481716 54.000000
3.096742 -0.161138 0.481859 40.000000
3.098210 -0.170746 0.482145 40.000000
3.098660 -0.180307 0.482288 48.000000
3.094140 -0.189572 0.481716 44.000000
3.095520 -0.199190 0.482002 44.000000
3.095881 -0.208753 0.482145 43.000000
3.095227 -0.218250 0.482145 29.000000
3.096516 -0.227889 0.482431 45.000000
3.091856 -0.237087 0.481859 42.000000
3.092100 -0.246650 0.482002 53.000000
3.092315 -0.256216 0.482145 25.000000
3.099403 -0.266377 0.483289 33.000000
3.101529 -0.276147 0.483718 28.000000
3.100667 -0.285661 0.483718 32.000000
3.095835 -0.294799 0.483146 21.000000
3.057486 -0.300629 0.477713 5.000000
3.054400 0.530724 0.443887 32.000000
3.055037 0.521184 0.443756 44.000000
3.055643 0.511645 0.443625 34.000000
3.053286 0.501626 0.443101 34.000000
3.055789 0.492414 0.443232 42.000000
3.057285 0.483036 0.443232 48.000000
3.063651 0.474412 0.443887 41.000000
3.065093 0.465011 0.443887 56.000000
3.067485 0.455751 0.444018 46.000000
3.067888 0.446195 0.443887 58.000000
3.071205 0.437060 0.444149 39.000000
3.070568 0.427363 0.443887 63.000000
3.068918 0.417540 0.443494 56.000000
3.068219 0.407861 0.443232 47.000000
3.069455 0.398446 0.443232 50.000000
3.072631 0.389276 0.443494 48.000000
3.073810 0.379848 0.443494 58.000000
3.072993 0.370179 0.443232 62.000000
3.075099 0.360865 0.443363 49.000000
3.076191 0.351429 0.443363 68.000000
3.077255 0.341989 0.443363 55.000000
3.077304 0.332441 0.443232 60.000000
3.072393 0.322378 0.442446 72.000000
3.073368 0.312951 0.442446 60.000000
3.074314 0.303520 0.442446 87.000000
3.078191 0.294370 0.442839 76.000000
3.078093 0.284833 0.442708 77.000000
3.077965 0.275300 0.442577 94.000000
3.080770 0.266026 0.442839 89.000000
3.083548 0.256738 0.443101 76.000000
3.081356 0.247039 0.442708 75.000000
3.083088 0.237660 0.442839 70.000000
3.080837 0.227981 0.442446 96.000000
3.080533 0.218458 0.442315 79.000000
3.079210 0.208872 0.442053 72.000000
3.076868 0.199233 0.441660 81.000000
3.073507 0.189549 0.441135 90.000000
3.078033 0.180350 0.441660 75.000000
3.078572 0.170906 0.441660 83.000000
3.079082 0.161460 0.441660 77.000000
3.084514 0.152256 0.442315 82.000000
3.086947 0.142884 0.442577 72.000000
3.090342 0.133541 0.442970 80.000000
3.092718 0.124138 0.443232 79.000000
3.092094 0.114613 0.443101 89.000000
3.096462 0.067233 0.443494 64.000000
3.093680 0.057678 0.443101 50.000000
3.092851 0.048171 0.442970 55.000000
3.091993 0.038670 0.442839 60.000000
3.091105 0.029174 0.442708 45.000000
3.092172 0.019697 0.442839 66.000000
3.091226 0.010207 0.442708 57.000000
3.091243 0.000723 0.442708 43.000000
3.097179 -0.008778 0.443494 74.000000
3.101103 -0.018304 0.444018 46.000000
3.103015 -0.027836 0.444280 58.000000
3.103906 -0.037368 0.444412 48.000000
3.101795 -0.046860 0.444149 48.000000
3.097267 -0.075309 0.443625 49.000000
3.094049 -0.084729 0.443232 23.000000
3.100710 -0.094434 0.444149 64.000000
3.102388 -0.104013 0.444412 53.000000
3.105026 -0.113639 0.444805 57.000000
3.104663 -0.123165 0.444805 30.000000
3.107242 -0.132817 0.445198 49.000000
3.107810 -0.142394 0.445329 51.000000
3.106369 -0.151880 0.445198 57.000000
3.107868 -0.161512 0.445460 46.000000
3.110327 -0.171210 0.445853 61.000000
3.110777 -0.180810 0.445984 51.000000
3.113176 -0.190534 0.446377 52.000000
3.112577 -0.200085 0.446377 46.000000
3.115906 -0.209900 0.446901 54.000000
3.117225 -0.219598 0.447163 47.000000
3.114558 -0.229015 0.446901 42.000000
3.112853 -0.238493 0.446770 51.000000
3.110130 -0.247884 0.446508 61.000000
3.107379 -0.257261 0.446246 38.000000
3.110526 -0.267133 0.446770 47.000000
3.106730 -0.276411 0.446377 46.000000
3.104880 -0.285850 0.446246 48.000000
3.112870 -0.296220 0.447426 20.000000
3.115893 -0.306157 0.447950 7.000000
3.055072 0.531179 0.405700 34.000000
3.056688 0.521804 0.405700 56.000000
3.063170 0.513246 0.406294 47.000000
3.065710 0.504008 0.406413 47.000000
3.067242 0.494600 0.406413 67.000000
3.070706 0.485498 0.406651 51.000000
3.072181 0.476075 0.406651 69.000000
3.073627 0.466647 0.406651 66.000000
3.069152 0.456337 0.405937 48.000000
3.067590 0.446489 0.405581 68.000000
3.068946 0.437075 0.405581 56.000000
3.064372 0.426834 0.404867 58.000000
3.065667 0.417431 0.404867 73.000000
3.068752 0.369999 0.404510 89.000000
3.068887 0.360466 0.404391 93.000000
3.065046 0.350483 0.403797 109.000000
3.071041 0.341629 0.404391 91.000000
3.070100 0.331991 0.404154 87.000000
3.069129 0.322363 0.403916 92.000000
3.072079 0.313147 0.404154 82.000000
3.073026 0.303721 0.404154 95.000000
3.076908 0.294576 0.404510 86.000000
3.078786 0.285227 0.404629 106.000000
3.079647 0.275780 0.404629 108.000000
3.082456 0.266503 0.404867 99.000000
3.083259 0.257044 0.404867 108.000000
3.081064 0.247344 0.404510 111.000000
3.078839 0.237660 0.404154 143.000000
3.082524 0.228435 0.404510 128.000000
3.082220 0.218906 0.404391 119.000000
3.083868 0.209516 0.404510 112.000000
3.082514 0.199925 0.404272 115.000000
3.084105 0.190529 0.404391 120.000000
3.085665 0.181124 0.404510 111.000000
3.087198 0.171712 0.404629 102.000000
3.086719 0.162188 0.404510 113.000000
3.089185 0.152816 0.404748 116.000000
3.087656 0.143245 0.404510 94.000000
3.088081 0.133771 0.404510 92.000000
3.088477 0.124297 0.404510 90.000000
3.087851 0.114784 0.404391 85.000000
3.088189 0.105310 0.404391 102.000000
3.088498 0.095835 0.404391 73.000000
3.089770 0.086387 0.404510 82.000000
3.090020 0.076907 0.404510 69.000000
3.092227 0.067471 0.404748 64.000000
3.091426 0.057965 0.404629 59.000000
3.093575 0.048512 0.404867 67.000000
3.093709 0.039021 0.404867 56.000000
3.096793 0.029559 0.405224 56.000000
3.097862 0.020065 0.405343 47.000000
3.093938 0.010545 0.404867 57.000000
3.093956 0.001053 0.404867 57.000000
3.093944 -0.008439 0.404867 58.000000
3.095890 -0.017942 0.405105 37.000000
3.096813 -0.027448 0.405224 61.000000
3.095721 -0.036937 0.405105 50.000000
3.098572 -0.046478 0.405462 54.000000
3.108342 -0.056160 0.406651 38.000000
3.105177 -0.065634 0.406294 54.000000
3.104961 -0.075160 0.406294 54.000000
3.104716 -0.084686 0.406294 46.000000
3.106426 -0.094270 0.406532 50.000000
3.106123 -0.103800 0.406532 59.000000
3.107774 -0.113401 0.406770 48.000000
3.104435 -0.122818 0.406413 52.000000
3.107019 -0.132467 0.406770 59.000000
3.108582 -0.142089 0.407008 60.000000
3.111107 -0.151769 0.407364 54.000000
3.112610 -0.161415 0.407602 59.000000
3.119040 -0.171343 0.408435 39.000000
3.120482 -0.181025 0.408673 36.000000
3.121894 -0.190718 0.408910 38.000000
3.120303 -0.200232 0.408792 42.000000
3.116703 -0.209605 0.408435 40.000000
3.113073 -0.218958 0.408078 40.000000
3.109416 -0.228291 0.407721 44.000000
3.105731 -0.237603 0.407364 39.000000
3.107957 -0.247366 0.407721 45.000000
3.110152 -0.257144 0.408078 43.000000
3.116273 -0.267276 0.408910 35.000000
3.122362 -0.277448 0.409743 47.000000
3.128418 -0.287659 0.410575 51.000000
3.135428 -0.298005 0.411527 44.000000
3.138452 -0.308009 0.412003 47.000000
3.164165 -0.320326 0.415213 15.000000
3.072031 0.534335 0.369369 33.000000
3.074636 0.525075 0.369476 47.000000
3.076232 0.515639 0.369476 39.000000
3.074857 0.505715 0.369155 36.000000
3.076393 0.496279 0.369155 54.000000
3.077902 0.486839 0.369155 41.000000
3.080363 0.477546 0.369262 51.000000
3.074933 0.467049 0.368515 55.000000
3.073401 0.457174 0.368194 57.000000
3.071837 0.447314 0.367874 57.000000
3.071226 0.437607 0.367660 65.000000
3.071569 0.428046 0.367554 69.000000
3.071883 0.418486 0.367447 68.000000
3.071181 0.408798 0.367233 58.000000
3.075379 0.399757 0.367554 78.000000
3.074618 0.390070 0.367340 72.000000
3.074814 0.380514 0.367233 83.000000
3.075967 0.371079 0.367233 70.000000
3.077091 0.361640 0.367233 100.000000
3.081150 0.352537 0.367554 86.000000
3.083205 0.343192 0.367660 89.000000
3.084243 0.333731 0.367660 99.000000
3.087230 0.324475 0.367874 106.000000
3.088211 0.315002 0.367874 104.000000
3.087184 0.305330 0.367660 118.000000
3.090086 0.296047 0.367874 118.000000
3.090979 0.286565 0.367874 123.000000
3.094815 0.277347 0.368194 162.000000
3.097632 0.268022 0.368408 162.000000
3.103395 0.258930 0.368942 171.000000
3.106156 0.249567 0.369155 207.000000
3.106907 0.240036 0.369155 239.000000
3.108621 0.230577 0.369262 207.000000
3.105346 0.220757 0.368835 252.000000
3.105017 0.211161 0.368728 210.000000
3.104658 0.201570 0.368621 177.000000
3.106254 0.192105 0.368728 188.000000
3.101866 0.182284 0.368194 162.000000
3.103404 0.172822 0.368301 158.000000
3.099948 0.163091 0.367874 126.000000
3.101426 0.153629 0.367981 115.000000
3.097910 0.143929 0.367554 125.000000
3.095357 0.134295 0.367233 93.000000
3.092774 0.124678 0.366913 100.000000
3.091155 0.115116 0.366699 100.000000
3.093551 0.067708 0.366806 81.000000
3.094738 0.058235 0.366913 58.000000
3.096890 0.048771 0.367126 58.000000
3.101997 0.039332 0.367660 49.000000
3.105085 0.029844 0.367981 62.000000
3.107151 0.020330 0.368194 63.000000
3.107199 0.010797 0.368194 65.000000
3.110200 0.001266 0.368515 50.000000
3.111184 -0.008279 0.368621 66.000000
3.110150 -0.017818 0.368515 66.000000
3.109086 -0.027351 0.368408 53.000000
3.104016 -0.036830 0.367874 51.000000
3.103889 -0.046353 0.367874 46.000000
3.107306 -0.075015 0.368301 53.000000
3.109050 -0.084602 0.368515 48.000000
3.111757 -0.094231 0.368835 54.000000
3.118409 -0.104010 0.369583 44.000000
3.121056 -0.113685 0.369903 63.000000
3.118706 -0.123181 0.369689 53.000000
3.120300 -0.132834 0.369903 43.000000
3.118885 -0.142360 0.369796 51.000000
3.118433 -0.151928 0.369796 49.000000
3.119938 -0.161598 0.370010 47.000000
3.120420 -0.171224 0.370116 65.000000
3.121866 -0.180911 0.370330 54.000000
3.125266 -0.190731 0.370757 51.000000
3.126650 -0.200446 0.370971 49.000000
3.128997 -0.210238 0.371291 68.000000
3.124370 -0.219557 0.370864 38.000000
3.123681 -0.229141 0.370864 62.000000
3.121972 -0.238648 0.370757 46.000000
3.121225 -0.248225 0.370757 45.000000
3.124413 -0.258127 0.371184 46.000000
3.124597 -0.267797 0.371291 41.000000
3.123760 -0.277381 0.371291 47.000000
3.126855 -0.287328 0.371718 60.000000
3.136847 -0.297955 0.372893 38.000000
3.128002 -0.306800 0.372039 35.000000
3.130014 -0.316696 0.372359 34.000000
3.087493 -0.321961 0.367874 9.000000
3.060424 0.541243 0.331197 37.000000
3.063050 0.532022 0.331292 43.000000
3.060743 0.521951 0.330912 43.000000
3.065275 0.513053 0.331197 52.000000
3.060941 0.502676 0.330627 46.000000
3.060503 0.492965 0.330437 83.000000
3.067901 0.484507 0.331007 56.000000
3.066422 0.474635 0.330722 57.000000
3.067864 0.465225 0.330722 58.000000
3.071246 0.456104 0.330912 68.000000
3.069676 0.446249 0.330627 71.000000
3.073001 0.437110 0.330817 70.000000
3.070384 0.427130 0.330437 87.000000
3.072666 0.417843 0.330532 73.000000
3.079703 0.370781 0.330627 89.000000
3.081814 0.361447 0.330722 90.000000
3.082909 0.351990 0.330722 103.000000
3.081995 0.342310 0.330532 104.000000
3.088969 0.333496 0.331102 162.000000
3.089978 0.324018 0.331102 201.000000
3.088976 0.314334 0.330912 250.000000
3.089926 0.304856 0.330912 242.000000
3.085892 0.294899 0.330437 317.000000
3.082818 0.285062 0.330057 328.000000
3.086653 0.275870 0.330342 300.000000
3.086493 0.266313 0.330247 323.000000
3.087295 0.256843 0.330247 289.000000
3.087076 0.247290 0.330152 293.000000
3.085835 0.237664 0.329962 328.000000
3.086550 0.228196 0.329962 320.000000
3.087235 0.218725 0.329962 297.000000
3.089878 0.209388 0.330152 298.000000
3.094480 0.200166 0.330532 349.000000
3.096073 0.190733 0.330627 312.000000
3.099625 0.181409 0.330912 331.000000
3.098179 0.171788 0.330722 326.000000
3.099685 0.162334 0.330817 290.000000
3.106134 0.153120 0.331387 236.000000
3.106590 0.143590 0.331387 190.000000
3.094086 0.133496 0.330152 126.000000
3.095476 0.124043 0.330247 127.000000
3.095842 0.114545 0.330247 125.000000
3.096179 0.105047 0.330247 96.000000
3.097481 0.095578 0.330342 116.000000
3.096765 0.086047 0.330247 101.000000
3.098010 0.076571 0.330342 152.000000
3.093254 0.066956 0.329868 103.000000
3.089463 0.057391 0.329488 84.000000
3.082658 0.047801 0.328823 69.000000
3.083785 0.038356 0.328918 45.000000
3.086874 0.028924 0.329203 71.000000
3.089935 0.019474 0.329488 66.000000
3.094958 0.010012 0.329962 65.000000
3.100947 0.000520 0.330532 66.000000
3.107902 -0.009011 0.331197 54.000000
3.113833 -0.018579 0.331767 72.000000
3.111770 -0.028115 0.331577 55.000000
3.113660 -0.037685 0.331767 50.000000
3.109548 -0.047179 0.331387 41.000000
3.110384 -0.056736 0.331482 56.000000
3.110195 -0.066278 0.331482 61.000000
3.111968 -0.075868 0.331672 58.000000
3.112715 -0.085442 0.331767 55.000000
3.114429 -0.095051 0.331957 48.000000
3.119097 -0.104771 0.332432 50.000000
3.120750 -0.114412 0.332622 43.000000
3.117401 -0.123868 0.332337 61.000000
3.117006 -0.133432 0.332337 55.000000
3.112605 -0.142813 0.331957 64.000000
3.113146 -0.152410 0.332052 45.000000
3.112664 -0.161960 0.332052 50.000000
3.110164 -0.171400 0.331862 50.000000
3.107636 -0.180826 0.331672 42.000000
3.110048 -0.190541 0.331957 57.000000
3.112429 -0.200272 0.332242 36.000000
3.116765 -0.210153 0.332717 43.000000
3.117099 -0.219784 0.332812 47.000000
3.119389 -0.229564 0.333097 34.000000
3.118670 -0.239133 0.333097 54.000000
3.121891 -0.249015 0.333477 46.000000
3.123097 -0.258755 0.333667 38.000000
3.120304 -0.268166 0.333477 29.000000
3.113517 -0.277210 0.332907 30.000000
3.120583 -0.287488 0.333667 44.000000
3.082027 -0.293489 0.330057 9.000000
3.078140 -0.302652 0.329773 9.000000
3.065392 0.533181 0.292318 38.000000
3.063084 0.523103 0.291988 37.000000
3.065658 0.513868 0.292070 35.000000
3.059353 0.503167 0.291411 43.000000
3.062850 0.494096 0.291576 51.000000
3.058445 0.483764 0.291081 41.000000
3.059915 0.474378 0.291081 65.000000
3.064312 0.465437 0.291328 47.000000
3.069668 0.456620 0.291658 55.000000
3.071055 0.447200 0.291658 40.000000
3.075372 0.438197 0.291905 54.000000
3.078676 0.429035 0.292070 57.000000
3.084916 0.420260 0.292483 81.000000
3.087178 0.410925 0.292565 57.000000
3.088424 0.401452 0.292565 74.000000
3.085686 0.391473 0.292235 68.000000
3.093796 0.382861 0.292813 51.000000
3.089020 0.372652 0.292318 79.000000
3.088169 0.362941 0.292153 80.000000
3.088278 0.353351 0.292070 104.000000
3.089348 0.343875 0.292070 100.000000
3.098315 0.335252 0.292730 143.000000
3.092390 0.325017 0.292153 181.000000
3.095356 0.315730 0.292318 200.000000
3.094326 0.306036 0.292153 223.000000
3.095251 0.296541 0.292153 201.000000
3.097138 0.287136 0.292235 207.000000
3.096020 0.277455 0.292070 180.000000
3.096856 0.267955 0.292070 247.000000
3.102630 0.258866 0.292483 313.000000
3.107383 0.249665 0.292813 415.000000
3.099191 0.239441 0.292070 319.000000
3.099911 0.229932 0.292070 342.000000
3.097620 0.220209 0.291823 320.000000
3.101264 0.210907 0.292070 261.000000
3.107863 0.201778 0.292565 239.000000
3.105484 0.192058 0.292318 193.000000
3.104069 0.182413 0.292153 180.000000
3.112574 0.173331 0.292813 241.000000
3.112096 0.163729 0.292730 257.000000
3.112583 0.154180 0.292730 260.000000
3.114038 0.144676 0.292813 204.000000
3.111480 0.134993 0.292565 235.000000
3.111879 0.125446 0.292565 137.000000
3.107270 0.115714 0.292153 128.000000
3.102701 0.067907 0.291658 107.000000
3.104887 0.058425 0.291823 94.000000
3.107045 0.048930 0.291988 67.000000
3.105188 0.039373 0.291823 79.000000
3.109280 0.029884 0.292153 63.000000
3.112347 0.020364 0.292400 65.000000
3.111398 0.010812 0.292318 49.000000
3.113410 0.001266 0.292483 56.000000
3.114396 -0.008288 0.292565 53.000000
3.117345 -0.017860 0.292813 62.000000
3.117276 -0.027424 0.292813 46.000000
3.122159 -0.037048 0.293225 35.000000
3.115056 -0.046521 0.292648 50.000000
3.114712 -0.065634 0.292648 58.000000
3.118481 -0.075286 0.292977 57.000000
3.114250 -0.084744 0.292648 48.000000
3.115968 -0.094359 0.292813 59.000000
3.118652 -0.104018 0.293060 59.000000
3.117322 -0.113549 0.292977 45.000000
3.121938 -0.123309 0.293390 53.000000
3.122541 -0.132929 0.293472 50.000000
3.121123 -0.142463 0.293390 65.000000
3.125648 -0.152281 0.293802 48.000000
3.125166 -0.161869 0.293802 60.000000
3.124655 -0.171457 0.293802 40.000000
3.124114 -0.181042 0.293802 65.000000
3.119565 -0.190382 0.293472 59.000000
3.119961 -0.200016 0.293555 45.000000
3.121321 -0.209721 0.293720 50.000000
3.121657 -0.219366 0.293802 33.000000
3.122957 -0.229088 0.293967 55.000000
3.121246 -0.238592 0.293885 41.000000
3.122486 -0.248325 0.294049 48.000000
3.127669 -0.258397 0.294544 62.000000
3.122890 -0.267650 0.294214 38.000000
3.122054 -0.277230 0.294214 40.000000
3.111265 -0.285894 0.293390 24.000000
3.082594 -0.292795 0.291081 11.000000
3.070730 0.541970 0.255844 44.000000
3.074343 0.532888 0.255985 42.000000
3.075964 0.523453 0.255985 50.000000
3.079523 0.514343 0.256126 44.000000
3.079118 0.504570 0.255985 43.000000
3.077697 0.494645 0.255773 41.000000
3.073288 0.484266 0.255349 43.000000
3.067859 0.473767 0.254855 43.000000
3.070284 0.464502 0.254925 38.000000
3.070709 0.454934 0.254855 60.000000
3.068141 0.444937 0.254572 58.000000
3.071467 0.435803 0.254714 59.000000
3.075753 0.426790 0.254925 50.000000
3.079025 0.417621 0.255067 58.000000
3.083088 0.370103 0.254925 67.000000
3.078265 0.359946 0.254502 78.000000
3.081336 0.350726 0.254643 64.000000
3.079424 0.340941 0.254431 94.000000
3.079464 0.331385 0.254360 82.000000
3.083442 0.322247 0.254572 122.000000
3.083424 0.312685 0.254502 117.000000
3.081391 0.302930 0.254290 82.000000
3.088264 0.294044 0.254714 98.000000
3.085178 0.284201 0.254431 103.000000
3.098951 0.275889 0.255349 150.000000
3.106740 0.266981 0.255844 218.000000
3.097604 0.256621 0.255137 1016.000000
3.098376 0.247116 0.255137 1385.000000
3.103098 0.237916 0.255420 1185.000000
3.103813 0.228395 0.255420 998.000000
3.100520 0.218589 0.255137 536.000000
3.097195 0.208806 0.254855 339.000000
3.092844 0.198981 0.254502 159.000000
3.091449 0.189369 0.254360 110.000000
3.094006 0.180000 0.254502 102.000000
3.095540 0.170562 0.254572 98.000000
3.098041 0.161169 0.254714 108.000000
3.102506 0.151860 0.254996 122.000000
3.098972 0.142156 0.254714 78.000000
3.099393 0.132648 0.254714 81.000000
3.102776 0.123259 0.254925 75.000000
3.108123 0.113923 0.255279 74.000000
3.112446 0.104523 0.255561 86.000000
3.109761 0.094881 0.255349 68.000000
3.112031 0.085395 0.255490 81.000000
3.107293 0.075724 0.255137 58.000000
3.107511 0.066191 0.255137 67.000000
3.107699 0.056657 0.255137 70.000000
3.106861 0.047107 0.255067 60.000000
3.108986 0.037600 0.255208 52.000000
3.113076 0.028099 0.255490 53.000000
3.111153 0.018535 0.255349 52.000000
3.113190 0.008997 0.255490 56.000000
3.118191 -0.000554 0.255844 40.000000
3.116179 -0.010114 0.255702 38.000000
3.115136 -0.019669 0.255632 40.000000
3.116058 -0.029235 0.255702 41.000000
3.115954 -0.038794 0.255702 42.000000
3.118812 -0.048399 0.255914 48.000000
3.122639 -0.058040 0.256197 50.000000
3.119454 -0.067556 0.255985 52.000000
3.120229 -0.077151 0.256056 59.000000
3.119978 -0.086723 0.256056 58.000000
3.118700 -0.096264 0.255985 57.000000
3.118390 -0.105832 0.255985 49.000000
3.118051 -0.115398 0.255985 48.000000
3.115689 -0.124885 0.255844 41.000000
3.118280 -0.134571 0.256056 46.000000
3.120842 -0.144274 0.256267 47.000000
3.123374 -0.153994 0.256479 46.000000
3.125875 -0.163731 0.256691 37.000000
3.126354 -0.173375 0.256762 55.000000
3.121824 -0.182734 0.256479 33.000000
3.118262 -0.192128 0.256267 59.000000
3.114672 -0.201502 0.256056 37.000000
3.111053 -0.210855 0.255844 48.000000
3.112381 -0.220539 0.255985 43.000000
3.116664 -0.230453 0.256338 38.000000
3.112959 -0.239785 0.256126 46.000000
3.119169 -0.249889 0.256621 33.000000
3.125346 -0.260034 0.257115 43.000000
3.126522 -0.269792 0.257256 25.000000
3.126673 -0.279471 0.257327 40.000000
3.122821 -0.288788 0.257115 31.000000
3.098581 0.548193 0.218351 36.000000
3.096314 0.538001 0.218119 40.000000
3.094013 0.527828 0.217887 53.000000
3.094634 0.518169 0.217829 44.000000
3.094239 0.508349 0.217712 42.000000
3.086913 0.497425 0.217190 44.000000
3.085466 0.487485 0.217015 39.000000
3.080041 0.476948 0.216609 49.000000
3.076555 0.466749 0.216318 49.000000
3.076985 0.457161 0.216260 49.000000
3.073433 0.447001 0.215970 45.000000
3.074790 0.437570 0.215970 36.000000
3.075130 0.427997 0.215912 42.000000
3.076428 0.418561 0.215912 50.000000
3.086604 0.410303 0.216434 30.000000
3.087848 0.400832 0.216434 62.000000
3.090054 0.391482 0.216493 41.000000
3.090250 0.381877 0.216434 51.000000
3.092398 0.372514 0.216493 53.000000
3.088569 0.362444 0.216202 32.000000
3.093634 0.353419 0.216434 43.000000
3.094703 0.343926 0.216434 48.000000
3.117580 0.336787 0.217712 32.000000
3.108670 0.326180 0.217131 45.000000
3.108663 0.316540 0.217073 46.000000
3.119554 0.307981 0.217654 43.000000
3.123466 0.298694 0.217829 41.000000
3.110451 0.287823 0.217015 51.000000
3.104358 0.277658 0.216609 56.000000
3.104201 0.268047 0.216551 39.000000
3.103019 0.258356 0.216434 52.000000
3.099817 0.248517 0.216202 66.000000
3.103550 0.239235 0.216376 56.000000
3.108252 0.230007 0.216609 48.000000
3.111931 0.220681 0.216783 40.000000
3.108609 0.210863 0.216551 35.000000
3.120200 0.202033 0.217190 58.000000
3.114826 0.192092 0.216841 47.000000
3.114404 0.182476 0.216783 47.000000
3.112956 0.172810 0.216667 48.000000
3.112474 0.163207 0.216609 45.000000
3.109969 0.153510 0.216434 59.000000
3.110426 0.143968 0.216434 43.000000
3.103871 0.134124 0.216028 49.000000
3.108258 0.124760 0.216260 50.000000
3.108626 0.115223 0.216260 56.000000
3.119204 0.058151 0.216783 39.000000
3.122362 0.048627 0.216957 48.000000
3.125491 0.039085 0.217131 54.000000
3.126595 0.029505 0.217190 41.000000
3.125672 0.019906 0.217131 50.000000
3.123722 0.010310 0.217015 51.000000
3.125736 0.000727 0.217131 36.000000
3.123726 -0.008857 0.217015 38.000000
3.122686 -0.018434 0.216957 47.000000
3.122615 -0.028014 0.216957 51.000000
3.126507 -0.037643 0.217190 43.000000
3.126560 -0.085624 0.217248 40.000000
3.126282 -0.095216 0.217248 39.000000
3.121985 -0.104672 0.217015 38.000000
3.126637 -0.114433 0.217306 42.000000
3.129264 -0.124144 0.217480 30.000000
3.131860 -0.133872 0.217654 51.000000
3.128443 -0.143342 0.217480 36.000000
3.126991 -0.152891 0.217422 44.000000
3.127505 -0.162535 0.217480 36.000000
3.132972 -0.172460 0.217829 47.000000
3.135418 -0.182245 0.218003 39.000000
3.135841 -0.191924 0.218061 36.000000
3.134241 -0.201480 0.218003 46.000000
3.135600 -0.211229 0.218119 24.000000
3.137925 -0.221059 0.218293 50.000000
3.138227 -0.230758 0.218351 44.000000
3.137505 -0.240385 0.218351 42.000000
3.133767 -0.249771 0.218177 44.000000
3.134976 -0.259549 0.218293 42.000000
3.133170 -0.269081 0.218235 27.000000
3.125369 -0.278072 0.217829 28.000000
3.118537 -0.287109 0.217480 17.000000
3.533970 0.368882 0.199906 26.000000
3.558937 0.360462 0.201016 73.000000
3.517279 0.345330 0.199028 43.000000
3.483517 0.331217 0.197410 33.000000
3.516348 0.323467 0.198889 50.000000
3.493444 0.310547 0.197779 55.000000
3.456561 0.296570 0.196022 42.000000
3.471391 0.287121 0.196670 63.000000
3.440392 0.273922 0.195190 54.000000
3.433248 0.262753 0.194820 62.000000
3.435034 0.252292 0.194867 71.000000
3.437785 0.241894 0.194959 64.000000
3.400638 0.228785 0.193202 35.000000
3.399331 0.218222 0.193110 24.000000
3.465789 0.211836 0.196161 17.000000
3.462434 0.200969 0.195976 15.000000
3.406182 0.187202 0.193341 39.000000
3.425694 0.177741 0.194219 58.000000
3.458150 0.168799 0.195699 78.000000
3.454660 0.158005 0.195514 58.000000
3.447145 0.147062 0.195144 51.000000
3.429613 0.135768 0.194312 24.000000
3.461958 0.126423 0.195791 45.000000
3.436372 0.114925 0.194589 34.000000
3.461670 0.105148 0.195745 41.000000
3.485942 0.095190 0.196855 59.000000
3.500198 0.084838 0.197502 72.000000
3.472478 0.073498 0.196207 41.000000
3.478680 0.062955 0.196485 44.000000
3.459879 0.051990 0.195606 41.000000
3.489988 0.041744 0.196993 38.000000
3.465127 0.030806 0.195838 30.000000
3.478192 0.020255 0.196439 26.000000
3.470246 0.009559 0.196069 26.000000
3.479249 -0.001087 0.196485 30.000000
3.552151 -0.011984 0.199860 45.000000
3.621022 -0.023303 0.203050 85.000000
3.524042 -0.033522 0.198565 40.000000
3.116482 -0.115883 0.179794 4.000000
3.062571 -0.236457 0.177621 9.000000
3.056852 -0.245454 0.177390 7.000000
3.098892 -0.258384 0.179378 14.000000
3.101070 -0.268147 0.179517 11.000000
3.125229 -0.289557 0.180719 7.000000
3.604213 0.377480 0.158396 30.000000
3.599388 0.365815 0.158192 25.000000
3.576622 0.352421 0.157380 29.000000
3.554804 0.339265 0.156601 31.000000
3.541895 0.327072 0.156127 25.000000
3.514013 0.313631 0.155146 35.000000
3.499027 0.301478 0.154604 31.000000
3.476031 0.288758 0.153792 35.000000
3.464945 0.277138 0.153385 38.000000
3.468769 0.266736 0.153487 33.000000
3.466581 0.255872 0.153385 52.000000
3.466352 0.245165 0.153352 65.000000
3.468085 0.234597 0.153385 66.000000
3.470783 0.224084 0.153453 51.000000
3.469459 0.213313 0.153385 49.000000
3.469100 0.202609 0.153352 42.000000
3.473697 0.192186 0.153487 31.000000
3.477264 0.181684 0.153588 35.000000
3.471816 0.170721 0.153385 39.000000
3.463338 0.159656 0.153081 45.000000
3.479787 0.149715 0.153622 24.000000
3.477235 0.138919 0.153521 38.000000
3.482638 0.128434 0.153690 42.000000
3.480019 0.117648 0.153588 60.000000
3.483361 0.107063 0.153690 60.000000
3.491665 0.096596 0.153961 63.000000
3.483952 0.085687 0.153690 48.000000
3.471209 0.074720 0.153250 20.000000
3.472421 0.064088 0.153284 24.000000
3.494586 0.053771 0.154029 39.000000
3.512723 0.043269 0.154638 50.000000
3.524832 0.032601 0.155044 56.000000
3.543904 0.021902 0.155687 30.000000
3.553949 0.011060 0.156026 40.000000
3.563960 0.000156 0.156364 28.000000
3.578935 -0.010825 0.156872 21.000000
3.618862 -0.022053 0.158226 60.000000
3.578801 -0.032785 0.156872 15.000000
3.602406 0.377314 0.114241 15.000000
3.551827 0.360987 0.113116 24.000000
3.550928 0.349891 0.113073 22.000000
3.536062 0.337471 0.112726 34.000000
3.522148 0.325237 0.112402 22.000000
3.512176 0.313448 0.112164 25.000000
3.494195 0.301035 0.111752 35.000000
3.481154 0.289150 0.111449 35.000000
3.475049 0.277908 0.111298 56.000000
3.468908 0.266707 0.111147 43.000000
3.463728 0.255620 0.111017 60.000000
3.458512 0.244567 0.110887 65.000000
3.448274 0.233209 0.110649 33.000000
3.437001 0.221852 0.110389 18.000000
3.442655 0.211615 0.110497 41.000000
3.447280 0.201287 0.110584 37.000000
3.434905 0.189987 0.110303 26.000000
3.436470 0.179501 0.110324 22.000000
3.434009 0.168809 0.110259 34.000000
3.433512 0.158226 0.110238 29.000000
3.437976 0.147865 0.110324 40.000000
3.452399 0.137880 0.110627 44.000000
3.445812 0.127027 0.110476 27.000000
3.459175 0.116898 0.110757 16.000000
3.460517 0.106316 0.110779 21.000000
3.468822 0.095923 0.110952 31.000000
3.471099 0.085330 0.110995 39.000000
3.478341 0.074833 0.111147 54.000000
3.479554 0.064180 0.111168 43.000000
3.488731 0.053646 0.111363 38.000000
3.496877 0.043044 0.111536 53.000000
3.520985 0.032545 0.112055 36.000000
3.534065 0.021827 0.112337 51.000000
3.575106 0.011126 0.113224 20.000000
3.578122 0.000158 0.113289 24.000000
3.594102 -0.010862 0.113635 11.000000
3.596051 -0.021900 0.113678 11.000000
3.599967 -0.032968 0.113765 6.000000
3.543651 0.359534 0.068983 12.000000
3.530805 0.347292 0.068853 31.000000
3.525881 0.335890 0.068798 33.000000
3.525899 0.324979 0.068788 30.000000
3.513932 0.313008 0.068668 39.000000
3.501924 0.301114 0.068548 55.000000
3.491869 0.289462 0.068446 44.000000
3.481776 0.277873 0.068344 41.000000
3.467656 0.266044 0.068206 51.000000
3.461475 0.254891 0.068141 48.000000
3.458251 0.243989 0.068104 65.000000
3.450004 0.232774 0.068021 58.000000
3.447708 0.221996 0.067993 58.000000
3.442385 0.211051 0.067937 53.000000
3.443016 0.200489 0.067937 73.000000
3.439621 0.189705 0.067900 78.000000
3.434195 0.178840 0.067845 42.000000
3.440720 0.168596 0.067900 72.000000
3.438225 0.157902 0.067873 85.000000
3.441690 0.147481 0.067900 75.000000
3.446123 0.137080 0.067937 68.000000
3.446527 0.126507 0.067937 79.000000
3.452896 0.116133 0.067993 62.000000
3.458233 0.105692 0.068039 60.000000
3.462540 0.095191 0.068076 39.000000
3.466814 0.084665 0.068113 64.000000
3.472056 0.074135 0.068159 53.000000
3.478266 0.063591 0.068215 40.000000
3.480444 0.052950 0.068233 56.000000
3.499588 0.042500 0.068409 45.000000
3.498702 0.031755 0.068400 53.000000
3.569779 0.021439 0.069057 18.000000
3.566828 0.010479 0.069029 24.000000
3.584842 -0.000469 0.069195 12.000000
3.584824 -0.011467 0.069195 10.000000
3.550647 0.360866 0.024397 15.000000
3.532829 0.348102 0.024460 24.000000
3.526912 0.336594 0.024483 28.000000
3.511001 0.324204 0.024540 37.000000
3.499031 0.312271 0.024583 42.000000
3.483036 0.300070 0.024639 40.000000
3.474972 0.288634 0.024669 64.000000
3.465873 0.277171 0.024702 42.000000
3.453745 0.265536 0.024745 50.000000
3.444571 0.254200 0.024779 50.000000
3.441345 0.243347 0.024792 74.000000
3.437087 0.232449 0.024808 54.000000
3.435788 0.221774 0.024815 54.000000
3.433458 0.211047 0.024825 62.000000
3.435088 0.200570 0.024822 46.000000
3.433690 0.189920 0.024828 53.000000
3.435255 0.179437 0.024825 70.000000
3.435789 0.168897 0.024825 61.000000
3.434293 0.158262 0.024832 58.000000
3.432765 0.147639 0.024838 74.000000
3.434201 0.137147 0.024835 61.000000
3.434605 0.126610 0.024835 55.000000
3.439975 0.116243 0.024818 42.000000
3.446312 0.105875 0.024798 45.000000
3.453618 0.095497 0.024775 50.000000
3.464891 0.085175 0.024739 38.000000
3.476134 0.074785 0.024702 41.000000
3.489344 0.064364 0.024659 32.000000
3.496524 0.053769 0.024636 35.000000
3.511672 0.043231 0.024586 34.000000
3.525787 0.032591 0.024540 36.000000
3.554870 0.021963 0.024444 21.000000
3.566920 0.011098 0.024404 18.000000
3.563938 0.000153 0.024414 25.000000
3.588921 -0.010848 0.024331 11.000000
3.530185 0.370355 -0.019333 18.000000
3.528321 0.359219 -0.019286 32.000000
3.526421 0.348099 -0.019238 19.000000
3.512542 0.335852 -0.019003 32.000000
3.491652 0.323050 -0.018657 40.000000
3.481672 0.311358 -0.018485 40.000000
3.458702 0.298613 -0.018108 46.000000
3.450634 0.287255 -0.017966 46.000000
3.439539 0.275710 -0.017778 42.000000
3.433390 0.264619 -0.017668 53.000000
3.426208 0.253495 -0.017542 36.000000
3.426970 0.242983 -0.017542 56.000000
3.434682 0.232941 -0.017652 82.000000
3.434383 0.222338 -0.017636 85.000000
3.434051 0.211738 -0.017621 65.000000
3.436681 0.201319 -0.017652 78.000000
3.433289 0.190553 -0.017589 75.000000
3.432859 0.179967 -0.017573 67.000000
3.435392 0.169532 -0.017605 81.000000
3.432900 0.158854 -0.017558 59.000000
3.436368 0.148450 -0.017605 98.000000
3.431812 0.137707 -0.017526 73.000000
3.432218 0.127177 -0.017526 65.000000
3.437589 0.116816 -0.017605 76.000000
3.434933 0.106177 -0.017558 70.000000
3.435242 0.095638 -0.017558 66.000000
3.443516 0.085296 -0.017683 70.000000
3.447760 0.074817 -0.017746 58.000000
3.464968 0.064554 -0.018013 41.000000
3.470149 0.054000 -0.018092 23.000000
3.490294 0.043602 -0.018406 25.000000
3.510408 0.033079 -0.018720 33.000000
3.529490 0.022428 -0.019019 29.000000
3.549540 0.011663 -0.019333 38.000000
3.552559 0.000774 -0.019380 24.000000
3.558544 -0.010143 -0.019474 22.000000
3.604489 -0.021338 -0.020197 10.000000
3.520345 0.368692 -0.061634 17.000000
3.518477 0.357586 -0.061551 26.000000
3.508615 0.345708 -0.061246 24.000000
3.504683 0.334466 -0.061107 22.000000
3.488772 0.322144 -0.060635 33.000000
3.472818 0.309923 -0.060164 33.000000
3.454831 0.297630 -0.059636 40.000000
3.443774 0.286033 -0.059303 41.000000
3.437660 0.274906 -0.059109 46.000000
3.433504 0.263973 -0.058970 42.000000
3.430311 0.253142 -0.058859 44.000000
3.432068 0.242688 -0.058887 51.000000
3.429805 0.231954 -0.058804 51.000000
3.432495 0.221560 -0.058859 63.000000
3.432161 0.210966 -0.058832 48.000000
3.428800 0.200201 -0.058721 55.000000
3.426404 0.189514 -0.058637 52.000000
3.423975 0.178844 -0.058554 61.000000
3.421512 0.168190 -0.058471 66.000000
3.419016 0.157553 -0.058388 47.000000
3.417487 0.146977 -0.058332 53.000000
3.416922 0.136451 -0.058305 50.000000
3.420322 0.126079 -0.058388 50.000000
3.420692 0.115585 -0.058388 37.000000
3.428025 0.105307 -0.058582 37.000000
3.431329 0.094873 -0.058665 47.000000
3.442597 0.084620 -0.058970 37.000000
3.451834 0.074254 -0.059220 28.000000
3.468037 0.063964 -0.059664 32.000000
3.482210 0.053544 -0.060053 30.000000
3.493353 0.042999 -0.060358 27.000000
3.509461 0.032435 -0.060802 21.000000
3.528536 0.021791 -0.061329 24.000000
3.532585 0.010979 -0.061440 21.000000
3.542599 0.000145 -0.061717 26.000000
3.551579 -0.010748 -0.061967 27.000000
3.514544 -0.021430 -0.060940 11.000000
3.577450 0.375308 -0.108285 17.000000
3.560691 0.362511 -0.107560 26.000000
3.538916 0.349331 -0.106633 25.000000
3.519084 0.336477 -0.105786 24.000000
3.493236 0.323196 -0.104698 30.000000
3.476297 0.310878 -0.103972 33.000000
3.463297 0.299010 -0.103408 29.000000
3.454241 0.287555 -0.103005 43.000000
3.452119 0.276717 -0.102884 57.000000
3.451955 0.266048 -0.102844 55.000000
3.447773 0.255088 -0.102642 68.000000
3.448539 0.244510 -0.102642 45.000000
3.443292 0.233523 -0.102400 59.000000
3.438010 0.222572 -0.102159 49.000000
3.435684 0.211839 -0.102038 57.000000
3.432328 0.201064 -0.101877 72.000000
3.427940 0.190257 -0.101675 53.000000
3.429505 0.179791 -0.101715 77.000000
3.431039 0.169318 -0.101756 75.000000
3.433538 0.158883 -0.101836 74.000000
3.436006 0.148434 -0.101917 61.000000
3.436445 0.137892 -0.101917 68.000000
3.436852 0.127349 -0.101917 53.000000
3.439224 0.116872 -0.101997 52.000000
3.442563 0.106412 -0.102118 69.000000
3.443872 0.095877 -0.102159 61.000000
3.448145 0.085410 -0.102320 49.000000
3.455384 0.074982 -0.102602 39.000000
3.478575 0.064806 -0.103529 22.000000
3.487749 0.054272 -0.103892 27.000000
3.501887 0.043745 -0.104456 22.000000
3.513994 0.033113 -0.104940 26.000000
3.530066 0.022432 -0.105585 36.000000
3.546105 0.011652 -0.106230 40.000000
3.552119 0.000774 -0.106471 25.000000
3.552105 -0.010124 -0.106471 23.000000
3.554055 -0.021034 -0.106552 24.000000
3.569290 0.394735 -0.151193 28.000000
3.545662 0.381107 -0.149884 46.000000
3.544828 0.370019 -0.149780 26.000000
3.527070 0.357224 -0.148785 24.000000
3.513242 0.344933 -0.148000 40.000000
3.505337 0.333299 -0.147529 29.000000
3.494410 0.321442 -0.146901 36.000000
3.483444 0.309654 -0.146273 52.000000
3.472438 0.297937 -0.145645 46.000000
3.467365 0.286787 -0.145331 62.000000
3.459269 0.275431 -0.144860 53.000000
3.450141 0.264052 -0.144337 47.000000
3.442967 0.252878 -0.143918 55.000000
3.436754 0.241821 -0.143552 36.000000
3.429509 0.230737 -0.143133 34.000000
3.424221 0.219828 -0.142819 41.000000
3.421889 0.209138 -0.142662 46.000000
3.423512 0.198697 -0.142714 36.000000
3.424105 0.188193 -0.142714 43.000000
3.427658 0.177843 -0.142871 37.000000
3.430182 0.167425 -0.142976 44.000000
3.435668 0.157130 -0.143238 41.000000
3.439127 0.146717 -0.143395 41.000000
3.439561 0.136166 -0.143395 52.000000
3.440960 0.125649 -0.143447 52.000000
3.440332 0.115058 -0.143395 45.000000
3.444661 0.104626 -0.143604 31.000000
3.445964 0.094085 -0.143656 45.000000
3.449231 0.083586 -0.143814 36.000000
3.457459 0.073175 -0.144232 39.000000
3.479633 0.062972 -0.145384 23.000000
3.481807 0.052327 -0.145488 30.000000
3.489939 0.041743 -0.145907 37.000000
3.503033 0.031156 -0.146587 31.000000
3.515095 0.020482 -0.147215 38.000000
3.530121 0.009744 -0.148000 35.000000
3.533130 -0.001086 -0.148157 27.000000
3.544095 -0.011959 -0.148733 23.000000
3.554028 -0.022893 -0.149256 11.000000
3.523094 0.380543 -0.192570 24.000000
3.528215 0.370149 -0.192829 15.000000
3.514442 0.357808 -0.191858 32.000000
3.507579 0.346241 -0.191341 31.000000
3.501671 0.334814 -0.190888 34.000000
3.494733 0.323335 -0.190370 45.000000
3.479805 0.311191 -0.189335 48.000000
3.472790 0.299828 -0.188817 51.000000
3.463748 0.288345 -0.188170 62.000000
3.463622 0.277638 -0.188105 47.000000
3.462467 0.266857 -0.187976 52.000000
3.456303 0.255719 -0.187523 44.000000
3.452094 0.244761 -0.187199 38.000000
3.455816 0.234371 -0.187393 51.000000
3.455523 0.223704 -0.187329 56.000000
3.454201 0.212979 -0.187199 52.000000
3.455834 0.202439 -0.187264 45.000000
3.453450 0.191670 -0.187070 61.000000
3.454022 0.181074 -0.187070 40.000000
3.457551 0.170623 -0.187264 61.000000
3.449087 0.159601 -0.186682 47.000000
3.449560 0.149018 -0.186682 43.000000
3.450998 0.138474 -0.186746 48.000000
3.448415 0.127776 -0.186552 43.000000
3.451783 0.117297 -0.186746 45.000000
3.452126 0.106706 -0.186746 52.000000
3.457425 0.096253 -0.187070 54.000000
3.463690 0.085793 -0.187458 57.000000
3.462939 0.075145 -0.187393 44.000000
3.474129 0.064724 -0.188105 81.000000
3.479300 0.054142 -0.188429 61.000000
3.491423 0.043615 -0.189205 52.000000
3.497528 0.032959 -0.189593 48.000000
3.505596 0.022279 -0.190111 45.000000
3.518620 0.011565 -0.190952 39.000000
3.531612 0.000771 -0.191793 20.000000
3.541576 -0.010093 -0.192441 15.000000
3.542527 -0.020964 -0.192505 24.000000
3.548433 -0.031887 -0.192893 27.000000
3.554015 0.382007 -0.237024 13.000000
3.537320 0.369233 -0.235646 24.000000
3.531493 0.357673 -0.235110 23.000000
3.516697 0.345273 -0.233886 36.000000
3.505829 0.333346 -0.232967 45.000000
3.495914 0.321580 -0.232125 33.000000
3.484967 0.309790 -0.231207 33.000000
3.480934 0.298669 -0.230824 40.000000
3.477859 0.287658 -0.230518 40.000000
3.473756 0.276590 -0.230135 39.000000
3.469618 0.265549 -0.229752 55.000000
3.466439 0.254610 -0.229446 41.000000
3.467203 0.243974 -0.229446 52.000000
3.465946 0.233201 -0.229293 53.000000
3.466645 0.222566 -0.229293 54.000000
3.467311 0.211930 -0.229293 75.000000
3.455005 0.200536 -0.228298 36.000000
3.452618 0.189770 -0.228068 36.000000
3.451192 0.179072 -0.227915 34.000000
3.447742 0.168288 -0.227609 38.000000
3.449238 0.157755 -0.227685 38.000000
3.446717 0.147044 -0.227456 32.000000
3.447152 0.136469 -0.227456 37.000000
3.448551 0.125929 -0.227532 44.000000
3.449918 0.115382 -0.227609 46.000000
3.451252 0.104828 -0.227685 49.000000
3.457538 0.094405 -0.228145 33.000000
3.459805 0.083845 -0.228298 39.000000
3.462039 0.073273 -0.228451 38.000000
3.470223 0.062799 -0.229063 24.000000
3.478375 0.052274 -0.229676 33.000000
3.485498 0.041688 -0.230211 28.000000
3.499567 0.031124 -0.231283 25.000000
3.500643 0.020393 -0.231360 35.000000
3.508666 0.009678 -0.231972 18.000000
3.517653 -0.001086 -0.232661 25.000000
3.517633 -0.011878 -0.232661 19.000000
3.518577 -0.022676 -0.232737 18.000000
3.517494 -0.033462 -0.232661 26.000000
3.520365 -0.044290 -0.232891 12.000000
3.528615 0.379898 -0.278529 18.000000
3.518867 0.367933 -0.277553 20.000000
3.510069 0.356131 -0.276666 34.000000
3.505198 0.344776 -0.276133 30.000000
3.496324 0.333077 -0.275246 38.000000
3.486418 0.321345 -0.274270 36.000000
3.475482 0.309588 -0.273205 48.000000
3.472446 0.298583 -0.272851 41.000000
3.468383 0.287517 -0.272407 46.000000
3.462298 0.276321 -0.271786 46.000000
3.460150 0.265469 -0.271520 48.000000
3.459955 0.254780 -0.271431 38.000000
3.460720 0.244163 -0.271431 51.000000
3.462446 0.233612 -0.271520 42.000000
3.469111 0.223371 -0.272052 50.000000
3.469780 0.212727 -0.272052 42.000000
3.476382 0.202428 -0.272584 55.000000
3.479971 0.191926 -0.272851 75.000000
3.471591 0.180783 -0.272052 57.000000
3.463176 0.169694 -0.271254 49.000000
3.457710 0.158795 -0.270721 39.000000
3.457186 0.148143 -0.270633 39.000000
3.452647 0.137339 -0.270189 35.000000
3.453052 0.126746 -0.270189 51.000000
3.456412 0.116251 -0.270455 49.000000
3.456752 0.105647 -0.270455 72.000000
3.461042 0.095150 -0.270810 83.000000
3.463310 0.084580 -0.270987 49.000000
3.463553 0.073954 -0.270987 51.000000
3.463763 0.063328 -0.270987 56.000000
3.471909 0.052821 -0.271697 42.000000
3.476038 0.042217 -0.272052 35.000000
3.479140 0.031579 -0.272318 47.000000
3.483204 0.020929 -0.272673 27.000000
3.488233 0.010256 -0.273117 44.000000
3.494224 -0.000447 -0.273649 41.000000
3.500183 -0.011187 -0.274181 41.000000
3.509096 -0.021982 -0.274980 21.000000
3.503036 -0.032691 -0.274448 26.000000
3.510887 -0.043538 -0.275157 26.000000
3.512729 -0.054340 -0.275335 7.000000
3.517446 0.378683 -0.322194 9.000000
3.497813 0.365710 -0.320068 25.000000
3.492980 0.354373 -0.319460 30.000000
3.495041 0.343753 -0.319562 29.000000
3.491127 0.332555 -0.319055 37.000000
3.486187 0.321293 -0.318448 48.000000
3.485175 0.310419 -0.318246 52.000000
3.477190 0.298955 -0.317335 35.000000
3.481065 0.288534 -0.317638 53.000000
3.475984 0.277376 -0.317031 51.000000
3.478802 0.266863 -0.317233 47.000000
3.478613 0.256116 -0.317132 51.000000
3.475412 0.245161 -0.316727 44.000000
3.482104 0.234901 -0.317335 40.000000
3.482808 0.224217 -0.317335 41.000000
3.485465 0.213653 -0.317537 31.000000
3.489084 0.203133 -0.317841 34.000000
3.484724 0.192153 -0.317335 51.000000
3.485298 0.181461 -0.317335 50.000000
3.484844 0.170718 -0.317233 48.000000
3.481376 0.159842 -0.316828 56.000000
3.480856 0.149118 -0.316727 28.000000
3.478315 0.138318 -0.316423 45.000000
3.475741 0.127536 -0.316120 41.000000
3.473133 0.116771 -0.315816 38.000000
3.471486 0.106053 -0.315614 49.000000
3.465828 0.095236 -0.315006 73.000000
3.462125 0.084504 -0.314601 29.000000
3.456401 0.073753 -0.313994 42.000000
3.453627 0.063093 -0.313690 31.000000
3.458778 0.052574 -0.314196 37.000000
3.464891 0.042037 -0.314804 35.000000
3.465999 0.031416 -0.314905 55.000000
3.475032 0.020839 -0.315816 41.000000
3.476075 0.010181 -0.315917 33.000000
3.481064 -0.000482 -0.316423 39.000000
3.490995 -0.011191 -0.317436 31.000000
3.507857 -0.022001 -0.319157 17.000000
3.497824 -0.032674 -0.318144 26.000000
3.509645 -0.043549 -0.319359 19.000000
3.516458 -0.054421 -0.320068 8.000000
