ply
format ascii 1.0
element vertex 1273
property float x
property float y
property float z
property float intensity
end_header
3.062623 -0.149955 0.476855 40.000000
3.060171 -0.159249 0.476569 42.000000
3.062633 -0.168799 0.476998 41.000000
3.063089 -0.178251 0.477141 38.000000
3.061540 -0.187587 0.476998 43.000000
3.063913 -0.197169 0.477427 34.000000
3.059344 -0.206303 0.476855 37.000000
3.055734 -0.215480 0.476426 38.000000
3.052098 -0.224637 0.475997 35.000000
3.046460 -0.233623 0.475282 21.000000
3.050662 -0.243360 0.475997 16.000000
3.052860 -0.252962 0.476426 31.000000
3.057000 -0.262749 0.477141 18.000000
3.063081 -0.272738 0.478142 25.000000
3.068143 -0.282677 0.478999 13.000000
2.983075 0.546670 0.434976 23.000000
2.979859 0.536638 0.434321 29.000000
2.978563 0.526975 0.433928 38.000000
2.975282 0.516987 0.433273 25.000000
2.973922 0.507356 0.432880 42.000000
2.973510 0.497903 0.432617 47.000000
2.970132 0.487975 0.431962 40.000000
2.975529 0.479491 0.432486 39.000000
2.978945 0.470669 0.432748 49.000000
2.984294 0.462134 0.433273 53.000000
2.990599 0.453719 0.433928 37.000000
2.990996 0.444396 0.433797 52.000000
2.992345 0.435218 0.433797 50.000000
2.988759 0.425338 0.433142 54.000000
2.983176 0.415211 0.432224 55.000000
2.981489 0.405656 0.431831 37.000000
2.978789 0.395985 0.431307 38.000000
2.972124 0.385824 0.430259 44.000000
2.971327 0.376455 0.429997 36.000000
2.971484 0.367216 0.429865 36.000000
2.979486 0.358927 0.430783 39.000000
2.985497 0.350361 0.431438 50.000000
2.987543 0.341313 0.431569 53.000000
2.993502 0.332692 0.432224 54.000000
2.998451 0.323932 0.432748 57.000000
2.996473 0.314422 0.432355 65.000000
2.999396 0.305428 0.432617 50.000000
2.993413 0.295543 0.431700 55.000000
2.988384 0.285793 0.430914 48.000000
2.990235 0.276714 0.431045 48.000000
2.989094 0.267363 0.430783 59.000000
2.989901 0.258191 0.430783 40.000000
2.996607 0.249510 0.431569 40.000000
2.998346 0.240394 0.431700 43.000000
3.005000 0.231651 0.432486 47.000000
3.013606 0.223015 0.433535 30.000000
3.011310 0.213558 0.433142 44.000000
3.011951 0.204318 0.433142 45.000000
3.013552 0.195141 0.433273 47.000000
3.009189 0.185590 0.432617 48.000000
3.010734 0.176415 0.432748 47.000000
3.007302 0.166958 0.432224 43.000000
3.009780 0.157835 0.432486 39.000000
3.013221 0.148746 0.432880 40.000000
3.009702 0.139318 0.432355 41.000000
3.009125 0.130041 0.432224 46.000000
3.011491 0.120888 0.432486 56.000000
3.007885 0.111502 0.431962 44.000000
3.009203 0.102307 0.432093 37.000000
3.009503 0.093074 0.432093 41.000000
3.011756 0.083896 0.432355 55.000000
3.020919 0.074875 0.433535 38.000000
3.027082 0.065735 0.434321 28.000000
3.024295 0.056393 0.433928 40.000000
3.026437 0.047145 0.434190 44.000000
3.030532 0.037909 0.434714 62.000000
3.033608 0.028639 0.435107 63.000000
3.031699 0.019319 0.434845 47.000000
3.025796 0.009999 0.434059 43.000000
3.030769 0.000717 0.434714 61.000000
3.031749 -0.008584 0.434845 43.000000
3.034682 -0.017904 0.435238 55.000000
3.033621 -0.027205 0.435107 44.000000
3.033524 -0.036512 0.435107 49.000000
3.032406 -0.045803 0.434976 39.000000
3.031260 -0.055088 0.434845 47.000000
3.027112 -0.064303 0.434321 59.000000
3.028883 -0.073638 0.434583 51.000000
3.023688 -0.082794 0.433928 54.000000
3.027383 -0.092191 0.434452 38.000000
3.028077 -0.101512 0.434583 40.000000
3.024779 -0.110692 0.434190 39.000000
3.028388 -0.120129 0.434714 50.000000
3.030976 -0.129547 0.435107 41.000000
3.036506 -0.139118 0.435894 42.000000
3.035075 -0.148385 0.435763 40.000000
3.033615 -0.157644 0.435631 46.000000
3.036087 -0.167114 0.436025 36.000000
3.048426 -0.177178 0.437728 30.000000
3.047868 -0.186529 0.437728 36.000000
3.049260 -0.196007 0.437990 49.000000
3.049634 -0.205427 0.438121 31.000000
3.055912 -0.215271 0.439039 38.000000
3.054248 -0.224573 0.438908 42.000000
3.050579 -0.233714 0.438514 34.000000
3.049848 -0.243072 0.438514 32.000000
3.049088 -0.252428 0.438514 32.000000
3.051263 -0.262036 0.438908 37.000000
3.056369 -0.271924 0.439694 38.000000
3.052559 -0.281026 0.439301 37.000000
3.055630 -0.290766 0.439825 28.000000
3.071496 -0.301790 0.442053 17.000000
3.066610 -0.310811 0.441529 14.000000
2.954352 0.541689 0.394045 31.000000
2.953068 0.532093 0.393688 42.000000
2.953709 0.522858 0.393569 49.000000
2.953343 0.513452 0.393331 46.000000
2.951969 0.503887 0.392975 36.000000
2.951542 0.494499 0.392737 53.000000
2.948147 0.484634 0.392142 47.000000
2.946679 0.475112 0.391785 48.000000
2.949104 0.466225 0.391904 49.000000
2.952483 0.457480 0.392142 40.000000
2.953872 0.448420 0.392142 44.000000
2.950324 0.438623 0.391548 39.000000
2.955585 0.430143 0.392023 57.000000
2.954926 0.420793 0.391785 48.000000
2.959152 0.412137 0.392142 49.000000
2.960403 0.403057 0.392142 39.000000
2.958673 0.393579 0.391785 45.000000
2.959867 0.384500 0.391785 48.000000
2.963987 0.375793 0.392142 42.000000
2.965126 0.366698 0.392142 48.000000
2.972152 0.358314 0.392856 45.000000
2.969292 0.348730 0.392380 40.000000
2.974294 0.340071 0.392856 46.000000
2.975324 0.330944 0.392856 55.000000
2.977312 0.321922 0.392975 49.000000
2.981248 0.313098 0.393331 38.000000
2.983182 0.304052 0.393450 40.000000
2.982125 0.294702 0.393213 42.000000
2.984003 0.285646 0.393331 47.000000
2.982888 0.276306 0.393094 45.000000
2.987678 0.267509 0.393569 34.000000
2.986506 0.258170 0.393331 40.000000
2.983326 0.248675 0.392856 66.000000
2.984075 0.239521 0.392856 40.000000
2.981826 0.230135 0.392499 45.000000
2.983508 0.221059 0.392618 35.000000
2.982192 0.211763 0.392380 51.000000
2.983818 0.202681 0.392499 48.000000
2.988389 0.193784 0.392975 52.000000
2.990951 0.184738 0.393213 52.000000
2.995469 0.175796 0.393688 45.000000
2.997977 0.166716 0.393926 49.000000
2.993516 0.157255 0.393331 50.000000
2.998943 0.148317 0.393926 54.000000
2.993433 0.138838 0.393213 44.000000
2.987893 0.129393 0.392499 51.000000
2.992244 0.120387 0.392975 59.000000
2.990615 0.111132 0.392737 51.000000
2.988958 0.101888 0.392499 40.000000
2.992234 0.092811 0.392856 36.000000
2.988534 0.083518 0.392380 45.000000
2.995724 0.074525 0.393213 50.000000
2.993953 0.065289 0.392975 53.000000
2.995132 0.056123 0.393094 45.000000
2.999261 0.046997 0.393569 50.000000
3.006341 0.037886 0.394402 39.000000
3.009422 0.028692 0.394759 38.000000
3.014461 0.019493 0.395353 49.000000
3.010535 0.010230 0.394877 34.000000
3.012537 0.000995 0.395115 47.000000
3.009548 -0.008241 0.394759 41.000000
3.007522 -0.017463 0.394521 42.000000
3.004476 -0.026665 0.394164 47.000000
3.002394 -0.035859 0.393926 43.000000
3.000285 -0.045041 0.393688 32.000000
3.004103 -0.054316 0.394164 30.000000
3.007893 -0.063615 0.394640 40.000000
3.010662 -0.072913 0.394996 27.000000
3.010424 -0.082149 0.394996 38.000000
3.013135 -0.091474 0.395353 55.000000
3.015818 -0.100816 0.395710 41.000000
3.015494 -0.110068 0.395710 45.000000
3.015142 -0.119319 0.395710 44.000000
3.016746 -0.128653 0.395948 35.000000
3.015345 -0.137862 0.395829 46.000000
3.015900 -0.147161 0.395948 38.000000
3.014442 -0.156362 0.395829 43.000000
3.015931 -0.165717 0.396067 40.000000
3.018382 -0.175141 0.396423 33.000000
3.019813 -0.184520 0.396661 48.000000
3.020224 -0.193847 0.396780 38.000000
3.021596 -0.203245 0.397018 41.000000
3.031854 -0.213276 0.398326 42.000000
3.032176 -0.222649 0.398445 38.000000
3.033458 -0.232101 0.398683 41.000000
3.031742 -0.241328 0.398564 37.000000
3.032966 -0.250791 0.398802 29.000000
3.035151 -0.260349 0.399159 35.000000
3.038294 -0.270009 0.399634 31.000000
3.029541 -0.278605 0.398683 44.000000
3.038557 -0.288834 0.399872 38.000000
3.041609 -0.298541 0.400348 24.000000
2.946973 0.549938 0.356448 41.000000
2.944735 0.540177 0.356021 39.000000
2.944421 0.530788 0.355807 46.000000
2.945057 0.521579 0.355701 28.000000
2.941745 0.511690 0.355167 38.000000
2.940361 0.502160 0.354846 46.000000
2.938945 0.492644 0.354526 51.000000
2.937500 0.483142 0.354206 55.000000
2.940931 0.474444 0.354419 67.000000
2.939427 0.464953 0.354099 48.000000
2.941822 0.456085 0.354206 37.000000
2.942224 0.446909 0.354099 62.000000
2.937681 0.437003 0.353458 47.000000
2.937040 0.427702 0.353244 58.000000
2.938338 0.418689 0.353244 53.000000
2.939609 0.409672 0.353244 46.000000
2.943807 0.401054 0.353565 55.000000
2.944038 0.391890 0.353458 47.000000
2.945227 0.382856 0.353458 54.000000
2.950333 0.374318 0.353885 53.000000
2.951468 0.365265 0.353885 59.000000
2.953562 0.356327 0.353992 51.000000
2.951678 0.346916 0.353672 42.000000
2.954705 0.338085 0.353885 49.000000
2.957704 0.329238 0.354099 48.000000
2.958700 0.320163 0.354099 52.000000
2.960657 0.311188 0.354206 49.000000
2.964566 0.302405 0.354526 35.000000
2.965480 0.293309 0.354526 40.000000
2.969335 0.284494 0.354846 34.000000
2.970194 0.275382 0.354846 38.000000
2.973005 0.266446 0.355060 59.000000
2.971827 0.257152 0.354846 43.000000
2.971611 0.247951 0.354739 43.000000
2.972358 0.238833 0.354739 41.000000
2.970103 0.229484 0.354419 37.000000
2.971785 0.220444 0.354526 47.000000
2.966496 0.210903 0.353885 48.000000
2.967129 0.201801 0.353885 53.000000
2.966742 0.192633 0.353778 59.000000
2.966327 0.183469 0.353672 51.000000
2.968861 0.174484 0.353885 41.000000
2.963426 0.165044 0.353244 33.000000
2.965904 0.156056 0.353458 40.000000
2.975307 0.147397 0.354419 48.000000
2.970778 0.138038 0.353885 56.000000
2.974168 0.129052 0.354206 44.000000
2.970576 0.119767 0.353778 49.000000
2.969936 0.110616 0.353672 43.000000
2.971255 0.101538 0.353778 44.000000
2.967577 0.092299 0.353351 51.000000
2.966853 0.083166 0.353244 51.000000
2.970076 0.074138 0.353565 59.000000
2.970289 0.065025 0.353565 51.000000
2.974451 0.055987 0.353992 49.000000
2.976597 0.046892 0.354206 57.000000
2.984681 0.037859 0.355060 59.000000
2.990748 0.028759 0.355701 52.000000
2.995794 0.019615 0.356234 61.000000
2.998823 0.010434 0.356555 47.000000
2.998840 0.001234 0.356555 39.000000
3.002807 -0.007977 0.356982 48.000000
3.003763 -0.017196 0.357089 63.000000
3.001708 -0.026393 0.356875 42.000000
3.002607 -0.035614 0.356982 40.000000
2.997513 -0.044751 0.356448 61.000000
2.999349 -0.053983 0.356662 61.000000
3.004140 -0.063290 0.357195 52.000000
3.004925 -0.072531 0.357302 36.000000
3.005683 -0.081776 0.357409 50.000000
3.005418 -0.090997 0.357409 51.000000
3.005124 -0.100217 0.357409 55.000000
3.009771 -0.109618 0.357943 50.000000
3.007433 -0.118773 0.357729 40.000000
3.006061 -0.127956 0.357623 53.000000
3.011615 -0.137451 0.358263 33.000000
3.005220 -0.146399 0.357623 57.000000
3.005749 -0.155669 0.357729 44.000000
3.007243 -0.164999 0.357943 46.000000
3.004738 -0.174109 0.357729 58.000000
3.005182 -0.183388 0.357836 46.000000
3.006590 -0.192734 0.358050 60.000000
3.004992 -0.201891 0.357943 59.000000
3.011302 -0.211598 0.358690 47.000000
3.010638 -0.220835 0.358690 53.000000
3.012920 -0.230298 0.359011 36.000000
3.016164 -0.239856 0.359438 33.000000
3.020369 -0.249519 0.359972 35.000000
3.024542 -0.259209 0.360506 36.000000
3.024723 -0.268575 0.360613 25.000000
3.030815 -0.278491 0.361360 36.000000
3.018069 -0.286659 0.360079 7.000000
3.025091 -0.296694 0.360933 11.000000
2.913421 0.542889 0.317426 31.000000
2.920948 0.535027 0.317995 24.000000
2.920616 0.525709 0.317805 28.000000
2.920255 0.516399 0.317615 33.000000
2.922806 0.507608 0.317710 33.000000
2.921406 0.498136 0.317426 45.000000
2.921938 0.489006 0.317331 36.000000
2.919496 0.479392 0.316951 51.000000
2.919970 0.470275 0.316856 45.000000
2.921399 0.461314 0.316856 37.000000
2.924768 0.452654 0.317046 48.000000
2.924175 0.443380 0.316856 50.000000
2.924537 0.434260 0.316761 55.000000
2.925855 0.425286 0.316761 36.000000
2.928132 0.416448 0.316856 40.000000
2.926438 0.407050 0.316571 45.000000
2.925700 0.397801 0.316381 45.000000
2.921973 0.388166 0.315906 52.000000
2.923150 0.379199 0.315906 39.000000
2.922324 0.369979 0.315716 48.000000
2.921470 0.360766 0.315526 37.000000
2.922563 0.351802 0.315526 45.000000
2.925606 0.343066 0.315716 42.000000
2.928623 0.334316 0.315906 30.000000
2.930624 0.325440 0.316001 43.000000
2.933588 0.316662 0.316191 51.000000
2.935536 0.307764 0.316286 59.000000
2.938447 0.298959 0.316476 35.000000
2.939350 0.289942 0.316476 33.000000
2.940226 0.280923 0.316476 56.000000
2.944047 0.272178 0.316761 45.000000
2.948835 0.263500 0.317141 42.000000
2.946654 0.254194 0.316856 57.000000
2.949404 0.245318 0.317046 50.000000
2.950143 0.236269 0.317046 43.000000
2.948869 0.227063 0.316856 52.000000
2.950544 0.218089 0.316951 51.000000
2.943256 0.208470 0.316191 43.000000
2.940902 0.199236 0.315906 40.000000
2.941499 0.190212 0.315906 38.000000
2.941075 0.181126 0.315811 50.000000
2.940624 0.172043 0.315716 52.000000
2.942131 0.163076 0.315811 41.000000
2.946594 0.154259 0.316191 41.000000
2.952025 0.145465 0.316666 51.000000
2.954446 0.136500 0.316856 39.000000
2.959824 0.127652 0.317331 46.000000
2.963185 0.118691 0.317615 36.000000
2.963536 0.109600 0.317615 52.000000
2.963858 0.100507 0.317615 48.000000
2.965147 0.091445 0.317710 25.000000
2.966409 0.082376 0.317805 37.000000
2.964657 0.073224 0.317615 47.000000
2.959892 0.064019 0.317141 56.000000
2.959079 0.054919 0.317046 45.000000
2.959234 0.045841 0.317046 42.000000
2.960356 0.036774 0.317141 38.000000
2.961450 0.027702 0.317236 35.000000
2.957539 0.018589 0.316856 51.000000
2.962560 0.009534 0.317331 38.000000
2.966557 0.000447 0.317710 36.000000
2.966544 -0.008655 0.317710 41.000000
2.972477 -0.017789 0.318280 31.000000
2.970417 -0.026891 0.318090 51.000000
2.975298 -0.036063 0.318565 50.000000
2.974178 -0.045176 0.318470 40.000000
2.977011 -0.054354 0.318755 43.000000
2.976830 -0.063487 0.318755 54.000000
2.980602 -0.072715 0.319135 36.000000
2.978375 -0.081805 0.318945 56.000000
2.977115 -0.090912 0.318850 39.000000
2.975827 -0.100012 0.318755 34.000000
2.977496 -0.109214 0.318945 42.000000
2.974163 -0.118231 0.318660 40.000000
2.977764 -0.127523 0.319040 42.000000
2.977359 -0.136658 0.319040 54.000000
2.981897 -0.146034 0.319515 30.000000
2.982430 -0.155233 0.319610 35.000000
2.985915 -0.164600 0.319990 36.000000
2.984402 -0.173702 0.319895 46.000000
2.984849 -0.182918 0.319990 44.000000
2.990234 -0.192456 0.320560 31.000000
2.987643 -0.201495 0.320370 39.000000
2.987011 -0.210660 0.320370 47.000000
2.987344 -0.219896 0.320465 41.000000
2.986655 -0.229060 0.320465 40.000000
2.989908 -0.238537 0.320845 52.000000
2.994122 -0.248118 0.321320 26.000000
2.984420 -0.256539 0.320465 43.000000
2.989568 -0.266221 0.321035 29.000000
2.984773 -0.275028 0.320655 34.000000
3.058242 -0.291233 0.327778 11.000000
2.895988 0.540431 0.278629 27.000000
2.881948 0.528668 0.277310 23.000000
2.899249 0.522651 0.278629 43.000000
2.903783 0.514275 0.278877 51.000000
2.907311 0.505705 0.279042 32.000000
2.910814 0.497118 0.279207 29.000000
2.911342 0.488021 0.279124 37.000000
2.905942 0.477956 0.278547 36.000000
2.904443 0.468562 0.278300 32.000000
2.905867 0.459649 0.278300 42.000000
2.907263 0.450732 0.278300 32.000000
2.904691 0.441213 0.277970 37.000000
2.907017 0.432445 0.278052 38.000000
2.909316 0.423668 0.278135 43.000000
2.915535 0.415443 0.278547 39.000000
2.905939 0.404985 0.277640 27.000000
2.915067 0.397143 0.278300 33.000000
2.916272 0.388197 0.278300 36.000000
2.914484 0.378864 0.278052 39.000000
2.908712 0.369043 0.277475 34.000000
2.909830 0.360118 0.277475 38.000000
2.903996 0.350354 0.276898 31.000000
2.907036 0.341675 0.277063 24.000000
2.913022 0.333321 0.277475 45.000000
2.914031 0.324382 0.277475 53.000000
2.918975 0.315869 0.277805 34.000000
2.922904 0.307224 0.278052 34.000000
2.923833 0.298256 0.278052 40.000000
2.921759 0.288990 0.277805 34.000000
2.925608 0.280310 0.278052 38.000000
2.927447 0.271425 0.278135 39.000000
2.929258 0.262531 0.278217 39.000000
2.931043 0.253629 0.278300 31.000000
2.933794 0.244801 0.278464 36.000000
2.934530 0.235799 0.278464 33.000000
2.938221 0.227025 0.278712 39.000000
2.934928 0.217715 0.278382 38.000000
2.932600 0.208498 0.278135 45.000000
2.932232 0.199432 0.278052 49.000000
2.933824 0.190500 0.278135 34.000000
2.933400 0.181437 0.278052 37.000000
2.938918 0.172728 0.278464 43.000000
2.941424 0.163821 0.278629 59.000000
2.937932 0.154587 0.278300 47.000000
2.941378 0.145721 0.278547 35.000000
2.941811 0.136696 0.278547 47.000000
2.940226 0.127584 0.278382 45.000000
2.945582 0.118763 0.278794 59.000000
2.946929 0.109762 0.278877 44.000000
2.949243 0.100789 0.279042 49.000000
2.956511 0.091956 0.279619 42.000000
2.959768 0.082969 0.279866 43.000000
2.963994 0.073987 0.280196 43.000000
2.965204 0.064915 0.280279 55.000000
2.967381 0.055854 0.280444 54.000000
2.958570 0.046610 0.279701 37.000000
2.963682 0.037596 0.280114 53.000000
2.953818 0.028409 0.279289 43.000000
2.950902 0.019327 0.279042 38.000000
2.946961 0.010260 0.278712 57.000000
2.941996 0.001218 0.278300 45.000000
2.940989 -0.007805 0.278217 57.000000
2.943941 -0.016846 0.278464 42.000000
2.946865 -0.025904 0.278712 41.000000
2.945775 -0.034933 0.278629 59.000000
2.947647 -0.044000 0.278794 45.000000
2.951483 -0.053116 0.279124 54.000000
2.953300 -0.062213 0.279289 55.000000
2.956084 -0.071345 0.279536 50.000000
2.956847 -0.080441 0.279619 50.000000
2.950610 -0.089331 0.279124 57.000000
2.954306 -0.098516 0.279454 48.000000
2.951002 -0.107470 0.279207 58.000000
2.951654 -0.116563 0.279289 46.000000
2.960244 -0.126000 0.280031 49.000000
2.958848 -0.135036 0.279949 56.000000
2.959415 -0.144162 0.280031 49.000000
2.961945 -0.153395 0.280279 39.000000
2.964445 -0.162646 0.280526 60.000000
2.966917 -0.171913 0.280773 52.000000
2.969360 -0.181197 0.281021 39.000000
2.962823 -0.189923 0.280526 45.000000
2.963221 -0.199079 0.280608 50.000000
2.964584 -0.208309 0.280773 37.000000
2.965919 -0.217549 0.280938 52.000000
2.967225 -0.226800 0.281103 35.000000
2.973469 -0.236456 0.281680 43.000000
2.975709 -0.245824 0.281928 33.000000
2.976927 -0.255122 0.282093 40.000000
2.988043 -0.265313 0.283082 25.000000
2.994161 -0.275119 0.283659 26.000000
2.997272 -0.284681 0.283989 23.000000
2.868508 0.533471 0.241648 30.000000
2.882886 0.527005 0.242566 25.000000
2.877617 0.516921 0.242071 32.000000
2.879190 0.508090 0.242071 24.000000
2.894494 0.501644 0.243060 21.000000
2.890119 0.491756 0.242636 23.000000
2.886696 0.482063 0.242283 34.000000
2.884224 0.472558 0.242001 27.000000
2.889599 0.464342 0.242283 32.000000
2.889040 0.455163 0.242142 30.000000
2.892394 0.446603 0.242283 20.000000
2.887833 0.436829 0.241859 25.000000
2.891133 0.428261 0.242001 27.000000
2.896382 0.419963 0.242283 22.000000
2.897657 0.411075 0.242283 28.000000
2.891988 0.401221 0.241789 32.000000
2.896171 0.392750 0.242001 36.000000
2.892418 0.383206 0.241648 26.000000
2.890613 0.373945 0.241436 36.000000
2.885809 0.364323 0.241012 23.000000
2.890873 0.355957 0.241294 30.000000
2.890961 0.346967 0.241224 28.000000
2.895975 0.338561 0.241506 30.000000
2.901955 0.330240 0.241859 26.000000
2.899980 0.321005 0.241648 35.000000
2.910869 0.313178 0.242354 36.000000
2.915784 0.304662 0.242636 35.000000
2.920674 0.296119 0.242919 26.000000
2.918591 0.286863 0.242707 34.000000
2.915486 0.277528 0.242425 29.000000
2.911357 0.268123 0.242071 27.000000
2.930049 0.260789 0.243343 29.000000
2.920898 0.250940 0.242636 25.000000
2.919666 0.241812 0.242495 30.000000
2.926360 0.233332 0.242919 29.000000
2.912144 0.223203 0.241859 38.000000
2.916794 0.214562 0.242142 40.000000
2.937339 0.207023 0.243555 27.000000
2.929998 0.197471 0.242990 34.000000
2.933576 0.188674 0.243201 37.000000
2.943102 0.180225 0.243837 41.000000
2.954595 0.171837 0.244614 25.000000
2.963076 0.163213 0.245179 25.000000
2.988466 0.155427 0.246945 27.000000
2.954059 0.144538 0.244473 28.000000
2.963456 0.135889 0.245108 31.000000
2.950904 0.126237 0.244190 33.000000
2.950280 0.117143 0.244120 32.000000
2.964581 0.108608 0.245108 26.000000
2.948950 0.098971 0.243978 28.000000
2.970177 0.090570 0.245461 21.000000
2.955484 0.081041 0.244402 33.000000
2.964694 0.072195 0.245038 33.000000
2.961910 0.063035 0.244826 32.000000
2.965081 0.054003 0.245038 30.000000
2.956256 0.044767 0.244402 32.000000
2.956379 0.035697 0.244402 26.000000
2.950490 0.026570 0.243978 26.000000
2.934598 0.017417 0.242848 29.000000
2.926658 0.008388 0.242283 31.000000
2.925673 -0.000591 0.242213 35.000000
2.927652 -0.009573 0.242354 26.000000
2.939579 -0.018626 0.243201 32.000000
2.936515 -0.027617 0.242990 28.000000
2.953373 -0.036831 0.244190 22.000000
2.951251 -0.045862 0.244049 34.000000
2.951097 -0.054916 0.244049 25.000000
2.949917 -0.063948 0.243978 30.000000
2.948709 -0.072974 0.243908 27.000000
2.944483 -0.081910 0.243625 27.000000
2.947209 -0.091035 0.243837 26.000000
2.946916 -0.100076 0.243837 34.000000
2.951579 -0.109299 0.244190 29.000000
2.948240 -0.118235 0.243978 35.000000
2.950853 -0.127408 0.244190 29.000000
2.947459 -0.136323 0.243978 18.000000
2.945034 -0.145268 0.243837 30.000000
2.941586 -0.154147 0.243625 22.000000
2.941100 -0.163171 0.243625 26.000000
2.941581 -0.172251 0.243696 23.000000
2.950995 -0.181885 0.244402 26.000000
2.947437 -0.190745 0.244190 28.000000
2.956790 -0.200458 0.244896 21.000000
2.957156 -0.209598 0.244967 26.000000
2.954510 -0.218523 0.244826 23.000000
2.962777 -0.228273 0.245461 26.000000
2.965045 -0.237599 0.245673 33.000000
2.957344 -0.246118 0.245179 22.000000
2.957569 -0.255276 0.245250 35.000000
2.954784 -0.264171 0.245108 23.000000
2.961906 -0.273967 0.245673 16.000000
2.966017 -0.283525 0.246026 24.000000
2.975060 -0.293600 0.246733 7.000000
3.562413 0.373733 0.243677 31.000000
3.539706 0.360377 0.242283 36.000000
3.545763 0.350006 0.242573 31.000000
3.531913 0.337702 0.241702 37.000000
3.521004 0.325763 0.241005 43.000000
3.511049 0.313982 0.240366 47.000000
3.505033 0.302608 0.239960 45.000000
3.495996 0.291026 0.239379 49.000000
3.492892 0.279981 0.239146 47.000000
3.488758 0.268880 0.238856 63.000000
3.494544 0.258544 0.239146 87.000000
3.498308 0.248033 0.239321 91.000000
3.497061 0.237164 0.239204 112.000000
3.484821 0.225597 0.238449 45.000000
3.490479 0.215211 0.238740 18.000000
3.490126 0.204443 0.238682 7.000000
3.496718 0.194066 0.239030 17.000000
3.494306 0.183181 0.238856 55.000000
3.507813 0.173098 0.239611 32.000000
3.510323 0.162427 0.239727 39.000000
3.509807 0.151614 0.239669 26.000000
3.505268 0.140646 0.239379 47.000000
3.505683 0.129891 0.239379 63.000000
3.500079 0.118933 0.239030 60.000000
3.494440 0.108010 0.238682 58.000000
3.496751 0.097344 0.238798 52.000000
3.500027 0.086689 0.238972 43.000000
3.511255 0.076188 0.239611 36.000000
3.514467 0.065471 0.239785 26.000000
3.522637 0.054811 0.240250 45.000000
3.540757 0.044226 0.241296 53.000000
3.548862 0.033438 0.241760 74.000000
3.556934 0.022600 0.242225 96.000000
3.571962 0.011734 0.243096 30.000000
3.567987 0.000775 0.242864 48.000000
3.578954 -0.010204 0.243503 56.000000
3.584896 -0.021220 0.243851 60.000000
3.595795 -0.032318 0.244490 20.000000
3.541918 0.369714 0.200276 21.000000
3.535085 0.358038 0.199906 24.000000
3.521255 0.345722 0.199213 33.000000
3.513350 0.334064 0.198797 32.000000
3.500432 0.321998 0.198149 39.000000
3.489464 0.310191 0.197594 26.000000
3.483433 0.298884 0.197271 42.000000
3.480351 0.287865 0.197086 45.000000
3.475243 0.276709 0.196808 36.000000
3.463128 0.265050 0.196207 60.000000
3.467910 0.254718 0.196392 75.000000
3.465686 0.243866 0.196254 55.000000
3.463428 0.233030 0.196115 38.000000
3.461136 0.222211 0.195976 36.000000
3.474763 0.212388 0.196577 17.000000
3.472406 0.201551 0.196439 33.000000
3.473008 0.190897 0.196439 69.000000
3.472580 0.180189 0.196392 92.000000
3.470123 0.169388 0.196254 59.000000
3.488588 0.159568 0.197086 25.000000
3.477085 0.148350 0.196531 38.000000
3.473531 0.137522 0.196346 52.000000
3.474935 0.126901 0.196392 43.000000
3.486290 0.116611 0.196901 33.000000
3.481639 0.105761 0.196670 50.000000
3.484943 0.095162 0.196808 58.000000
3.489213 0.084568 0.196993 55.000000
3.497446 0.074035 0.197363 54.000000
3.510640 0.063544 0.197964 29.000000
3.518809 0.052896 0.198334 25.000000
3.509965 0.041989 0.197918 36.000000
3.519067 0.031304 0.198334 57.000000
3.534131 0.020599 0.199028 43.000000
3.543168 0.009785 0.199444 38.000000
3.567155 -0.001085 0.200553 28.000000
3.574128 -0.012050 0.200877 66.000000
3.576072 -0.023028 0.200970 38.000000
3.552524 0.372072 0.156635 19.000000
3.556632 0.361474 0.156737 14.000000
3.552751 0.350072 0.156568 19.000000
3.529931 0.336894 0.155755 32.000000
3.516020 0.324686 0.155247 43.000000
3.500076 0.312389 0.154672 34.000000
3.490065 0.300707 0.154299 38.000000
3.483999 0.289420 0.154062 34.000000
3.474908 0.277934 0.153724 37.000000
3.465779 0.266506 0.153385 51.000000
3.460600 0.255431 0.153182 46.000000
3.457380 0.244532 0.153047 54.000000
3.458113 0.233923 0.153047 64.000000
3.459813 0.223377 0.153081 82.000000
3.463474 0.212945 0.153182 87.000000
3.455132 0.201795 0.152878 36.000000
3.464715 0.191690 0.153182 29.000000
3.467284 0.181163 0.153250 32.000000
3.470818 0.170672 0.153352 24.000000
3.469328 0.159931 0.153284 29.000000
3.457820 0.148772 0.152878 41.000000
3.457262 0.138123 0.152844 48.000000
3.458668 0.127553 0.152878 47.000000
3.465036 0.117143 0.153081 75.000000
3.472372 0.106726 0.153318 63.000000
3.477679 0.096210 0.153487 51.000000
3.483952 0.085687 0.153690 39.000000
3.490194 0.075126 0.153893 25.000000
3.495404 0.064510 0.154062 47.000000
3.502581 0.053893 0.154299 40.000000
3.508726 0.043220 0.154503 33.000000
3.525831 0.032610 0.155078 46.000000
3.537908 0.021866 0.155484 40.000000
3.549951 0.011048 0.155890 20.000000
3.561961 0.000156 0.156297 40.000000
3.572939 -0.010807 0.156669 28.000000
3.585881 -0.021849 0.157109 33.000000
3.544865 0.360277 0.112964 22.000000
3.536999 0.348514 0.112770 32.000000
3.527105 0.336613 0.112532 33.000000
3.519161 0.324960 0.112337 29.000000
3.505205 0.312824 0.112012 33.000000
3.488219 0.300518 0.111623 34.000000
3.474180 0.288568 0.111298 43.000000
3.460101 0.276708 0.110973 41.000000
3.451962 0.265398 0.110779 52.000000
3.444784 0.254215 0.110606 54.000000
3.441559 0.243362 0.110519 48.000000
3.439297 0.232599 0.110454 34.000000
3.444983 0.222370 0.110562 25.000000
3.436668 0.211245 0.110367 30.000000
3.432310 0.200407 0.110259 39.000000
3.437899 0.190154 0.110367 23.000000
3.436470 0.179501 0.110324 26.000000
3.435008 0.168858 0.110281 28.000000
3.436508 0.158365 0.110303 52.000000
3.437976 0.147865 0.110324 61.000000
3.439413 0.137357 0.110346 42.000000
3.448810 0.127139 0.110541 21.000000
3.448184 0.116523 0.110519 26.000000
3.451523 0.106037 0.110584 30.000000
3.460827 0.095699 0.110779 34.000000
3.467101 0.085230 0.110908 40.000000
3.475342 0.074768 0.111082 46.000000
3.488550 0.064349 0.111363 45.000000
3.494729 0.053740 0.111493 43.000000
3.506874 0.043170 0.111752 31.000000
3.523984 0.032574 0.112120 30.000000
3.546062 0.021905 0.112596 16.000000
3.555111 0.011057 0.112791 13.000000
3.563126 0.000153 0.112964 12.000000
3.561110 -0.010773 0.112921 14.000000
3.531713 0.358324 0.068872 16.000000
3.520854 0.346314 0.068761 29.000000
3.515927 0.334942 0.068705 24.000000
3.510963 0.323604 0.068650 35.000000
3.499987 0.311768 0.068539 26.000000
3.483990 0.299574 0.068381 44.000000
3.476921 0.288224 0.068307 45.000000
3.457853 0.275967 0.068122 52.000000
3.446718 0.264440 0.068011 74.000000
3.440533 0.253352 0.067947 84.000000
3.436306 0.242444 0.067900 68.000000
3.431048 0.231497 0.067845 50.000000
3.429746 0.220841 0.067826 61.000000
3.429410 0.210257 0.067817 86.000000
3.430038 0.199734 0.067817 68.000000
3.424644 0.188881 0.067762 110.000000
3.423210 0.178269 0.067743 99.000000
3.423741 0.167766 0.067743 79.000000
3.424240 0.157262 0.067743 78.000000
3.426704 0.146841 0.067762 54.000000
3.429137 0.136406 0.067780 74.000000
3.430538 0.125922 0.067789 50.000000
3.436905 0.115597 0.067845 58.000000
3.441242 0.105174 0.067882 49.000000
3.446546 0.094753 0.067928 44.000000
3.455817 0.084398 0.068011 43.000000
3.458060 0.073837 0.068030 29.000000
3.471267 0.063464 0.068150 54.000000
3.486443 0.053040 0.068289 43.000000
3.496588 0.042464 0.068381 31.000000
3.516701 0.031916 0.068566 34.000000
3.540781 0.021268 0.068788 23.000000
3.540829 0.010405 0.068788 31.000000
3.554844 -0.000461 0.068918 26.000000
3.531827 -0.011291 0.068705 7.000000
3.534729 0.359243 0.024450 18.000000
3.520887 0.346921 0.024500 38.000000
3.508994 0.334879 0.024543 36.000000
3.505027 0.323650 0.024560 34.000000
3.485087 0.311022 0.024629 47.000000
3.471081 0.299036 0.024679 54.000000
3.463013 0.287637 0.024709 60.000000
3.454908 0.276291 0.024739 47.000000
3.445769 0.264920 0.024772 49.000000
3.442577 0.254052 0.024785 74.000000
3.436358 0.242993 0.024808 70.000000
3.431101 0.232042 0.024828 76.000000
3.431797 0.221514 0.024828 69.000000
3.431462 0.210923 0.024832 66.000000
3.430096 0.200277 0.024838 64.000000
3.431693 0.189809 0.024835 81.000000
3.431261 0.179227 0.024838 79.000000
3.431794 0.168699 0.024838 54.000000
3.433295 0.158216 0.024835 69.000000
3.433764 0.147682 0.024835 56.000000
3.435200 0.137187 0.024832 64.000000
3.437603 0.126722 0.024825 53.000000
3.439975 0.116243 0.024818 52.000000
3.445313 0.105844 0.024802 49.000000
3.444622 0.095245 0.024805 52.000000
3.448896 0.084777 0.024792 43.000000
3.454139 0.074304 0.024775 29.000000
3.463349 0.063876 0.024745 54.000000
3.481526 0.053533 0.024686 32.000000
3.501673 0.043104 0.024619 29.000000
3.516788 0.032505 0.024570 45.000000
3.557870 0.021982 0.024434 21.000000
3.607920 0.011239 0.024268 9.000000
3.590937 0.000163 0.024324 19.000000
3.589921 -0.010851 0.024328 15.000000
3.578871 -0.021801 0.024364 8.000000
3.524342 0.358815 -0.019223 24.000000
3.511495 0.346627 -0.019003 23.000000
3.504579 0.335092 -0.018877 23.000000
3.492648 0.323142 -0.018673 41.000000
3.477688 0.311002 -0.018422 38.000000
3.464679 0.299129 -0.018202 29.000000
3.451630 0.287338 -0.017982 42.000000
3.442529 0.275949 -0.017825 39.000000
3.434387 0.264696 -0.017683 71.000000
3.429200 0.253716 -0.017589 56.000000
3.420986 0.242559 -0.017448 64.000000
3.420716 0.231995 -0.017432 50.000000
3.418418 0.221306 -0.017385 63.000000
3.419081 0.210817 -0.017385 57.000000
3.423705 0.200560 -0.017448 73.000000
3.425302 0.190111 -0.017464 70.000000
3.427866 0.179706 -0.017495 57.000000
3.426404 0.169090 -0.017464 65.000000
3.423911 0.158439 -0.017416 73.000000
3.420385 0.147761 -0.017354 89.000000
3.420822 0.137267 -0.017354 79.000000
3.422226 0.126808 -0.017369 60.000000
3.424598 0.116376 -0.017401 61.000000
3.427937 0.105961 -0.017448 69.000000
3.432244 0.095555 -0.017511 78.000000
3.436519 0.085123 -0.017573 47.000000
3.451758 0.074903 -0.017809 55.000000
3.447973 0.064239 -0.017746 69.000000
3.489144 0.054294 -0.018390 29.000000
3.507291 0.043812 -0.018673 29.000000
3.512408 0.033098 -0.018752 36.000000
3.524491 0.022397 -0.018940 41.000000
3.537542 0.011625 -0.019144 40.000000
3.546560 0.000773 -0.019286 25.000000
3.539546 -0.010087 -0.019176 22.000000
3.549176 0.371721 -0.062439 26.000000
3.535383 0.359310 -0.062023 27.000000
3.516573 0.346495 -0.061468 37.000000
3.510654 0.335037 -0.061273 29.000000
3.493749 0.322605 -0.060774 27.000000
3.479788 0.310547 -0.060358 28.000000
3.464790 0.298491 -0.059914 43.000000
3.455728 0.287029 -0.059636 39.000000
3.447624 0.275706 -0.059387 52.000000
3.437491 0.264281 -0.059081 48.000000
3.429314 0.253068 -0.058832 55.000000
3.426085 0.242263 -0.058721 41.000000
3.425815 0.231683 -0.058693 52.000000
3.424515 0.221042 -0.058637 56.000000
3.422184 0.210350 -0.058554 46.000000
3.424809 0.199967 -0.058610 61.000000
3.426404 0.189514 -0.058637 58.000000
3.423975 0.178844 -0.058554 61.000000
3.423509 0.168289 -0.058526 58.000000
3.423011 0.157739 -0.058499 50.000000
3.421481 0.147150 -0.058443 60.000000
3.425911 0.136813 -0.058554 71.000000
3.427314 0.126339 -0.058582 59.000000
3.429684 0.115892 -0.058637 47.000000
3.435019 0.105524 -0.058776 48.000000
3.442321 0.095181 -0.058970 44.000000
3.443596 0.084645 -0.058998 40.000000
3.450835 0.074232 -0.059192 41.000000
3.476032 0.064114 -0.059886 21.000000
3.478212 0.053481 -0.059942 26.000000
3.488355 0.042936 -0.060219 26.000000
3.494468 0.032291 -0.060386 31.000000
3.518540 0.021726 -0.061051 18.000000
3.534584 0.010986 -0.061495 18.000000
3.546597 0.000147 -0.061828 23.000000
3.552578 -0.010750 -0.061995 18.000000
3.583516 -0.021828 -0.062855 8.000000
3.530584 0.381351 -0.106431 12.000000
3.531738 0.370518 -0.106431 13.000000
3.519935 0.358367 -0.105907 18.000000
3.509085 0.346389 -0.105423 29.000000
3.503169 0.334957 -0.105141 35.000000
3.493236 0.323196 -0.104698 37.000000
3.481273 0.311322 -0.104174 39.000000
3.469270 0.299525 -0.103650 45.000000
3.466190 0.288548 -0.103489 61.000000
3.458095 0.277195 -0.103126 54.000000
3.448967 0.265818 -0.102723 52.000000
3.443787 0.254794 -0.102481 64.000000
3.442559 0.244086 -0.102400 53.000000
3.439304 0.233253 -0.102239 52.000000
3.438010 0.222572 -0.102159 57.000000
3.438676 0.212023 -0.102159 74.000000
3.436318 0.201297 -0.102038 56.000000
3.439912 0.190920 -0.102159 54.000000
3.441479 0.180418 -0.102199 69.000000
3.441019 0.169809 -0.102159 52.000000
3.445516 0.159436 -0.102320 61.000000
3.441996 0.148692 -0.102159 37.000000
3.445431 0.138252 -0.102280 66.000000
3.444841 0.127644 -0.102239 56.000000
3.441221 0.116939 -0.102078 62.000000
3.445559 0.106504 -0.102239 46.000000
3.449865 0.096044 -0.102400 50.000000
3.453140 0.085533 -0.102521 49.000000
3.465374 0.075197 -0.103005 29.000000
3.473580 0.064713 -0.103328 44.000000
3.479757 0.054149 -0.103569 39.000000
3.491895 0.043621 -0.104053 28.000000
3.508998 0.033066 -0.104738 18.000000
3.514079 0.022332 -0.104940 40.000000
3.531117 0.011605 -0.105625 27.000000
3.539130 0.000772 -0.105947 22.000000
3.547109 -0.010109 -0.106270 21.000000
3.566045 -0.021106 -0.107036 15.000000
3.496834 0.386699 -0.147372 19.000000
3.500983 0.376290 -0.147529 34.000000
3.493182 0.364611 -0.147058 31.000000
3.493291 0.353792 -0.147006 34.000000
3.484421 0.342094 -0.146483 33.000000
3.472531 0.330169 -0.145802 31.000000
3.473527 0.319514 -0.145802 38.000000
3.463550 0.307879 -0.145227 59.000000
3.458508 0.296738 -0.144913 38.000000
3.454427 0.285712 -0.144651 34.000000
3.448319 0.274556 -0.144285 55.000000
3.446158 0.263746 -0.144128 60.000000
3.442967 0.252878 -0.143918 45.000000
3.437750 0.241891 -0.143604 48.000000
3.437479 0.231276 -0.143552 67.000000
3.430200 0.220214 -0.143133 44.000000
3.426873 0.209444 -0.142924 55.000000
3.430490 0.199104 -0.143081 52.000000
3.432082 0.188634 -0.143133 47.000000
3.433642 0.178156 -0.143185 42.000000
3.436167 0.167719 -0.143290 51.000000
3.436666 0.157176 -0.143290 42.000000
3.442120 0.146846 -0.143552 41.000000
3.440559 0.136205 -0.143447 49.000000
3.445950 0.125833 -0.143709 48.000000
3.453306 0.115497 -0.144075 44.000000
3.456639 0.104993 -0.144232 44.000000
3.469922 0.094747 -0.144913 47.000000
3.477185 0.084273 -0.145279 57.000000
3.481420 0.073690 -0.145488 36.000000
3.486623 0.063101 -0.145750 32.000000
3.491792 0.052481 -0.146012 36.000000
3.491937 0.041768 -0.146012 39.000000
3.503033 0.031156 -0.146587 30.000000
3.511101 0.020458 -0.147006 22.000000
3.517139 0.009704 -0.147320 30.000000
3.524142 -0.001086 -0.147686 32.000000
3.529116 -0.011913 -0.147948 31.000000
3.563015 -0.022948 -0.149727 10.000000
3.570917 -0.033952 -0.150146 5.000000
3.512336 0.368484 -0.191793 26.000000
3.517421 0.358111 -0.192052 18.000000
3.513537 0.346828 -0.191729 31.000000
3.515579 0.336142 -0.191793 23.000000
3.494733 0.323335 -0.190370 44.000000
3.489744 0.312079 -0.189982 42.000000
3.487703 0.301114 -0.189788 41.000000
3.482643 0.289916 -0.189399 51.000000
3.482521 0.279151 -0.189335 45.000000
3.478387 0.268082 -0.189011 57.000000
3.476207 0.257189 -0.188817 46.000000
3.476979 0.246523 -0.188817 35.000000
3.471746 0.235450 -0.188429 44.000000
3.469464 0.224605 -0.188235 40.000000
3.464161 0.213592 -0.187846 65.000000
3.458823 0.202613 -0.187458 52.000000
3.457435 0.191890 -0.187329 60.000000
3.457011 0.181230 -0.187264 53.000000
3.457551 0.170623 -0.187264 59.000000
3.455068 0.159877 -0.187070 63.000000
3.458533 0.149405 -0.187264 48.000000
3.461966 0.138913 -0.187458 52.000000
3.465368 0.128402 -0.187652 63.000000
3.470732 0.117939 -0.187976 67.000000
3.475067 0.107413 -0.188235 35.000000
3.475381 0.096751 -0.188235 60.000000
3.478654 0.086162 -0.188429 46.000000
3.478902 0.075489 -0.188429 59.000000
3.482111 0.064871 -0.188623 60.000000
3.488280 0.054281 -0.189011 56.000000
3.489428 0.043591 -0.189076 49.000000
3.491540 0.032904 -0.189205 47.000000
3.500606 0.022248 -0.189788 39.000000
3.515626 0.011556 -0.190758 28.000000
3.521633 0.000770 -0.191146 37.000000
3.532595 -0.010066 -0.191858 20.000000
3.537537 -0.020934 -0.192182 23.000000
3.551426 -0.031914 -0.193088 21.000000
3.563286 -0.042955 -0.193864 9.000000
3.551041 0.381687 -0.236794 19.000000
3.539303 0.369441 -0.235799 19.000000
3.532485 0.357774 -0.235187 34.000000
3.519674 0.345566 -0.234115 26.000000
3.510792 0.333820 -0.233350 39.000000
3.497900 0.321764 -0.232278 48.000000
3.487946 0.310056 -0.231436 43.000000
3.486894 0.299183 -0.231283 53.000000
3.478853 0.287741 -0.230594 54.000000
3.474750 0.276669 -0.230211 51.000000
3.470612 0.265625 -0.229829 47.000000
3.470416 0.254903 -0.229752 54.000000
3.472176 0.244325 -0.229829 43.000000
3.473904 0.233739 -0.229905 48.000000
3.477590 0.223273 -0.230135 56.000000
3.476268 0.212480 -0.229982 48.000000
3.467945 0.201291 -0.229293 36.000000
3.463569 0.190375 -0.228910 31.000000
3.463141 0.179696 -0.228834 47.000000
3.458696 0.168826 -0.228451 44.000000
3.454218 0.157985 -0.228068 31.000000
3.455683 0.147429 -0.228145 41.000000
3.453130 0.136707 -0.227915 27.000000
3.460508 0.126370 -0.228451 37.000000
3.462872 0.115820 -0.228604 40.000000
3.464208 0.105226 -0.228681 42.000000
3.466508 0.094652 -0.228834 37.000000
3.465785 0.083992 -0.228757 42.000000
3.464033 0.073316 -0.228604 26.000000
3.472216 0.062835 -0.229216 42.000000
3.474387 0.052213 -0.229369 43.000000
3.479516 0.041615 -0.229752 36.000000
3.482618 0.030967 -0.229982 34.000000
3.486685 0.020307 -0.230288 31.000000
3.500690 0.009653 -0.231360 30.000000
3.500703 -0.001087 -0.231360 33.000000
3.509656 -0.011854 -0.232049 23.000000
3.521568 -0.022695 -0.232967 12.000000
3.510515 -0.033398 -0.232125 26.000000
3.516377 -0.044241 -0.232584 16.000000
3.538680 0.370002 -0.279327 27.000000
3.534844 0.358642 -0.278884 21.000000
3.504207 0.344679 -0.276044 39.000000
3.495332 0.332983 -0.275157 35.000000
3.485426 0.321253 -0.274181 48.000000
3.475482 0.309588 -0.273205 44.000000
3.471454 0.298498 -0.272762 52.000000
3.468383 0.287517 -0.272407 48.000000
3.471234 0.277033 -0.272584 64.000000
3.479020 0.266915 -0.273205 34.000000
3.476842 0.256021 -0.272939 43.000000
3.482579 0.245703 -0.273383 54.000000
3.489279 0.235419 -0.273915 44.000000
3.488991 0.224649 -0.273826 51.000000
3.488670 0.213883 -0.273738 41.000000
3.488315 0.203121 -0.273649 64.000000
3.485938 0.192254 -0.273383 43.000000
3.481538 0.181300 -0.272939 44.000000
3.481083 0.170569 -0.272851 31.000000
3.469650 0.159342 -0.271786 53.000000
3.468132 0.148611 -0.271608 39.000000
3.465586 0.137852 -0.271342 40.000000
3.462011 0.127073 -0.270987 53.000000
3.459398 0.116351 -0.270721 43.000000
3.458743 0.105707 -0.270633 74.000000
3.458055 0.095068 -0.270544 57.000000
3.455343 0.084386 -0.270278 40.000000
3.456582 0.073806 -0.270366 35.000000
3.458784 0.063237 -0.270544 41.000000
3.463941 0.052701 -0.270987 36.000000
3.470062 0.042145 -0.271520 47.000000
3.478144 0.031570 -0.272230 66.000000
3.472248 0.020864 -0.271697 45.000000
3.479268 0.010231 -0.272318 48.000000
3.484263 -0.000444 -0.272762 42.000000
3.491218 -0.011157 -0.273383 26.000000
3.488179 -0.021849 -0.273117 25.000000
3.489092 -0.032560 -0.273205 24.000000
3.491963 -0.043301 -0.273472 23.000000
3.481855 -0.053859 -0.272584 6.000000
3.537390 0.369862 -0.324117 25.000000
3.534549 0.358604 -0.323712 24.000000
3.497021 0.343948 -0.319764 38.000000
3.495089 0.332934 -0.319460 37.000000
3.482225 0.320927 -0.318043 45.000000
3.476257 0.309622 -0.317335 35.000000
3.472234 0.298528 -0.316828 42.000000
3.469168 0.287543 -0.316423 47.000000
3.473009 0.277137 -0.316727 42.000000
3.479794 0.266939 -0.317335 51.000000
3.481589 0.256336 -0.317436 41.000000
3.486328 0.245935 -0.317841 48.000000
3.493022 0.235641 -0.318448 49.000000
3.497700 0.225181 -0.318853 37.000000
3.501353 0.214632 -0.319157 54.000000
3.499016 0.203715 -0.318853 47.000000
3.505584 0.193310 -0.319460 75.000000
3.507155 0.182606 -0.319562 51.000000
3.503723 0.171649 -0.319157 43.000000
3.497277 0.160577 -0.318448 50.000000
3.499741 0.149933 -0.318651 28.000000
3.488256 0.138717 -0.317436 42.000000
3.487671 0.127978 -0.317335 31.000000
3.477110 0.116906 -0.316221 49.000000
3.466514 0.105900 -0.315107 50.000000
3.458867 0.095043 -0.314298 76.000000
3.460136 0.084455 -0.314399 48.000000
3.453417 0.073688 -0.313690 38.000000
3.453627 0.063093 -0.313690 44.000000
3.457783 0.052559 -0.314095 37.000000
3.460912 0.041988 -0.314399 29.000000
3.465004 0.031407 -0.314804 52.000000
3.466079 0.020783 -0.314905 41.000000
3.472095 0.010168 -0.315512 34.000000
3.475095 -0.000484 -0.315816 49.000000
3.484031 -0.011171 -0.316727 27.000000
3.486965 -0.021877 -0.317031 30.000000
3.480912 -0.032521 -0.316423 15.000000
3.495718 -0.043381 -0.317942 13.000000
3.556579 0.372496 -0.368828 8.000000
3.522119 0.357970 -0.364759 22.000000
3.513313 0.346190 -0.363628 31.000000
3.504467 0.334467 -0.362498 41.000000
3.498551 0.323075 -0.361707 40.000000
3.492598 0.311722 -0.360916 40.000000
3.483638 0.300154 -0.359785 39.000000
3.485533 0.289547 -0.359898 51.000000
3.486405 0.278852 -0.359898 41.000000
3.486254 0.268078 -0.359785 46.000000
3.491023 0.257674 -0.360237 43.000000
3.494771 0.247172 -0.360577 59.000000
3.498487 0.236650 -0.360916 61.000000
3.504153 0.226235 -0.361481 45.000000
3.514748 0.216092 -0.362611 37.000000
3.515395 0.205308 -0.362611 52.000000
3.513032 0.194358 -0.362272 95.000000
3.532464 0.184562 -0.364420 44.000000
3.534999 0.173821 -0.364646 40.000000
3.524598 0.162473 -0.363402 67.000000
3.527065 0.151744 -0.363628 39.000000
3.516593 0.140487 -0.362385 34.000000
3.514029 0.129588 -0.362046 43.000000
3.498521 0.118271 -0.360237 48.000000
3.485957 0.107142 -0.358768 48.000000
3.473357 0.096091 -0.357299 74.000000
3.464696 0.085216 -0.356281 40.000000
3.463948 0.074564 -0.356168 46.000000
3.461180 0.063882 -0.355829 34.000000
3.461360 0.053263 -0.355829 52.000000
3.460514 0.042631 -0.355716 34.000000
3.464602 0.032051 -0.356168 45.000000
3.465678 0.021428 -0.356281 63.000000
3.474669 0.010822 -0.357299 49.000000
3.481642 0.000161 -0.358090 39.000000
3.487587 -0.010539 -0.358768 51.000000
3.504429 -0.021344 -0.360690 27.000000
3.519250 -0.032233 -0.362385 22.000000
3.521122 -0.043054 -0.362611 23.000000
3.530908 -0.054010 -0.363741 14.000000
3.537660 0.358921 -0.411033 16.000000
3.518011 0.346020 -0.408401 23.000000
3.510167 0.334375 -0.407273 27.000000
3.496358 0.322234 -0.405393 33.000000
3.492389 0.311064 -0.404767 24.000000
3.481466 0.299324 -0.403263 40.000000
3.483356 0.288724 -0.403388 55.000000
3.484226 0.278036 -0.403388 56.000000
3.489019 0.267650 -0.403889 46.000000
3.499718 0.257677 -0.405143 56.000000
3.507420 0.247429 -0.406020 55.000000
3.514101 0.237070 -0.406772 43.000000
3.520752 0.226672 -0.407524 25.000000
3.526382 0.216175 -0.408151 35.000000
3.534952 0.205819 -0.409153 55.000000
3.537548 0.195083 -0.409404 60.000000
3.539121 0.184281 -0.409529 41.000000
3.562461 0.174546 -0.412412 12.000000
3.548114 0.162929 -0.410532 26.000000
3.535712 0.151486 -0.408903 22.000000
3.531203 0.140439 -0.408276 22.000000
3.512780 0.128907 -0.405895 22.000000
3.502252 0.117759 -0.404516 31.000000
3.488714 0.106585 -0.402761 37.000000
3.473156 0.095440 -0.400756 30.000000
3.468474 0.084661 -0.400129 52.000000
3.458798 0.073805 -0.398876 17.000000
3.451073 0.063046 -0.397873 18.000000
3.458194 0.052565 -0.398751 41.000000
3.451395 0.041869 -0.397873 29.000000
3.457459 0.031336 -0.398625 63.000000
3.459524 0.020741 -0.398876 36.000000
3.468500 0.010156 -0.400004 35.000000
3.478436 -0.000483 -0.401257 48.000000
3.482386 -0.011166 -0.401759 30.000000
3.494241 -0.021920 -0.403263 23.000000
3.507054 -0.032757 -0.404892 24.000000
3.508921 -0.043540 -0.405143 29.000000
3.494883 -0.054095 -0.403388 8.000000
3.533885 0.349455 -0.454386 20.000000
3.521137 0.337290 -0.452462 28.000000
3.522155 0.326486 -0.452462 18.000000
3.496503 0.313295 -0.448751 30.000000
3.491527 0.302055 -0.447926 44.000000
3.486514 0.290848 -0.447102 45.000000
3.497264 0.280942 -0.448476 42.000000
3.508972 0.271049 -0.449988 42.000000
3.515714 0.260722 -0.450813 44.000000
3.531318 0.250986 -0.452874 40.000000
3.534048 0.240285 -0.453149 47.000000
3.540699 0.229826 -0.453974 41.000000
3.550285 0.219511 -0.455211 49.000000
3.551930 0.208676 -0.455348 50.000000
3.555521 0.197943 -0.455761 61.000000
3.563036 0.187397 -0.456723 41.000000
3.560626 0.176319 -0.456310 33.000000
3.547787 0.153868 -0.454386 24.000000
3.546263 0.142904 -0.454111 30.000000
3.537776 0.131692 -0.452874 27.000000
3.544103 0.121040 -0.453699 31.000000
3.523667 0.109523 -0.450813 39.000000
3.507154 0.098242 -0.448476 49.000000
3.491596 0.087088 -0.446277 61.000000
3.485905 0.076247 -0.445452 39.000000
3.475229 0.065348 -0.443940 38.000000
3.469471 0.054593 -0.443116 54.000000
3.470612 0.043961 -0.443253 28.000000
3.466769 0.033275 -0.442703 31.000000
3.479731 0.022722 -0.444490 45.000000
3.482756 0.012056 -0.444903 43.000000
3.488719 0.001373 -0.445727 38.000000
3.489698 -0.009333 -0.445865 40.000000
3.489653 -0.020039 -0.445865 37.000000
3.495517 -0.030798 -0.446689 25.000000
3.537954 0.336411 -0.497651 25.000000
3.536016 0.325283 -0.497204 25.000000
3.512375 0.312236 -0.493474 34.000000
3.503464 0.300610 -0.491982 59.000000
3.510283 0.290351 -0.492877 54.000000
3.513128 0.279738 -0.493176 46.000000
3.523829 0.269716 -0.494668 58.000000
3.532529 0.259486 -0.495861 47.000000
3.545144 0.249484 -0.497651 51.000000
3.559705 0.239541 -0.499740 45.000000
3.565356 0.228937 -0.500486 38.000000
3.569990 0.218240 -0.501083 32.000000
3.574591 0.207517 -0.501680 58.000000
3.567313 0.196112 -0.500486 40.000000
3.562960 0.184909 -0.499740 21.000000
3.540260 0.140186 -0.496010 16.000000
3.517947 0.128487 -0.492579 12.000000
3.538090 0.118361 -0.495563 25.000000
3.526576 0.107141 -0.493773 35.000000
3.515027 0.095994 -0.491982 24.000000
3.508385 0.085039 -0.490938 31.000000
3.505664 0.074211 -0.490490 36.000000
3.495000 0.063255 -0.488849 33.000000
3.491223 0.052472 -0.488252 41.000000
3.489390 0.041736 -0.487954 26.000000
3.483569 0.030976 -0.487059 25.000000
3.493535 0.020349 -0.488551 23.000000
3.495559 0.009637 -0.488849 33.000000
3.500516 -0.001087 -0.489595 39.000000
3.510384 -0.011856 -0.491087 31.000000
3.514287 -0.022650 -0.491684 27.000000
3.528043 -0.033559 -0.493773 16.000000
3.572424 0.341571 -0.546986 11.000000
3.555766 0.328975 -0.544087 17.000000
3.536114 0.316221 -0.540704 27.000000
3.522319 0.304099 -0.538288 28.000000
3.515367 0.292637 -0.536999 39.000000
3.523134 0.282402 -0.538127 41.000000
3.533825 0.272349 -0.539738 49.000000
3.549407 0.262597 -0.542154 42.000000
3.562010 0.252542 -0.544087 46.000000
3.573600 0.242346 -0.545859 49.000000
3.588115 0.232273 -0.548114 46.000000
3.593736 0.221566 -0.548919 57.000000
3.598340 0.210770 -0.549564 49.000000
3.595028 0.199512 -0.548919 26.000000
3.545219 0.120462 -0.540221 27.000000
3.531761 0.109159 -0.537966 30.000000
3.523201 0.098077 -0.536516 35.000000
3.502765 0.086757 -0.533133 34.000000
3.493148 0.075797 -0.531522 24.000000
3.473628 0.064714 -0.528300 44.000000
3.471837 0.054027 -0.527978 41.000000
3.473960 0.043399 -0.528300 43.000000
3.481972 0.032815 -0.529589 38.000000
3.494886 0.022212 -0.531683 42.000000
3.503821 0.011518 -0.533133 37.000000
3.512722 0.000769 -0.534583 29.000000
3.518630 -0.010025 -0.535549 38.000000
3.548190 -0.020998 -0.540382 16.000000
3.598440 -0.032342 -0.548597 7.000000
3.569236 0.339396 -0.590663 15.000000
3.558491 0.327358 -0.588587 26.000000
