ply
format ascii 1.0
element vertex 1270
property float x
property float y
property float z
property float intensity
end_header
3.159418 0.010424 0.761367 42.000000
3.156512 0.000730 0.760693 36.000000
3.153576 -0.008945 0.760018 45.000000
3.154508 -0.018626 0.760243 42.000000
3.154436 -0.028304 0.760243 38.000000
3.153360 -0.037969 0.760018 47.000000
3.161997 -0.047777 0.762041 28.000000
3.159887 -0.057442 0.761592 41.000000
3.159696 -0.067136 0.761592 36.000000
3.164346 -0.076949 0.762716 42.000000
3.168965 -0.086790 0.763840 28.000000
3.169658 -0.096542 0.764064 30.000000
3.171294 -0.106331 0.764514 44.000000
3.168032 -0.115953 0.763840 46.000000
3.169609 -0.125749 0.764289 56.000000
3.165314 -0.135306 0.763390 38.000000
3.168777 -0.145195 0.764289 26.000000
3.170264 -0.155012 0.764739 44.000000
3.165881 -0.164534 0.763840 35.000000
3.167307 -0.174354 0.764289 33.000000
3.169675 -0.184240 0.764964 36.000000
3.166178 -0.193785 0.764289 31.000000
3.173347 -0.203999 0.766087 39.000000
3.169790 -0.213537 0.765413 42.000000
3.164260 -0.222917 0.764289 26.000000
3.164533 -0.232696 0.764514 25.000000
3.166718 -0.242627 0.765188 35.000000
3.155275 -0.251488 0.762716 18.000000
3.082966 0.227391 0.708451 6.000000
3.119705 0.220493 0.716352 29.000000
3.117442 0.210723 0.715712 25.000000
3.125873 0.201663 0.717420 34.000000
3.133303 0.192494 0.718915 31.000000
3.135829 0.182995 0.719342 34.000000
3.139302 0.173537 0.719983 30.000000
3.140795 0.163956 0.720196 34.000000
3.139332 0.154223 0.719769 30.000000
3.133935 0.144319 0.718488 40.000000
3.137291 0.134830 0.719128 37.000000
3.133785 0.125047 0.718274 31.000000
3.136107 0.115505 0.718701 43.000000
3.133517 0.105783 0.718061 51.000000
3.134804 0.096199 0.718274 41.000000
3.136060 0.086609 0.718488 33.000000
3.141195 0.077109 0.719556 39.000000
3.141417 0.067471 0.719556 43.000000
3.145516 0.057907 0.720410 42.000000
3.143725 0.048225 0.719983 36.000000
3.143858 0.038580 0.719983 34.000000
3.142008 0.028916 0.719556 36.000000
3.139151 0.019258 0.718915 43.000000
3.137242 0.009620 0.718488 42.000000
3.138233 -0.000005 0.718701 33.000000
3.135288 -0.009625 0.718061 33.000000
3.135243 -0.019244 0.718061 29.000000
3.141031 -0.028914 0.719342 35.000000
3.141904 -0.038562 0.719556 45.000000
3.146655 -0.048274 0.720623 42.000000
3.151376 -0.058016 0.721691 39.000000
3.149230 -0.067643 0.721264 39.000000
3.149008 -0.077304 0.721264 31.000000
3.150709 -0.087018 0.721691 43.000000
3.150427 -0.096684 0.721691 55.000000
3.151092 -0.106381 0.721905 32.000000
3.151727 -0.116084 0.722118 38.000000
3.150380 -0.125714 0.721905 30.000000
3.150956 -0.135420 0.722118 47.000000
3.154429 -0.145265 0.722972 44.000000
3.154944 -0.154990 0.723186 39.000000
3.155429 -0.164719 0.723399 35.000000
3.153934 -0.174345 0.723186 27.000000
3.150458 -0.183851 0.722545 32.000000
3.153780 -0.193753 0.723399 45.000000
3.159020 -0.203803 0.724681 40.000000
3.159355 -0.213560 0.724894 44.000000
3.161608 -0.223457 0.725535 33.000000
3.161882 -0.233227 0.725748 29.000000
3.166996 -0.243374 0.727030 32.000000
3.170130 -0.253399 0.727884 30.000000
3.172258 -0.263365 0.728524 25.000000
3.172409 -0.273179 0.728738 21.000000
3.172529 -0.282997 0.728951 24.000000
3.120161 0.279615 0.677681 30.000000
3.114173 0.269451 0.676270 39.000000
3.114985 0.259896 0.676270 43.000000
3.113815 0.250181 0.675867 27.000000
3.108708 0.240175 0.674657 31.000000
3.111384 0.230781 0.675060 39.000000
3.110124 0.221096 0.674657 44.000000
3.110787 0.211553 0.674657 31.000000
3.111422 0.202008 0.674657 41.000000
3.116915 0.192763 0.675665 46.000000
3.119447 0.183315 0.676068 51.000000
3.123907 0.173961 0.676875 56.000000
3.125403 0.164427 0.677076 44.000000
3.126872 0.154886 0.677278 46.000000
3.124397 0.145156 0.676673 41.000000
3.125806 0.135613 0.676875 37.000000
3.126207 0.126022 0.676875 42.000000
3.126579 0.116430 0.676875 41.000000
3.129858 0.106938 0.677479 46.000000
3.131151 0.097365 0.677681 43.000000
3.130455 0.087731 0.677479 42.000000
3.133648 0.078200 0.678084 47.000000
3.133873 0.068585 0.678084 57.000000
3.132110 0.058934 0.677681 53.000000
3.132276 0.049324 0.677681 47.000000
3.134372 0.039739 0.678084 44.000000
3.129581 0.030076 0.677076 46.000000
3.129659 0.020475 0.677076 43.000000
3.128728 0.010870 0.676875 51.000000
3.132664 0.001272 0.677681 38.000000
3.137551 -0.008353 0.678689 46.000000
3.142408 -0.018007 0.679697 37.000000
3.142338 -0.027648 0.679697 38.000000
3.146155 -0.037335 0.680503 51.000000
3.147985 -0.047017 0.680906 47.000000
3.152722 -0.056763 0.681914 54.000000
3.147637 -0.066332 0.680906 38.000000
3.145460 -0.075941 0.680503 56.000000
3.139338 -0.085430 0.679294 49.000000
3.138082 -0.095031 0.679092 31.000000
3.144628 -0.104887 0.680503 39.000000
3.148207 -0.114678 0.681310 46.000000
3.150776 -0.124452 0.681914 43.000000
3.153315 -0.134243 0.682519 47.000000
3.157781 -0.144141 0.683527 44.000000
3.160259 -0.153971 0.684132 67.000000
3.159771 -0.163666 0.684132 69.000000
3.158277 -0.173306 0.683930 62.000000
3.154797 -0.182824 0.683326 44.000000
3.152265 -0.192382 0.682922 40.000000
3.156548 -0.202366 0.683930 45.000000
3.155912 -0.212049 0.683930 51.000000
3.159155 -0.222006 0.684737 54.000000
3.157482 -0.231625 0.684535 62.000000
3.160663 -0.241610 0.685341 55.000000
3.164789 -0.251695 0.686349 46.000000
3.162050 -0.261241 0.685946 35.000000
3.155378 -0.270439 0.684737 50.000000
3.167216 -0.281246 0.687357 29.000000
3.156585 -0.290064 0.685341 39.000000
3.170306 -0.301138 0.688365 26.000000
3.205434 -0.314405 0.695824 10.000000
3.081546 0.341718 0.634662 32.000000
3.087460 0.332790 0.635615 41.000000
3.083585 0.322804 0.634662 25.000000
3.089444 0.313840 0.635615 42.000000
3.088438 0.304167 0.635234 34.000000
3.085448 0.294316 0.634472 36.000000
3.091224 0.285301 0.635424 22.000000
3.097951 0.276342 0.636567 41.000000
3.095850 0.266582 0.635995 41.000000
3.104480 0.257736 0.637519 52.000000
3.106235 0.248289 0.637710 49.000000
3.108939 0.238909 0.638091 46.000000
3.114553 0.229733 0.639043 34.000000
3.111326 0.219898 0.638281 40.000000
3.111986 0.210352 0.638281 42.000000
3.111637 0.200740 0.638091 41.000000
3.108319 0.190950 0.637329 46.000000
3.104970 0.181183 0.636567 35.000000
3.102571 0.171492 0.635995 45.000000
3.102102 0.161922 0.635805 40.000000
3.103565 0.152452 0.635995 41.000000
3.105979 0.143021 0.636376 48.000000
3.109346 0.133619 0.636948 41.000000
3.118569 0.124434 0.638662 41.000000
3.122860 0.115012 0.639424 50.000000
3.126142 0.105531 0.639995 52.000000
3.128413 0.096001 0.640376 44.000000
3.124768 0.086293 0.639614 36.000000
3.123055 0.076657 0.639233 38.000000
3.122294 0.067054 0.639043 35.000000
3.117578 0.057382 0.638091 45.000000
3.116757 0.047802 0.637900 52.000000
3.117871 0.038252 0.638091 36.000000
3.117974 0.028686 0.638091 37.000000
3.120992 0.019139 0.638662 36.000000
3.122018 0.009568 0.638852 47.000000
3.123996 -0.000010 0.639233 31.000000
3.131835 -0.009615 0.640757 48.000000
3.135717 -0.019246 0.641519 50.000000
3.129753 -0.028814 0.640376 47.000000
3.131613 -0.038440 0.640757 43.000000
3.129518 -0.048018 0.640376 40.000000
3.132300 -0.057672 0.640948 52.000000
3.133090 -0.067302 0.641138 30.000000
3.128943 -0.076819 0.640376 43.000000
3.129674 -0.086445 0.640567 51.000000
3.131356 -0.096106 0.640948 29.000000
3.134971 -0.105843 0.641709 30.000000
3.139537 -0.115639 0.642662 36.000000
3.139168 -0.125271 0.642662 32.000000
3.140730 -0.134985 0.643043 33.000000
3.146185 -0.144888 0.644186 34.000000
3.146706 -0.154588 0.644376 37.000000
3.149159 -0.164394 0.644947 30.000000
3.148639 -0.174054 0.644947 41.000000
3.148091 -0.183713 0.644947 37.000000
3.144573 -0.193191 0.644376 42.000000
3.145924 -0.202963 0.644757 37.000000
3.143328 -0.212482 0.644376 50.000000
3.141682 -0.222056 0.644186 38.000000
3.140007 -0.231622 0.643995 32.000000
3.146133 -0.241778 0.645328 33.000000
3.155163 -0.252208 0.647233 31.000000
3.156331 -0.262048 0.647614 34.000000
3.157468 -0.271898 0.647995 38.000000
3.157597 -0.281671 0.648185 34.000000
3.159651 -0.291626 0.648757 23.000000
3.159719 -0.301411 0.648947 30.000000
3.154871 -0.310721 0.648185 26.000000
3.147066 -0.319706 0.646852 24.000000
3.157787 -0.330582 0.649138 10.000000
3.157734 -0.340373 0.649328 13.000000
3.082606 0.323990 0.596043 29.000000
3.083586 0.314531 0.596043 35.000000
3.083557 0.304972 0.595864 41.000000
3.085458 0.295604 0.596043 24.000000
3.085371 0.286046 0.595864 38.000000
3.084273 0.276404 0.595507 40.000000
3.087067 0.267109 0.595864 41.000000
3.091794 0.257964 0.596578 41.000000
3.095514 0.248713 0.597114 45.000000
3.099205 0.239442 0.597650 44.000000
3.104831 0.230296 0.598543 37.000000
3.105523 0.220769 0.598543 53.000000
3.109131 0.211441 0.599079 57.000000
3.107801 0.201774 0.598722 42.000000
3.102513 0.191875 0.597650 41.000000
3.099159 0.182125 0.596936 42.000000
3.095773 0.172398 0.596221 43.000000
3.091375 0.162641 0.595328 28.000000
3.090877 0.153108 0.595149 45.000000
3.092314 0.143670 0.595328 40.000000
3.092741 0.134182 0.595328 41.000000
3.099036 0.124930 0.596400 40.000000
3.103338 0.115568 0.597114 51.000000
3.108594 0.106214 0.598008 46.000000
3.111856 0.096768 0.598543 40.000000
3.115089 0.087302 0.599079 46.000000
3.115342 0.077745 0.599079 39.000000
3.118517 0.068251 0.599615 53.000000
3.115761 0.058628 0.599079 52.000000
3.117894 0.049100 0.599437 44.000000
3.118029 0.039534 0.599437 47.000000
3.118136 0.029968 0.599437 38.000000
3.118213 0.020401 0.599437 51.000000
3.119245 0.010838 0.599615 38.000000
3.121232 0.001269 0.599972 44.000000
3.125156 -0.008318 0.600687 41.000000
3.127084 -0.017917 0.601044 49.000000
3.127998 -0.027520 0.601223 44.000000
3.130851 -0.037152 0.601759 36.000000
3.130722 -0.046757 0.601759 38.000000
3.132531 -0.056397 0.602116 48.000000
3.135294 -0.066070 0.602652 33.000000
3.136061 -0.075712 0.602831 37.000000
3.135813 -0.085333 0.602831 48.000000
3.135537 -0.094954 0.602831 56.000000
3.135231 -0.104573 0.602831 41.000000
3.134896 -0.114191 0.602831 50.000000
3.137480 -0.123925 0.603366 46.000000
3.139051 -0.133634 0.603724 42.000000
3.135677 -0.143129 0.603188 36.000000
3.139155 -0.152940 0.603902 46.000000
3.141618 -0.162724 0.604438 52.000000
3.139139 -0.172253 0.604081 37.000000
3.142525 -0.182111 0.604796 56.000000
3.138023 -0.191511 0.604081 52.000000
3.139385 -0.201264 0.604438 52.000000
3.139734 -0.210960 0.604617 55.000000
3.138091 -0.220523 0.604438 61.000000
3.134456 -0.229933 0.603902 38.000000
3.144527 -0.240375 0.605867 40.000000
3.150641 -0.250568 0.607118 48.000000
3.154760 -0.260638 0.608011 58.000000
3.153945 -0.270316 0.608011 42.000000
3.158981 -0.280513 0.609083 32.000000
3.159086 -0.290294 0.609261 36.000000
3.160139 -0.300171 0.609619 36.000000
3.156266 -0.309576 0.609083 39.000000
3.146491 -0.318365 0.607475 20.000000
3.150393 -0.328528 0.608368 25.000000
3.148391 -0.338086 0.608189 43.000000
3.154185 -0.348501 0.609440 24.000000
3.153101 -0.358176 0.609440 14.000000
3.176419 -0.370703 0.613906 7.000000
3.082189 0.303549 0.557903 27.000000
3.083106 0.294092 0.557903 32.000000
3.083012 0.284540 0.557736 27.000000
3.077979 0.274553 0.556734 40.000000
3.078806 0.265108 0.556734 26.000000
3.079605 0.255661 0.556734 42.000000
3.081358 0.246291 0.556901 46.000000
3.082099 0.236836 0.556901 45.000000
3.083794 0.227453 0.557068 52.000000
3.085461 0.218060 0.557235 42.000000
3.087100 0.208660 0.557402 38.000000
3.086741 0.199124 0.557235 41.000000
3.088322 0.189714 0.557402 50.000000
3.085936 0.180065 0.556901 45.000000
3.087458 0.170651 0.557068 42.000000
3.087967 0.161178 0.557068 43.000000
3.091402 0.151850 0.557569 45.000000
3.092838 0.142411 0.557736 52.000000
3.095230 0.133007 0.558069 33.000000
3.096609 0.123550 0.558236 32.000000
3.101900 0.114232 0.559071 40.000000
3.105192 0.104816 0.559572 33.000000
3.108456 0.095381 0.560073 37.000000
3.109719 0.085871 0.560240 40.000000
3.109968 0.076331 0.560240 37.000000
3.113144 0.066854 0.560740 41.000000
3.112349 0.057284 0.560574 39.000000
3.110539 0.047704 0.560240 30.000000
3.108698 0.038136 0.559906 42.000000
3.108801 0.028598 0.559906 39.000000
3.111832 0.019080 0.560407 41.000000
3.111876 0.009533 0.560407 34.000000
3.110904 -0.000015 0.560240 43.000000
3.111876 -0.009562 0.560407 34.000000
3.110846 -0.019103 0.560240 37.000000
3.113730 -0.028673 0.560740 39.000000
3.113628 -0.038226 0.560740 43.000000
3.111524 -0.047748 0.560407 49.000000
3.114320 -0.057348 0.560907 41.000000
3.120044 -0.067027 0.561909 53.000000
3.118838 -0.076575 0.561742 44.000000
3.118588 -0.086143 0.561742 33.000000
3.119295 -0.095740 0.561909 37.000000
3.121943 -0.105408 0.562410 51.000000
3.121605 -0.114986 0.562410 38.000000
3.120252 -0.124523 0.562243 40.000000
3.120841 -0.134137 0.562410 36.000000
3.122384 -0.143801 0.562744 40.000000
3.121928 -0.153380 0.562744 40.000000
3.123412 -0.163059 0.563078 42.000000
3.120929 -0.172533 0.562744 47.000000
3.122353 -0.182221 0.563078 33.000000
3.121779 -0.191799 0.563078 28.000000
3.128064 -0.201818 0.564246 40.000000
3.125462 -0.211281 0.563912 42.000000
3.123816 -0.220800 0.563745 31.000000
3.127057 -0.230671 0.564413 46.000000
3.125352 -0.240189 0.564246 26.000000
3.128532 -0.250089 0.564914 37.000000
3.127749 -0.259686 0.564914 39.000000
3.123008 -0.268943 0.564246 33.000000
3.130026 -0.279221 0.565582 33.000000
3.133082 -0.289184 0.566250 36.000000
3.135124 -0.299075 0.566750 29.000000
3.137136 -0.308980 0.567251 25.000000
3.140097 -0.319001 0.567919 34.000000
3.142045 -0.328940 0.568420 29.000000
3.146903 -0.339210 0.569421 30.000000
3.144868 -0.348754 0.569254 29.000000
3.143783 -0.358401 0.569254 34.000000
3.142669 -0.368044 0.569254 34.000000
3.144462 -0.378036 0.569755 23.000000
3.143287 -0.387681 0.569755 9.000000
3.149909 -0.398310 0.571091 6.000000
3.084056 0.275844 0.519135 28.000000
3.078982 0.265872 0.518205 45.000000
3.078799 0.256343 0.518050 40.000000
3.081540 0.247054 0.518360 33.000000
3.078344 0.237295 0.517741 39.000000
3.081028 0.227995 0.518050 26.000000
3.079742 0.218402 0.517741 38.000000
3.086311 0.209353 0.518670 48.000000
3.086939 0.199884 0.518670 49.000000
3.085566 0.190291 0.518360 45.000000
3.084162 0.180708 0.518050 44.000000
3.085689 0.171300 0.518205 47.000000
3.084227 0.161729 0.517896 58.000000
3.088655 0.152460 0.518515 44.000000
3.088122 0.142938 0.518360 44.000000
3.087559 0.133421 0.518205 54.000000
3.090915 0.124066 0.518670 52.000000
3.091281 0.114583 0.518670 52.000000
3.093593 0.105165 0.518980 50.000000
3.096863 0.095765 0.519444 43.000000
3.098130 0.086291 0.519599 58.000000
3.098380 0.076785 0.519599 43.000000
3.101564 0.067343 0.520064 44.000000
3.101756 0.057828 0.520064 40.000000
3.104882 0.048357 0.520529 41.000000
3.102052 0.038794 0.520064 47.000000
3.103145 0.029287 0.520219 46.000000
3.104208 0.019772 0.520374 58.000000
3.105242 0.010252 0.520529 39.000000
3.108223 0.000725 0.520993 58.000000
3.105246 -0.008802 0.520529 41.000000
3.100265 -0.018299 0.519754 46.000000
3.102170 -0.027828 0.520064 53.000000
3.098119 -0.037297 0.519444 51.000000
3.097990 -0.046802 0.519444 54.000000
3.102771 -0.056397 0.520219 56.000000
3.105546 -0.065979 0.520683 50.000000
3.109280 -0.075603 0.521303 33.000000
3.115946 -0.085332 0.522387 52.000000
3.116657 -0.094921 0.522542 39.000000
3.121288 -0.104649 0.523317 47.000000
3.117003 -0.114079 0.522697 48.000000
3.112690 -0.123484 0.522077 49.000000
3.114271 -0.133118 0.522387 45.000000
3.113847 -0.142672 0.522387 33.000000
3.115369 -0.152321 0.522697 39.000000
3.115873 -0.161929 0.522852 45.000000
3.115362 -0.171488 0.522852 44.000000
3.118766 -0.181275 0.523471 43.000000
3.119181 -0.190903 0.523626 54.000000
3.120553 -0.200598 0.523936 54.000000
3.119922 -0.210171 0.523936 62.000000
3.121234 -0.219881 0.524246 39.000000
3.123501 -0.229673 0.524710 52.000000
3.124751 -0.239406 0.525020 38.000000
3.124987 -0.249070 0.525175 36.000000
3.126177 -0.258820 0.525485 34.000000
3.127337 -0.268579 0.525795 55.000000
3.127482 -0.278260 0.525950 47.000000
3.130549 -0.288216 0.526569 47.000000
3.133584 -0.298194 0.527189 40.000000
3.132654 -0.307806 0.527189 52.000000
3.138576 -0.318114 0.528273 39.000000
3.139549 -0.327947 0.528583 60.000000
3.138529 -0.337578 0.528583 33.000000
3.143370 -0.347858 0.529512 57.000000
3.140325 -0.357276 0.529202 29.000000
3.140195 -0.367024 0.529357 41.000000
3.142978 -0.377127 0.529976 49.000000
3.139845 -0.386526 0.529667 31.000000
3.148446 -0.397396 0.531216 31.000000
3.153090 -0.407814 0.532145 26.000000
3.216462 -0.426055 0.542367 6.000000
3.079407 0.256183 0.480286 28.000000
3.074259 0.246258 0.479428 46.000000
3.073027 0.236673 0.479142 29.000000
3.072752 0.227170 0.478999 39.000000
3.080345 0.218234 0.480000 28.000000
3.077050 0.208514 0.479428 39.000000
3.082613 0.199394 0.480143 30.000000
3.078271 0.189629 0.479428 52.000000
3.078839 0.180185 0.479428 36.000000
3.082342 0.170903 0.479857 61.000000
3.078898 0.161238 0.479285 47.000000
3.080366 0.151840 0.479428 40.000000
3.076864 0.142205 0.478857 45.000000
3.075308 0.132678 0.478571 39.000000
3.072733 0.123123 0.478142 34.000000
3.074085 0.113732 0.478285 50.000000
3.073431 0.104266 0.478142 43.000000
3.076704 0.094929 0.478571 55.000000
3.077970 0.085518 0.478714 46.000000
3.082175 0.076174 0.479285 49.000000
3.083385 0.066739 0.479428 63.000000
3.086543 0.057335 0.479857 44.000000
3.088684 0.047897 0.480143 45.000000
3.086837 0.038396 0.479857 48.000000
3.086940 0.028925 0.479857 32.000000
3.088994 0.019468 0.480143 46.000000
3.088049 0.009987 0.480000 46.000000
3.090045 0.000514 0.480286 46.000000
3.084094 -0.008951 0.479428 27.000000
3.091969 -0.018457 0.480572 43.000000
3.093877 -0.027960 0.480858 35.000000
3.096746 -0.037487 0.481287 53.000000
3.095627 -0.046973 0.481144 40.000000
3.098437 -0.056523 0.481573 37.000000
3.099239 -0.066049 0.481716 52.000000
3.101000 -0.075605 0.482002 57.000000
3.103722 -0.085198 0.482431 36.000000
3.103446 -0.094720 0.482431 45.000000
3.103140 -0.104241 0.482431 36.000000
3.102806 -0.113761 0.482431 34.000000
3.099476 -0.123163 0.482002 48.000000
3.105016 -0.132923 0.482860 38.000000
3.101628 -0.142313 0.482431 46.000000
3.097222 -0.151636 0.481859 47.000000
3.100696 -0.161342 0.482431 39.000000
3.103151 -0.171016 0.482860 41.000000
3.105576 -0.180707 0.483289 36.000000
3.110934 -0.190595 0.484147 36.000000
3.112311 -0.200265 0.484433 38.000000
3.112669 -0.209878 0.484576 33.000000
3.115960 -0.219704 0.485147 36.000000
3.120206 -0.229624 0.485862 33.000000
3.117514 -0.239045 0.485576 30.000000
3.118738 -0.248765 0.485862 33.000000
3.115001 -0.258088 0.485433 23.000000
3.120112 -0.268149 0.486291 48.000000
3.124204 -0.278157 0.487006 40.000000
3.128264 -0.288193 0.487721 33.000000
3.121453 -0.297229 0.486863 22.000000
3.125452 -0.307286 0.487578 28.000000
3.127448 -0.317172 0.488007 38.000000
3.123507 -0.326458 0.487578 43.000000
3.123475 -0.336144 0.487721 28.000000
3.129315 -0.346485 0.488722 37.000000
3.130204 -0.356307 0.489008 32.000000
3.130080 -0.366024 0.489151 27.000000
3.130908 -0.375860 0.489437 47.000000
3.131704 -0.385705 0.489723 35.000000
3.142290 -0.396795 0.491438 30.000000
3.140076 -0.406307 0.491295 32.000000
3.135871 -0.415549 0.490866 19.000000
3.134582 -0.425168 0.490866 23.000000
3.157772 -0.438175 0.494441 10.000000
3.075893 0.227616 0.441791 31.000000
3.078555 0.218318 0.442053 40.000000
3.076243 0.208672 0.441660 50.000000
3.076868 0.199233 0.441660 36.000000
3.073507 0.189549 0.441135 36.000000
3.071105 0.179945 0.440742 35.000000
3.071643 0.170522 0.440742 51.000000
3.067202 0.160838 0.440087 56.000000
3.065700 0.151330 0.439825 32.000000
3.063179 0.141787 0.439432 47.000000
3.060628 0.132260 0.439039 42.000000
3.060029 0.122830 0.438908 54.000000
3.062373 0.113515 0.439170 49.000000
3.060725 0.104052 0.438908 42.000000
3.065984 0.094814 0.439563 36.000000
3.071216 0.085545 0.440218 58.000000
3.073446 0.076171 0.440480 47.000000
3.075648 0.066784 0.440742 56.000000
3.077820 0.057384 0.441004 49.000000
3.077982 0.047941 0.441004 53.000000
3.080097 0.038523 0.441266 47.000000
3.079210 0.029064 0.441135 57.000000
3.077302 0.019604 0.440873 49.000000
3.081313 0.010176 0.441397 40.000000
3.083312 0.000723 0.441660 37.000000
3.083300 -0.008737 0.441660 52.000000
3.085241 -0.018208 0.441922 49.000000
3.089136 -0.027710 0.442446 53.000000
3.089036 -0.037187 0.442446 56.000000
3.093864 -0.046739 0.443101 54.000000
3.094697 -0.056249 0.443232 56.000000
3.094510 -0.065743 0.443232 41.000000
3.097267 -0.075309 0.443625 44.000000
3.099995 -0.084893 0.444018 47.000000
3.097738 -0.094343 0.443756 49.000000
3.099416 -0.103913 0.444018 50.000000
3.104036 -0.113603 0.444674 48.000000
3.100701 -0.123007 0.444280 39.000000
3.107242 -0.132817 0.445198 48.000000
3.106820 -0.142349 0.445198 49.000000
3.100428 -0.151589 0.444412 39.000000
3.105888 -0.161409 0.445198 47.000000
3.107358 -0.171046 0.445460 46.000000
3.104839 -0.180464 0.445198 42.000000
3.107239 -0.190170 0.445591 45.000000
3.107631 -0.199766 0.445722 42.000000
3.107003 -0.209299 0.445722 37.000000
3.108325 -0.218970 0.445984 46.000000
3.109615 -0.228651 0.446246 48.000000
3.108899 -0.238190 0.446246 43.000000
3.112107 -0.248042 0.446770 51.000000
3.114295 -0.257835 0.447163 49.000000
3.116453 -0.267643 0.447557 48.000000
3.118579 -0.277467 0.447950 51.000000
3.120675 -0.287306 0.448343 53.000000
3.119779 -0.296879 0.448343 55.000000
3.121813 -0.306740 0.448736 46.000000
3.124803 -0.316716 0.449260 32.000000
3.123816 -0.326302 0.449260 38.000000
3.125757 -0.336202 0.449653 50.000000
3.126682 -0.346009 0.449915 51.000000
3.131516 -0.356273 0.450702 39.000000
3.132377 -0.366109 0.450964 36.000000
3.127302 -0.375244 0.450440 38.000000
3.130072 -0.385322 0.450964 34.000000
3.130842 -0.395171 0.451226 61.000000
3.126665 -0.404393 0.450833 50.000000
3.129341 -0.414505 0.451357 36.000000
3.124125 -0.423570 0.450833 35.000000
3.121829 -0.433017 0.450702 21.000000
3.123430 -0.443010 0.451095 48.000000
3.116170 -0.451737 0.450309 30.000000
3.120653 -0.462167 0.451095 11.000000
3.068018 0.208434 0.402608 30.000000
3.055763 0.198180 0.401062 37.000000
3.053384 0.188619 0.400705 43.000000
3.054939 0.179309 0.400824 54.000000
3.050518 0.169658 0.400229 49.000000
3.053999 0.160456 0.400586 41.000000
3.052493 0.150987 0.400348 56.000000
3.055918 0.141760 0.400705 55.000000
3.056338 0.132384 0.400705 50.000000
3.055738 0.122967 0.400586 75.000000
3.057093 0.113628 0.400705 63.000000
3.059412 0.104317 0.400943 55.000000
3.061702 0.094993 0.401180 48.000000
3.062972 0.085628 0.401299 47.000000
3.063220 0.076230 0.401299 56.000000
3.066418 0.066898 0.401656 57.000000
3.069587 0.057547 0.402013 61.000000
3.068756 0.048113 0.401894 54.000000
3.070874 0.038724 0.402132 66.000000
3.069986 0.029293 0.402013 42.000000
3.072047 0.019888 0.402251 54.000000
3.074080 0.010470 0.402489 49.000000
3.073105 0.001038 0.402370 32.000000
3.075079 -0.008394 0.402608 54.000000
3.073053 -0.017818 0.402370 41.000000
3.071991 -0.027237 0.402251 56.000000
3.069907 -0.036639 0.402013 49.000000
3.072759 -0.046101 0.402370 49.000000
3.068632 -0.055457 0.401894 49.000000
3.065469 -0.064810 0.401537 56.000000
3.075182 -0.074451 0.402726 52.000000
3.081887 -0.084072 0.403559 40.000000
3.086577 -0.093675 0.404154 54.000000
3.090245 -0.103275 0.404629 47.000000
3.091897 -0.112827 0.404867 49.000000
3.094513 -0.122429 0.405224 50.000000
3.094123 -0.131922 0.405224 41.000000
3.090729 -0.141280 0.404867 46.000000
3.089289 -0.150713 0.404748 47.000000
3.092778 -0.160394 0.405224 63.000000
3.090289 -0.169774 0.404986 44.000000
3.093718 -0.179483 0.405462 38.000000
3.096126 -0.189154 0.405818 46.000000
3.094540 -0.198588 0.405700 52.000000
3.098870 -0.208413 0.406294 41.000000
3.097226 -0.217849 0.406175 47.000000
3.097533 -0.227423 0.406294 37.000000
3.102761 -0.237377 0.407008 42.000000
3.100039 -0.246738 0.406770 56.000000
3.100256 -0.256329 0.406889 41.000000
3.101434 -0.266009 0.407127 46.000000
3.103570 -0.275785 0.407483 42.000000
3.106665 -0.285667 0.407959 36.000000
3.102808 -0.294916 0.407602 48.000000
3.104853 -0.304724 0.407959 45.000000
3.107856 -0.314647 0.408435 30.000000
3.106876 -0.324180 0.408435 45.000000
3.111790 -0.334345 0.409148 32.000000
3.110749 -0.343890 0.409148 48.000000
3.112640 -0.353767 0.409505 38.000000
3.113512 -0.363545 0.409743 39.000000
3.112382 -0.373095 0.409743 50.000000
3.115165 -0.383125 0.410219 54.000000
3.113975 -0.392681 0.410219 34.000000
3.110786 -0.401978 0.409981 42.000000
3.110523 -0.411650 0.410100 36.000000
3.107277 -0.420925 0.409862 45.000000
3.114823 -0.431680 0.410932 25.000000
3.109551 -0.440678 0.410456 53.000000
3.106220 -0.449932 0.410219 28.000000
3.106789 -0.459750 0.410456 31.000000
3.102418 -0.468835 0.410100 27.000000
3.095077 -0.477445 0.409386 16.000000
3.076923 -0.484320 0.407364 7.000000
3.060178 0.179839 0.363709 23.000000
3.048802 0.169788 0.362428 38.000000
3.052288 0.160590 0.362748 32.000000
3.051773 0.151175 0.362642 35.000000
3.051229 0.141766 0.362535 40.000000
3.051650 0.132404 0.362535 34.000000
3.054029 0.123121 0.362748 53.000000
3.057373 0.113862 0.363069 48.000000
3.061682 0.104617 0.363496 55.000000
3.063977 0.095285 0.363709 51.000000
3.062267 0.085828 0.363496 52.000000
3.063510 0.076458 0.363603 55.000000
3.065718 0.067102 0.363816 64.000000
3.060939 0.057603 0.363282 51.000000
3.062095 0.048228 0.363389 40.000000
3.059246 0.038796 0.363069 44.000000
3.062333 0.029438 0.363389 45.000000
3.068375 0.020081 0.364030 52.000000
3.068422 0.010668 0.364030 49.000000
3.073411 0.001255 0.364564 57.000000
3.078372 -0.008188 0.365098 41.000000
3.078333 -0.017632 0.365098 56.000000
3.070310 -0.027005 0.364243 41.000000
3.067230 -0.036389 0.363923 50.000000
3.069093 -0.045829 0.364136 43.000000
3.064961 -0.055172 0.363709 58.000000
3.064778 -0.064575 0.363709 49.000000
3.070529 -0.074122 0.364350 45.000000
3.071281 -0.083569 0.364457 30.000000
3.081942 -0.093324 0.365631 56.000000
3.086610 -0.102945 0.366165 56.000000
3.087273 -0.112451 0.366272 48.000000
3.089894 -0.122040 0.366593 73.000000
3.091492 -0.131604 0.366806 54.000000
3.087101 -0.140906 0.366379 42.000000
3.088640 -0.150473 0.366593 55.000000
3.093128 -0.160206 0.367126 55.000000
3.093615 -0.169749 0.367233 52.000000
3.093080 -0.179240 0.367233 43.000000
3.092515 -0.188728 0.367233 40.000000
3.089938 -0.198088 0.367020 63.000000
3.092291 -0.207767 0.367340 51.000000
3.091640 -0.217253 0.367340 54.000000
3.089967 -0.226664 0.367233 60.000000
3.094214 -0.236522 0.367767 45.000000
3.095456 -0.246172 0.367981 31.000000
3.095677 -0.255750 0.368088 43.000000
3.095868 -0.265331 0.368194 53.000000
3.096030 -0.274916 0.368301 50.000000
3.097152 -0.284595 0.368515 52.000000
3.099234 -0.294378 0.368835 42.000000
3.095347 -0.303593 0.368515 42.000000
3.100337 -0.313690 0.369155 38.000000
3.099360 -0.323200 0.369155 48.000000
3.102308 -0.333132 0.369583 48.000000
3.102260 -0.342758 0.369689 57.000000
3.103169 -0.352498 0.369903 41.000000
3.103061 -0.362133 0.370010 52.000000
3.106871 -0.372243 0.370544 40.000000
3.107688 -0.382016 0.370757 26.000000
3.109461 -0.391922 0.371078 51.000000
3.111202 -0.401842 0.371398 50.000000
3.110941 -0.411516 0.371505 36.000000
3.108678 -0.420924 0.371398 44.000000
3.113281 -0.431279 0.372039 38.000000
3.112928 -0.440968 0.372145 40.000000
3.110576 -0.450374 0.372039 45.000000
3.112131 -0.460351 0.372359 33.000000
3.117585 -0.470937 0.373106 31.000000
3.119074 -0.480955 0.373427 31.000000
3.123477 -0.491450 0.374067 36.000000
3.118028 -0.500399 0.373640 29.000000
3.104703 -0.508035 0.372359 20.000000
3.059978 -0.510355 0.367660 7.000000
3.024134 0.158349 0.323599 20.000000
3.031565 0.149416 0.324264 39.000000
3.034993 0.140254 0.324549 60.000000
3.039387 0.131115 0.324929 42.000000
3.043753 0.121950 0.325309 55.000000
3.048092 0.112760 0.325689 48.000000
3.050414 0.103477 0.325878 52.000000
3.053702 0.094211 0.326163 68.000000
3.050991 0.084758 0.325878 53.000000
3.050242 0.075372 0.325783 40.000000
3.050459 0.066014 0.325783 57.000000
3.049651 0.056636 0.325689 54.000000
3.048815 0.047264 0.325594 66.000000
3.050937 0.037935 0.325783 59.000000
3.052034 0.028585 0.325878 41.000000
3.055094 0.019241 0.326163 45.000000
3.055139 0.009868 0.326163 66.000000
3.055155 0.000495 0.326163 62.000000
3.060119 -0.008891 0.326638 50.000000
3.062068 -0.018290 0.326828 53.000000
3.058016 -0.027650 0.326448 43.000000
3.056922 -0.037020 0.326353 60.000000
3.054803 -0.046369 0.326163 49.000000
3.056637 -0.055776 0.326353 57.000000
3.059437 -0.065216 0.326638 46.000000
3.059222 -0.074602 0.326638 57.000000
3.061965 -0.084068 0.326923 59.000000
3.062687 -0.093491 0.327018 69.000000
3.062386 -0.102887 0.327018 47.000000
3.065040 -0.112390 0.327303 59.000000
3.063687 -0.121754 0.327208 74.000000
3.067277 -0.131322 0.327588 57.000000
3.068849 -0.140822 0.327778 51.000000
3.069396 -0.150284 0.327873 53.000000
3.076874 -0.160111 0.328633 51.000000
3.083326 -0.169931 0.329298 54.000000
3.084778 -0.179505 0.329488 58.000000
3.083219 -0.188907 0.329393 49.000000
3.075671 -0.197921 0.328728 50.000000
3.078029 -0.207556 0.329013 52.000000
3.079364 -0.217137 0.329203 39.000000
3.076698 -0.226438 0.329013 63.000000
3.078966 -0.236104 0.329298 47.000000
3.077235 -0.245470 0.329203 52.000000
3.082420 -0.255400 0.329773 55.000000
3.090549 -0.265620 0.330627 33.000000
3.085753 -0.274749 0.330247 53.000000
3.088861 -0.284578 0.330627 47.000000
3.092928 -0.294523 0.331102 35.000000
3.088047 -0.303623 0.330722 39.000000
3.092053 -0.313596 0.331197 53.000000
3.091077 -0.323080 0.331197 46.000000
3.091061 -0.332668 0.331292 49.000000
3.092005 -0.342368 0.331482 44.000000
3.093907 -0.352189 0.331767 37.000000
3.092812 -0.361680 0.331767 36.000000
3.094653 -0.371522 0.332052 41.000000
3.096463 -0.381378 0.332337 61.000000
3.105155 -0.392120 0.333287 27.000000
3.099988 -0.401135 0.332907 49.000000
3.101704 -0.411035 0.333192 47.000000
3.096482 -0.420015 0.332812 63.000000
3.109970 -0.431560 0.334236 30.000000
3.111588 -0.441517 0.334521 27.000000
3.107264 -0.450634 0.334236 45.000000
3.105867 -0.460165 0.334236 38.000000
3.110346 -0.470583 0.334806 46.000000
3.108888 -0.480123 0.334806 41.000000
3.108384 -0.489813 0.334901 34.000000
3.099003 -0.498086 0.334141 33.000000
3.099425 -0.507913 0.334331 23.000000
3.101780 -0.518074 0.334711 24.000000
3.102139 -0.527921 0.334901 26.000000
3.100504 -0.537436 0.334901 11.000000
3.589899 0.166726 0.332229 17.000000
3.046762 0.132193 0.287205 40.000000
3.047153 0.122845 0.287205 32.000000
3.041540 0.113274 0.286711 44.000000
3.044861 0.104044 0.286958 32.000000
3.040185 0.094548 0.286546 42.000000
3.039465 0.085192 0.286463 42.000000
3.040708 0.075892 0.286546 45.000000
3.041923 0.066584 0.286628 40.000000
3.046099 0.057326 0.286958 50.000000
3.046260 0.047980 0.286958 50.000000
3.049383 0.038672 0.287205 52.000000
3.047494 0.029297 0.287040 66.000000
3.048566 0.019954 0.287123 54.000000
3.047616 0.010598 0.287040 45.000000
3.049628 0.001248 0.287205 65.000000
3.051610 -0.008113 0.287370 49.000000
3.055557 -0.017499 0.287700 63.000000
3.058479 -0.026900 0.287947 64.000000
3.063365 -0.036343 0.288360 68.000000
3.064235 -0.045756 0.288442 46.000000
3.066073 -0.055193 0.288607 47.000000
3.062900 -0.064536 0.288360 63.000000
3.063684 -0.073956 0.288442 64.000000
3.061450 -0.083301 0.288277 48.000000
3.057196 -0.092572 0.287947 43.000000
3.058890 -0.102017 0.288112 48.000000
3.059558 -0.111438 0.288195 44.000000
3.060198 -0.120863 0.288277 50.000000
3.065787 -0.130506 0.288772 59.000000
3.064376 -0.139866 0.288690 60.000000
3.063933 -0.149266 0.288690 48.000000
3.067441 -0.158872 0.289019 64.000000
3.067935 -0.168337 0.289102 53.000000
3.070388 -0.177922 0.289349 50.000000
3.071818 -0.187463 0.289514 48.000000
3.071228 -0.196886 0.289514 46.000000
3.074587 -0.206575 0.289844 48.000000
3.073939 -0.216007 0.289844 55.000000
3.078231 -0.225802 0.290256 58.000000
3.079511 -0.235397 0.290421 66.000000
3.083742 -0.245239 0.290834 60.000000
3.081982 -0.254617 0.290751 36.000000
3.083172 -0.264241 0.290916 59.000000
3.081354 -0.273611 0.290834 63.000000
3.081493 -0.283154 0.290916 31.000000
3.077633 -0.292324 0.290669 28.000000
3.081681 -0.302251 0.291081 44.000000
3.083714 -0.312006 0.291328 58.000000
3.088689 -0.322086 0.291823 53.000000
3.087686 -0.331560 0.291823 46.000000
3.087645 -0.341141 0.291905 48.000000
3.094506 -0.351513 0.292565 31.000000
3.084504 -0.359965 0.291823 60.000000
3.086354 -0.369782 0.292070 38.000000
3.086194 -0.379371 0.292153 61.000000
3.089959 -0.389461 0.292565 57.000000
3.091715 -0.399322 0.292813 36.000000
3.090475 -0.408806 0.292813 52.000000
3.095132 -0.419088 0.293307 41.000000
3.096793 -0.428993 0.293555 37.000000
3.095462 -0.438492 0.293555 50.000000
3.096075 -0.448272 0.293720 45.000000
3.098629 -0.458352 0.294049 48.000000
3.099179 -0.468155 0.294214 43.000000
3.100683 -0.478117 0.294462 45.000000
3.098217 -0.487472 0.294379 31.000000
3.097691 -0.497133 0.294462 34.000000
3.105985 -0.508245 0.295286 40.000000
3.110310 -0.518756 0.295781 37.000000
3.108704 -0.528296 0.295781 32.000000
3.112960 -0.538851 0.296276 27.000000
3.115218 -0.549092 0.296606 35.000000
3.115480 -0.558999 0.296771 23.000000
3.534415 0.162295 0.285578 7.000000
3.572766 0.153086 0.288261 23.000000
3.586176 0.142644 0.289180 43.000000
3.551708 0.130349 0.286708 22.000000
3.044655 0.102221 0.250758 37.000000
3.047945 0.092972 0.250970 31.000000
3.034256 0.083232 0.249982 44.000000
3.031506 0.073849 0.249770 46.000000
3.036705 0.064656 0.250123 36.000000
3.039881 0.055395 0.250335 38.000000
3.043028 0.046115 0.250547 51.000000
3.041161 0.036754 0.250405 39.000000
3.039264 0.027405 0.250264 47.000000
3.042326 0.018099 0.250476 38.000000
3.041370 0.008762 0.250405 56.000000
3.043378 -0.000568 0.250547 43.000000
3.044359 -0.009908 0.250617 53.000000
3.047307 -0.019266 0.250829 38.000000
3.045238 -0.028597 0.250688 53.000000
3.049126 -0.037987 0.250970 60.000000
3.052985 -0.047402 0.251253 39.000000
3.051828 -0.056750 0.251182 46.000000
3.048647 -0.066049 0.250970 44.000000
3.047433 -0.075378 0.250900 53.000000
3.046191 -0.084699 0.250829 59.000000
3.045916 -0.094045 0.250829 45.000000
3.047607 -0.103456 0.250970 53.000000
3.048272 -0.112842 0.251041 54.000000
3.046915 -0.122154 0.250970 37.000000
3.053502 -0.131799 0.251465 41.000000
3.053083 -0.141167 0.251465 49.000000
3.052636 -0.150533 0.251465 43.000000
3.052160 -0.159897 0.251465 41.000000
3.048667 -0.169096 0.251253 37.000000
3.047138 -0.178390 0.251182 58.000000
3.046576 -0.187738 0.251182 49.000000
3.048972 -0.197276 0.251394 35.000000
3.052334 -0.206898 0.251677 46.000000
3.053674 -0.216401 0.251818 51.000000
3.059960 -0.226281 0.252312 45.000000
3.066214 -0.236202 0.252807 44.000000
3.073429 -0.246242 0.253372 40.000000
3.072659 -0.255670 0.253372 40.000000
3.075836 -0.265437 0.253654 38.000000
3.076994 -0.275049 0.253795 46.000000
3.077129 -0.284579 0.253866 28.000000
3.075248 -0.293924 0.253795 46.000000
3.068376 -0.302772 0.253372 40.000000
3.066440 -0.312083 0.253301 40.000000
3.071421 -0.322112 0.253725 33.000000
3.069426 -0.331426 0.253654 43.000000
3.062447 -0.340183 0.253230 40.000000
3.064362 -0.349915 0.253442 45.000000
3.062283 -0.359199 0.253372 38.000000
3.065128 -0.369068 0.253654 42.000000
3.069922 -0.379201 0.254078 27.000000
3.067755 -0.388493 0.254007 60.000000
3.069516 -0.398287 0.254219 46.000000
3.074213 -0.408488 0.254643 33.000000
3.074922 -0.418186 0.254784 44.000000
3.076588 -0.428029 0.254996 39.000000
3.074273 -0.437326 0.254925 45.000000
3.078840 -0.447614 0.255349 43.000000
3.080413 -0.457496 0.255561 50.000000
3.078995 -0.466945 0.255561 42.000000
3.086420 -0.477759 0.256197 36.000000
3.087895 -0.487691 0.256409 37.000000
3.095248 -0.498587 0.257044 41.000000
3.099611 -0.509049 0.257468 49.000000
3.099018 -0.518720 0.257539 29.000000
3.103312 -0.529229 0.257962 31.000000
3.099708 -0.538407 0.257821 30.000000
3.099024 -0.548087 0.257892 27.000000
3.097328 -0.557592 0.257892 27.000000
3.095603 -0.567092 0.257892 26.000000
3.094829 -0.576769 0.257962 26.000000
3.095005 -0.586632 0.258104 12.000000
3.596086 0.166386 0.244723 22.000000
3.578627 0.154579 0.243677 26.000000
3.585069 0.143839 0.244026 17.000000
3.552572 0.131623 0.242109 24.000000
3.540986 0.120318 0.241412 43.000000
3.517390 0.108716 0.240018 36.000000
3.149472 0.087714 0.218584 32.000000
3.050923 0.075615 0.212833 55.000000
3.052139 0.066276 0.212891 44.000000
3.041349 0.056709 0.212252 53.000000
3.039512 0.047347 0.212136 45.000000
3.036648 0.037985 0.211962 66.000000
3.039745 0.028696 0.212136 57.000000
3.038821 0.019364 0.212078 34.000000
3.036869 0.010034 0.211962 55.000000
3.038882 0.000718 0.212078 58.000000
3.042863 -0.008617 0.212310 53.000000
3.039828 -0.017935 0.212136 49.000000
3.040757 -0.027270 0.212194 47.000000
3.040659 -0.036598 0.212194 61.000000
3.042528 -0.045957 0.212310 54.000000
3.039379 -0.055237 0.212136 54.000000
3.035203 -0.064476 0.211904 41.000000
3.032995 -0.073739 0.211788 48.000000
3.029760 -0.082961 0.211613 49.000000
3.029491 -0.092256 0.211613 53.000000
3.029194 -0.101550 0.211613 54.000000
3.029866 -0.110879 0.211671 51.000000
3.037492 -0.120492 0.212136 47.000000
3.045087 -0.130152 0.212601 74.000000
3.043676 -0.139448 0.212543 53.000000
3.048219 -0.149029 0.212833 50.000000
3.046751 -0.158329 0.212775 49.000000
3.047248 -0.167730 0.212833 55.000000
3.047715 -0.177136 0.212891 67.000000
3.046161 -0.186425 0.212833 58.000000
3.046571 -0.195833 0.212891 52.000000
3.054920 -0.205784 0.213414 57.000000
3.057262 -0.215366 0.213588 66.000000
3.059574 -0.224965 0.213762 40.000000
3.059865 -0.234427 0.213821 50.000000
3.062117 -0.244052 0.213995 56.000000
3.064338 -0.253692 0.214169 54.000000
3.064540 -0.263178 0.214227 50.000000
3.064713 -0.272667 0.214285 57.000000
3.067838 -0.282435 0.214518 54.000000
3.067951 -0.291940 0.214576 46.000000
3.072008 -0.301840 0.214866 43.000000
3.071068 -0.311263 0.214866 54.000000
3.074070 -0.321099 0.215098 53.000000
3.077040 -0.330956 0.215331 49.000000
3.077996 -0.340615 0.215447 36.000000
3.074952 -0.349830 0.215331 47.000000
3.072873 -0.359147 0.215273 60.000000
3.073739 -0.368810 0.215389 43.000000
3.075565 -0.378605 0.215563 40.000000
3.076370 -0.388289 0.215679 48.000000
3.073184 -0.397469 0.215563 46.000000
3.074919 -0.407289 0.215737 40.000000
3.081569 -0.417795 0.216202 40.000000
3.087195 -0.428208 0.216609 44.000000
3.086855 -0.437818 0.216667 45.000000
3.088461 -0.447716 0.216841 53.000000
3.083123 -0.456604 0.216609 39.000000
3.084669 -0.466509 0.216783 35.000000
3.086183 -0.476428 0.216957 30.000000
3.084707 -0.485894 0.216957 34.000000
3.085173 -0.495672 0.217073 31.000000
3.087578 -0.505781 0.217306 37.000000
3.086012 -0.515251 0.217306 19.000000
3.097211 -0.526895 0.218061 48.000000
3.094596 -0.536224 0.218003 42.000000
3.087037 -0.544674 0.217654 29.000000
3.088300 -0.554672 0.217829 22.000000
3.086583 -0.564144 0.217829 16.000000
3.544952 0.173065 0.199721 7.000000
3.583386 0.163936 0.201478 17.000000
3.564910 0.152126 0.200600 25.000000
3.569352 0.141348 0.200785 23.000000
3.558789 0.129992 0.200276 27.000000
3.539203 0.118398 0.199351 47.000000
3.521578 0.106988 0.198519 54.000000
3.511904 0.095907 0.198057 46.000000
3.495205 0.084715 0.197271 51.000000
3.362621 0.071136 0.191122 24.000000
3.085168 0.055702 0.178268 33.000000
3.071341 0.046021 0.177621 37.000000
3.051491 0.036353 0.176696 36.000000
3.041599 0.026899 0.176234 38.000000
3.030679 0.017499 0.175725 27.000000
3.027722 0.008192 0.175587 43.000000
3.027733 -0.001097 0.175587 41.000000
3.027715 -0.010386 0.175587 45.000000
3.026670 -0.019669 0.175540 62.000000
3.029592 -0.028982 0.175679 37.000000
3.028490 -0.038264 0.175633 46.000000
3.035350 -0.047662 0.175957 63.000000
3.032193 -0.056919 0.175818 38.000000
3.036000 -0.066307 0.176003 39.000000
3.034783 -0.075597 0.175957 51.000000
3.034537 -0.084907 0.175957 40.000000
3.031266 -0.094125 0.175818 57.000000
3.026970 -0.103289 0.175633 53.000000
3.029634 -0.112686 0.175772 50.000000
3.032268 -0.122099 0.175910 46.000000
3.027887 -0.131230 0.175725 41.000000
3.029466 -0.140611 0.175818 42.000000
3.029021 -0.149905 0.175818 50.000000
3.030541 -0.159301 0.175910 53.000000
3.033031 -0.168763 0.176049 41.000000
3.036487 -0.178300 0.176234 45.000000
3.035926 -0.187615 0.176234 59.000000
3.041317 -0.197314 0.176511 44.000000
3.050664 -0.207317 0.176974 46.000000
3.055993 -0.217098 0.177251 39.000000
3.059297 -0.226766 0.177436 38.000000
3.064563 -0.236610 0.177714 48.000000
3.057848 -0.245534 0.177436 35.000000
3.062058 -0.255327 0.177667 51.000000
3.061260 -0.264720 0.177667 38.000000
3.054464 -0.273578 0.177390 39.000000
3.053610 -0.282948 0.177390 48.000000
3.052728 -0.292315 0.177390 51.000000
3.050822 -0.301581 0.177344 40.000000
3.057833 -0.311747 0.177714 39.000000
3.056863 -0.321127 0.177714 59.000000
3.053877 -0.330290 0.177621 40.000000
3.062777 -0.340758 0.178083 38.000000
3.064695 -0.350492 0.178222 41.000000
3.065590 -0.360126 0.178315 42.000000
3.065462 -0.369648 0.178361 25.000000
3.065305 -0.379173 0.178407 48.000000
3.066109 -0.388826 0.178499 45.000000
3.065893 -0.398360 0.178546 40.000000
3.063666 -0.407632 0.178499 47.000000
3.059432 -0.416626 0.178361 42.000000
3.060118 -0.426286 0.178453 40.000000
3.060774 -0.435953 0.178546 37.000000
3.077216 -0.447924 0.179378 20.000000
3.065946 -0.455898 0.178916 30.000000
3.064533 -0.465302 0.178916 29.000000
3.075924 -0.476685 0.179517 17.000000
3.068527 -0.485186 0.179239 29.000000
3.075901 -0.496026 0.179655 15.000000
3.076336 -0.505784 0.179748 5.000000
3.581621 0.176108 0.157109 10.000000
3.580148 0.165027 0.157041 14.000000
3.565659 0.153400 0.156534 28.000000
3.543144 0.141545 0.155755 35.000000
3.545559 0.130748 0.155823 27.000000
3.509985 0.118658 0.154604 61.000000
3.529313 0.108470 0.155247 24.000000
3.495661 0.096706 0.154096 43.000000
3.491945 0.085883 0.153961 74.000000
3.475206 0.074806 0.153385 52.000000
3.480415 0.064235 0.153555 80.000000
3.457612 0.053206 0.152776 53.000000
3.122976 0.038511 0.141435 33.000000
3.034134 0.028117 0.138422 27.000000
3.030208 0.018784 0.138287 40.000000
3.033250 0.009496 0.138389 35.000000
3.013276 0.000192 0.137711 52.000000
3.017260 -0.009065 0.137847 54.000000
3.023215 -0.018359 0.138050 50.000000
3.022145 -0.027625 0.138016 66.000000
3.025044 -0.036934 0.138118 54.000000
3.027914 -0.046261 0.138219 51.000000
3.026759 -0.055531 0.138185 55.000000
3.028572 -0.064860 0.138253 61.000000
3.028359 -0.074151 0.138253 60.000000
3.029117 -0.083470 0.138287 48.000000
3.032842 -0.092885 0.138422 62.000000
3.032543 -0.102189 0.138422 58.000000
3.037209 -0.111677 0.138592 66.000000
3.035853 -0.120954 0.138558 59.000000
3.032472 -0.130139 0.138456 47.000000
3.032059 -0.139442 0.138456 63.000000
3.027624 -0.148547 0.138321 48.000000
3.024160 -0.157678 0.138219 61.000000
3.021666 -0.166845 0.138152 59.000000
3.023135 -0.176231 0.138219 61.000000
3.029563 -0.185935 0.138456 50.000000
3.029976 -0.195293 0.138490 62.000000
3.028365 -0.204520 0.138456 44.000000
3.032708 -0.214163 0.138626 47.000000
3.032037 -0.223466 0.138626 51.000000
3.040306 -0.233457 0.138930 61.000000
3.039575 -0.242783 0.138930 51.000000
3.030848 -0.251445 0.138659 35.000000
3.043007 -0.261858 0.139099 47.000000
3.047166 -0.271637 0.139269 56.000000
3.042338 -0.280617 0.139133 53.000000
3.042458 -0.290044 0.139167 59.000000
3.038570 -0.299083 0.139066 60.000000
3.042609 -0.308909 0.139235 54.000000
3.043635 -0.318451 0.139303 53.000000
3.045625 -0.328108 0.139404 53.000000
3.048577 -0.337891 0.139540 64.000000
3.057456 -0.348376 0.139878 36.000000
3.060344 -0.358219 0.140013 45.000000
3.059230 -0.367607 0.140013 36.000000
3.060072 -0.377235 0.140081 33.000000
3.062866 -0.387123 0.140217 38.000000
3.061664 -0.396518 0.140217 30.000000
3.054488 -0.405120 0.140013 28.000000
3.051250 -0.414220 0.139946 30.000000
3.043036 -0.422616 0.139709 29.000000
3.053599 -0.433638 0.140115 14.000000
3.049287 -0.442573 0.140013 8.000000
3.560824 0.175086 0.113008 11.000000
3.535378 0.162955 0.112445 26.000000
3.548846 0.152671 0.112726 20.000000
3.523325 0.140736 0.112164 31.000000
3.504758 0.129220 0.111752 47.000000
3.490150 0.117955 0.111428 54.000000
3.488497 0.107185 0.111385 36.000000
3.475817 0.096119 0.111103 49.000000
3.472098 0.085355 0.111017 39.000000
3.465347 0.074549 0.110865 55.000000
3.461561 0.063842 0.110779 57.000000
3.458742 0.053175 0.110714 51.000000
3.458889 0.042563 0.110714 56.000000
3.443007 0.031798 0.110367 51.000000
3.392102 0.020903 0.109264 41.000000
3.077225 0.009414 0.102447 34.000000
3.044247 -0.000040 0.101733 40.000000
3.023238 -0.009323 0.101278 32.000000
3.017197 -0.018563 0.101149 32.000000
3.017126 -0.027820 0.101149 40.000000
3.013027 -0.037028 0.101062 37.000000
3.007901 -0.046197 0.100954 37.000000
3.010744 -0.055479 0.101019 40.000000
3.013558 -0.064779 0.101084 42.000000
3.013345 -0.074024 0.101084 34.000000
3.013104 -0.083269 0.101084 38.000000
3.008837 -0.092391 0.100997 48.000000
3.009539 -0.101655 0.101019 60.000000
3.008214 -0.110851 0.100997 61.000000
3.004863 -0.119961 0.100932 39.000000
3.008476 -0.129350 0.101019 36.000000
3.005069 -0.138442 0.100954 32.000000
3.010621 -0.147953 0.101084 36.000000
3.010154 -0.157189 0.101084 57.000000
3.022635 -0.167136 0.101365 27.000000
3.013125 -0.175887 0.101170 46.000000
3.018558 -0.185496 0.101300 40.000000
3.016977 -0.194692 0.101278 40.000000
3.019358 -0.204148 0.101343 51.000000
3.018718 -0.213411 0.101343 44.000000
3.018049 -0.222671 0.101343 52.000000
3.022336 -0.232310 0.101452 42.000000
3.022605 -0.241661 0.101473 41.000000
3.019857 -0.250768 0.101430 41.000000
3.028039 -0.260801 0.101625 29.000000
3.032203 -0.270532 0.101733 44.000000
3.029368 -0.279650 0.101690 36.000000
3.033472 -0.289416 0.101798 36.000000
3.036550 -0.299111 0.101884 27.000000
3.035618 -0.308426 0.101884 26.000000
3.037640 -0.318049 0.101949 31.000000
3.041620 -0.327900 0.102058 27.000000
3.035632 -0.336681 0.101949 30.000000
3.036571 -0.346219 0.101993 32.000000
3.039467 -0.355997 0.102079 41.000000
3.028434 -0.364130 0.101863 19.000000
3.533605 0.173137 0.068761 34.000000
3.537117 0.162433 0.068788 20.000000
3.526609 0.151110 0.068687 22.000000
3.500078 0.139220 0.068437 45.000000
3.486499 0.127969 0.068307 60.000000
3.475882 0.116904 0.068206 64.000000
3.472226 0.106118 0.068169 46.000000
3.461540 0.095164 0.068067 57.000000
3.451819 0.084300 0.067974 40.000000
3.442064 0.073498 0.067882 67.000000
3.437274 0.062846 0.067836 74.000000
3.425453 0.052119 0.067725 34.000000
3.435595 0.041730 0.067817 60.000000
3.426708 0.031109 0.067734 53.000000
3.434787 0.020643 0.067808 84.000000
3.429834 0.010091 0.067762 70.000000
3.440849 -0.000434 0.067863 113.000000
3.366835 -0.010746 0.067179 48.000000
3.053805 -0.019079 0.064284 45.000000
3.029735 -0.028222 0.064062 51.000000
3.017635 -0.037366 0.063951 46.000000
3.008508 -0.046484 0.063867 41.000000
3.008351 -0.055714 0.063867 56.000000
3.010166 -0.064986 0.063886 32.000000
3.001955 -0.074023 0.063812 65.000000
3.007711 -0.083400 0.063867 52.000000
3.003443 -0.092503 0.063830 70.000000
3.004144 -0.101751 0.063840 61.000000
3.006816 -0.111078 0.063867 60.000000
3.003464 -0.120182 0.063840 57.000000
3.009075 -0.129655 0.063895 64.000000
3.008663 -0.138886 0.063895 53.000000
3.011219 -0.148264 0.063923 57.000000
3.014744 -0.157711 0.063960 69.000000
3.012249 -0.166848 0.063941 56.000000
3.012722 -0.176148 0.063951 51.000000
3.014163 -0.185513 0.063969 49.000000
3.010586 -0.194565 0.063941 55.000000
3.021947 -0.204613 0.064052 74.000000
3.019310 -0.213742 0.064034 48.000000
3.023626 -0.223373 0.064080 40.000000
3.028909 -0.233109 0.064136 47.000000
3.031170 -0.242641 0.064163 42.000000
3.035394 -0.252354 0.064210 46.000000
3.040583 -0.262181 0.064265 56.000000
3.038768 -0.271419 0.064256 77.000000
3.036925 -0.280649 0.064247 43.000000
3.039036 -0.290250 0.064274 41.000000
3.034151 -0.299179 0.064237 77.000000
3.038193 -0.308993 0.064284 49.000000
