ply
format ascii 1.0
element vertex 1277
property float x
property float y
property float z
property float intensity
end_header
3.212228 0.109587 0.419257 56.000000
3.211557 0.099700 0.419138 53.000000
3.211848 0.089847 0.419138 64.000000
3.215086 0.080068 0.419495 58.000000
3.215317 0.070203 0.419495 58.000000
3.218495 0.060396 0.419851 53.000000
3.224622 0.050617 0.420565 49.000000
3.224761 0.040724 0.420565 32.000000
3.233807 0.030919 0.421635 28.000000
3.230908 0.020977 0.421279 52.000000
3.233936 0.011076 0.421635 64.000000
3.236934 0.001156 0.421992 39.000000
3.236922 -0.008774 0.421992 32.000000
3.135992 0.827900 0.382824 39.000000
3.136593 0.817774 0.382610 47.000000
3.139087 0.808147 0.382610 49.000000
3.138661 0.797778 0.382290 63.000000
3.140129 0.787903 0.382183 59.000000
3.140601 0.777788 0.381970 73.000000
3.139109 0.767205 0.381542 46.000000
3.137582 0.756639 0.381115 62.000000
3.136986 0.746320 0.380795 57.000000
3.136357 0.736011 0.380475 61.000000
3.137632 0.726161 0.380368 54.000000
3.141784 0.716974 0.380581 66.000000
3.142998 0.707113 0.380475 59.000000
3.147094 0.697898 0.380688 56.000000
3.152135 0.688876 0.381008 56.000000
3.154234 0.679202 0.381008 61.000000
3.157275 0.669728 0.381115 53.000000
3.160288 0.660242 0.381222 57.000000
3.157429 0.649542 0.380688 67.000000
3.162331 0.640443 0.381008 61.000000
3.165256 0.630933 0.381115 63.000000
3.162298 0.620263 0.380581 59.000000
3.162234 0.610181 0.380368 58.000000
3.162137 0.600106 0.380154 73.000000
3.161031 0.589855 0.379834 65.000000
3.162826 0.580155 0.379834 65.000000
3.161655 0.569920 0.379514 64.000000
3.163389 0.560217 0.379514 66.000000
3.166072 0.550680 0.379620 55.000000
3.165787 0.540629 0.379407 51.000000
3.166450 0.530750 0.379300 69.000000
3.166101 0.520711 0.379086 74.000000
3.166702 0.510836 0.378980 73.000000
3.170218 0.501429 0.379193 89.000000
3.176655 0.492462 0.379727 58.000000
3.181100 0.483161 0.380047 66.000000
3.182567 0.473399 0.380047 52.000000
3.185972 0.463919 0.380261 73.000000
3.183211 0.433638 0.379514 66.000000
3.183540 0.423739 0.379407 76.000000
3.184825 0.413970 0.379407 53.000000
3.191999 0.404947 0.380047 70.000000
3.198160 0.395763 0.380581 93.000000
3.201334 0.386187 0.380795 70.000000
3.202503 0.376364 0.380795 82.000000
3.201667 0.366311 0.380581 70.000000
3.195859 0.355717 0.379834 49.000000
3.201878 0.346445 0.380368 72.000000
3.197981 0.336101 0.379834 67.000000
3.196030 0.325986 0.379514 53.000000
3.198004 0.316277 0.379620 60.000000
3.198959 0.306464 0.379620 60.000000
3.201865 0.296832 0.379834 54.000000
3.204741 0.287185 0.380047 52.000000
3.203470 0.267268 0.379727 53.000000
3.204275 0.257438 0.379727 61.000000
3.205050 0.247606 0.379727 59.000000
3.202820 0.237552 0.379407 71.000000
3.201550 0.227584 0.379193 64.000000
3.202233 0.217761 0.379193 56.000000
3.200902 0.207807 0.378980 44.000000
3.199539 0.197863 0.378766 62.000000
3.201124 0.188104 0.378873 59.000000
3.203671 0.178393 0.379086 71.000000
3.207183 0.168720 0.379407 62.000000
3.213643 0.159174 0.380047 50.000000
3.214117 0.149314 0.380047 63.000000
3.219526 0.139667 0.380581 50.000000
3.223914 0.129949 0.381008 50.000000
3.224297 0.120057 0.381008 58.000000
3.224650 0.110165 0.381008 53.000000
3.225967 0.100302 0.381115 50.000000
3.225266 0.090377 0.381008 45.000000
3.228510 0.080555 0.381329 50.000000
3.228741 0.070650 0.381329 47.000000
3.231925 0.060800 0.381649 50.000000
3.238061 0.050977 0.382290 61.000000
3.244168 0.041118 0.382931 48.000000
3.244279 0.031164 0.382931 55.000000
3.246348 0.021224 0.383144 71.000000
3.247392 0.011267 0.383251 72.000000
3.250394 0.001305 0.383571 61.000000
3.250383 -0.008667 0.383571 64.000000
3.251335 -0.018645 0.383678 46.000000
3.247286 -0.028584 0.383251 17.000000
3.132193 0.826167 0.343734 42.000000
3.130860 0.815548 0.343354 37.000000
3.131419 0.805442 0.343164 43.000000
3.133876 0.795832 0.343164 49.000000
3.133406 0.785486 0.342879 46.000000
3.132902 0.775151 0.342594 51.000000
3.134093 0.744900 0.342025 54.000000
3.136364 0.735282 0.342025 55.000000
3.136665 0.725207 0.341835 60.000000
3.140816 0.716023 0.342025 57.000000
3.142998 0.706384 0.342025 77.000000
3.144179 0.696522 0.341930 50.000000
3.147273 0.687086 0.342025 65.000000
3.151313 0.677846 0.342215 53.000000
3.156299 0.668795 0.342499 63.000000
3.159310 0.659312 0.342594 60.000000
3.159368 0.649215 0.342404 47.000000
3.166223 0.640508 0.342879 48.000000
3.168173 0.630791 0.342879 44.000000
3.167163 0.620493 0.342594 61.000000
3.166120 0.610207 0.342310 56.000000
3.166999 0.600305 0.342215 51.000000
3.167847 0.590403 0.342120 71.000000
3.171602 0.581041 0.342310 59.000000
3.170431 0.570778 0.342025 49.000000
3.175107 0.561569 0.342310 46.000000
3.176815 0.551826 0.342310 73.000000
3.174568 0.541406 0.341930 50.000000
3.175232 0.531499 0.341835 68.000000
3.172919 0.521109 0.341455 56.000000
3.174503 0.511372 0.341455 53.000000
3.174090 0.501319 0.341265 76.000000
3.174630 0.491426 0.341170 59.000000
3.177107 0.481833 0.341265 84.000000
3.178570 0.472084 0.341265 65.000000
3.177048 0.461899 0.340980 68.000000
3.178450 0.452150 0.340980 56.000000
3.180808 0.442534 0.341075 59.000000
3.183137 0.432908 0.341170 65.000000
3.185437 0.423272 0.341265 85.000000
3.186721 0.413497 0.341265 59.000000
3.190937 0.404095 0.341550 75.000000
3.195126 0.394670 0.341835 80.000000
3.195333 0.384746 0.341740 66.000000
3.193532 0.374592 0.341455 70.000000
3.192689 0.364567 0.341265 59.000000
3.193792 0.354770 0.341265 68.000000
3.199814 0.345506 0.341740 60.000000
3.203829 0.336000 0.342025 52.000000
3.203854 0.326068 0.341930 64.000000
3.207812 0.316531 0.342215 60.000000
3.209759 0.306784 0.342310 58.000000
3.210685 0.296935 0.342310 56.000000
3.208606 0.286816 0.342025 77.000000
3.212446 0.277229 0.342310 50.000000
3.208322 0.266957 0.341835 65.000000
3.209126 0.257113 0.341835 76.000000
3.212877 0.247497 0.342120 74.000000
3.213621 0.237639 0.342120 53.000000
3.212349 0.227637 0.341930 55.000000
3.212039 0.217713 0.341835 78.000000
3.213685 0.207922 0.341930 45.000000
3.214308 0.198062 0.341930 62.000000
3.212913 0.188082 0.341740 51.000000
3.212481 0.178169 0.341645 59.000000
3.214006 0.168365 0.341740 69.000000
3.217491 0.158652 0.342025 57.000000
3.215974 0.148687 0.341835 44.000000
3.215420 0.138777 0.341740 63.000000
3.217820 0.128992 0.341930 41.000000
3.220190 0.119193 0.342120 68.000000
3.224520 0.109450 0.342499 84.000000
3.230811 0.099743 0.343069 58.000000
3.237072 0.089999 0.343639 57.000000
3.240318 0.080142 0.343924 56.000000
3.241544 0.070222 0.344019 55.000000
3.244730 0.060334 0.344304 66.000000
3.247886 0.050426 0.344589 62.000000
3.249021 0.040474 0.344684 47.000000
3.250125 0.030516 0.344779 44.000000
3.254186 0.020571 0.345159 60.000000
3.254233 0.010587 0.345159 42.000000
3.261219 0.000607 0.345824 48.000000
3.263196 -0.009403 0.346014 42.000000
3.226320 -0.019208 0.342499 8.000000
3.124941 0.824984 0.302296 48.000000
3.126493 0.815142 0.302213 50.000000
3.129944 0.805794 0.302296 64.000000
3.137231 0.797415 0.302708 43.000000
3.143529 0.788756 0.303038 48.000000
3.142065 0.778150 0.302708 53.000000
3.144438 0.768507 0.302708 44.000000
3.141936 0.757689 0.302296 65.000000
3.143276 0.747815 0.302213 58.000000
3.147496 0.738623 0.302378 62.000000
3.145864 0.728065 0.302048 74.000000
3.147111 0.718189 0.301966 57.000000
3.152216 0.709186 0.302213 38.000000
3.159242 0.700590 0.302625 57.000000
3.165271 0.691745 0.302955 69.000000
3.169327 0.682450 0.303120 62.000000
3.172381 0.672930 0.303203 65.000000
3.177357 0.663805 0.303450 54.000000
3.179379 0.654054 0.303450 54.000000
3.181370 0.644297 0.303450 52.000000
3.176490 0.633171 0.302873 52.000000
3.173528 0.622464 0.302460 56.000000
3.166517 0.600937 0.301553 59.000000
3.167366 0.591037 0.301471 73.000000
3.169165 0.581317 0.301471 69.000000
3.172895 0.571945 0.301636 69.000000
3.181504 0.563423 0.302213 52.000000
3.183218 0.553660 0.302213 57.000000
3.185884 0.544059 0.302296 63.000000
3.186555 0.534118 0.302213 57.000000
3.188178 0.524339 0.302213 58.000000
3.186821 0.514079 0.301966 58.000000
3.186414 0.503989 0.301801 62.000000
3.186960 0.494058 0.301718 67.000000
3.188461 0.484278 0.301718 59.000000
3.193875 0.475080 0.302048 58.000000
3.194331 0.465136 0.301966 55.000000
3.196502 0.435447 0.301801 75.000000
3.200786 0.426033 0.302048 71.000000
3.203067 0.416339 0.302131 56.000000
3.201363 0.406134 0.301883 70.000000
3.203583 0.396433 0.301966 65.000000
3.206763 0.386841 0.302131 78.000000
3.203975 0.376536 0.301801 47.000000
3.205116 0.366705 0.301801 55.000000
3.206225 0.356870 0.301801 55.000000
3.206314 0.346925 0.301718 67.000000
3.211328 0.337502 0.302048 61.000000
3.214331 0.327851 0.302213 65.000000
3.213339 0.317792 0.302048 68.000000
3.215291 0.308027 0.302131 57.000000
3.218205 0.298345 0.302296 51.000000
3.221091 0.288648 0.302460 76.000000
3.222801 0.268878 0.302460 64.000000
3.223611 0.258989 0.302460 66.000000
3.226377 0.249251 0.302625 62.000000
3.226133 0.239278 0.302543 38.000000
3.222876 0.229097 0.302213 46.000000
3.223563 0.219209 0.302213 84.000000
3.231182 0.209769 0.302790 54.000000
3.239768 0.200346 0.303450 72.000000
3.240368 0.190406 0.303450 61.000000
3.239942 0.180408 0.303367 54.000000
3.240480 0.170467 0.303367 55.000000
3.241983 0.160574 0.303450 67.000000
3.237483 0.150396 0.303038 58.000000
3.230959 0.140162 0.302460 53.000000
3.231374 0.130249 0.302460 53.000000
3.232754 0.120371 0.302543 77.000000
3.237092 0.110588 0.302873 61.000000
3.241401 0.100780 0.303203 53.000000
3.240699 0.090807 0.303120 56.000000
3.244947 0.080963 0.303450 61.000000
3.249166 0.071094 0.303780 54.000000
3.251361 0.061163 0.303945 53.000000
3.252530 0.051203 0.304027 63.000000
3.250679 0.041199 0.303862 57.000000
3.248797 0.031207 0.303697 44.000000
3.248878 0.021240 0.303697 53.000000
3.248927 0.011272 0.303697 53.000000
3.257916 0.001307 0.304439 23.000000
3.138815 0.826750 0.264884 33.000000
3.139406 0.816613 0.264743 45.000000
3.141897 0.806978 0.264743 41.000000
3.143391 0.797089 0.264672 49.000000
3.148725 0.788170 0.264884 36.000000
3.145318 0.777068 0.264460 61.000000
3.158159 0.749470 0.264884 55.000000
3.163357 0.740461 0.265096 51.000000
3.168530 0.731427 0.265308 41.000000
3.167841 0.721037 0.265096 47.000000
3.167119 0.710659 0.264884 63.000000
3.158571 0.698565 0.264107 37.000000
3.162649 0.689297 0.264248 39.000000
3.168649 0.680430 0.264531 60.000000
3.170722 0.670706 0.264531 40.000000
3.172765 0.660975 0.264531 57.000000
3.179663 0.652242 0.264884 40.000000
3.177738 0.641693 0.264601 39.000000
3.177735 0.631551 0.264460 43.000000
3.173784 0.620648 0.264036 59.000000
3.164793 0.598747 0.263118 40.000000
3.164482 0.578598 0.262836 43.000000
3.169188 0.569417 0.263048 54.000000
3.173867 0.560213 0.263259 38.000000
3.177536 0.550814 0.263401 38.000000
3.182160 0.541566 0.263613 44.000000
3.183807 0.531801 0.263613 53.000000
3.182471 0.521546 0.263401 53.000000
3.185041 0.511938 0.263471 52.000000
3.193493 0.503253 0.263966 31.000000
3.193051 0.493148 0.263824 55.000000
3.197507 0.483799 0.264036 45.000000
3.195030 0.473400 0.263754 54.000000
3.194493 0.463309 0.263613 54.000000
3.199850 0.454068 0.263895 46.000000
3.199252 0.443974 0.263754 46.000000
3.194668 0.433350 0.263330 50.000000
3.201916 0.424335 0.263754 43.000000
3.201224 0.414253 0.263613 62.000000
3.201490 0.404305 0.263542 56.000000
3.203706 0.394603 0.263613 42.000000
3.200940 0.384296 0.263330 54.000000
3.200122 0.374241 0.263189 51.000000
3.201255 0.364421 0.263189 50.000000
3.201367 0.354488 0.263118 66.000000
3.199464 0.344344 0.262906 40.000000
3.204473 0.334942 0.263189 43.000000
3.206478 0.325211 0.263259 48.000000
3.212424 0.315862 0.263613 50.000000
3.214371 0.306099 0.263683 52.000000
3.217282 0.296420 0.263824 42.000000
3.222150 0.286904 0.264107 47.000000
3.225003 0.277188 0.264248 62.000000
3.228820 0.267541 0.264460 57.000000
3.228632 0.257554 0.264389 45.000000
3.228412 0.247571 0.264319 56.000000
3.228162 0.237592 0.264248 48.000000
3.224895 0.227405 0.263966 64.000000
3.227568 0.217645 0.264107 48.000000
3.231207 0.207935 0.264319 65.000000
3.232826 0.198082 0.264389 51.000000
3.235409 0.188280 0.264531 41.000000
3.236968 0.178408 0.264601 57.000000
3.241485 0.168685 0.264884 62.000000
3.238998 0.158592 0.264672 49.000000
3.235484 0.148470 0.264389 66.000000
3.233931 0.138457 0.264248 66.000000
3.230354 0.128375 0.263966 47.000000
3.232726 0.118537 0.264107 53.000000
3.235068 0.108687 0.264248 62.000000
3.232395 0.098669 0.264036 40.000000
3.240659 0.088973 0.264601 48.000000
3.239920 0.079006 0.264531 43.000000
3.244136 0.069152 0.264813 53.000000
3.248322 0.059273 0.265096 47.000000
3.251481 0.049354 0.265308 45.000000
3.254610 0.039415 0.265520 59.000000
3.257708 0.029458 0.265731 27.000000
3.254790 0.019445 0.265520 45.000000
3.264809 0.009492 0.266226 39.000000
3.268813 -0.000524 0.266508 15.000000
3.204956 -0.010369 0.261988 5.000000
3.154216 0.821781 0.224915 37.000000
3.154788 0.811603 0.224799 46.000000
3.155328 0.801429 0.224683 51.000000
3.156804 0.791502 0.224625 47.000000
3.160186 0.782053 0.224683 65.000000
3.161601 0.772118 0.224625 67.000000
3.166866 0.763116 0.224799 52.000000
3.173078 0.754319 0.225031 48.000000
3.175377 0.744581 0.225031 49.000000
3.177646 0.734835 0.225031 60.000000
3.178913 0.724861 0.224973 54.000000
3.175277 0.713792 0.224625 46.000000
3.175503 0.703615 0.224509 51.000000
3.181548 0.694721 0.224741 55.000000
3.181712 0.684537 0.224625 63.000000
3.183798 0.674773 0.224625 69.000000
3.185853 0.665002 0.224625 59.000000
3.188856 0.655426 0.224683 63.000000
3.189873 0.645441 0.224625 73.000000
3.186943 0.634677 0.224334 48.000000
3.185936 0.624321 0.224160 81.000000
3.183915 0.613789 0.223928 63.000000
3.188726 0.604575 0.224102 61.000000
3.190566 0.594790 0.224102 45.000000
3.189430 0.584459 0.223928 63.000000
3.197103 0.575732 0.224276 46.000000
3.197871 0.565747 0.224218 55.000000
3.198608 0.555762 0.224160 58.000000
3.202266 0.546282 0.224276 55.000000
3.198020 0.535467 0.223928 54.000000
3.196692 0.525168 0.223753 71.000000
3.200259 0.515675 0.223870 67.000000
3.196896 0.505076 0.223579 56.000000
3.198430 0.495266 0.223579 43.000000
3.200921 0.485601 0.223637 59.000000
3.197459 0.475045 0.223347 60.000000
3.202853 0.465807 0.223579 60.000000
3.209972 0.436713 0.223753 53.000000
3.209318 0.426600 0.223637 53.000000
3.209621 0.416623 0.223579 70.000000
3.211875 0.406900 0.223637 51.000000
3.215089 0.397289 0.223753 51.000000
3.213320 0.387065 0.223579 55.000000
3.216475 0.377438 0.223695 67.000000
3.218610 0.367681 0.223753 62.000000
3.223691 0.358245 0.223986 61.000000
3.225768 0.348460 0.224044 64.000000
3.223843 0.338250 0.223870 56.000000
3.225859 0.328459 0.223928 55.000000
3.228839 0.318757 0.224044 45.000000
3.230795 0.308944 0.224102 50.000000
3.233716 0.299214 0.224218 54.000000
3.234619 0.289292 0.224218 63.000000
3.240312 0.269770 0.224450 62.000000
3.244110 0.260067 0.224625 62.000000
3.241907 0.249883 0.224450 55.000000
3.242658 0.239936 0.224450 65.000000
3.245370 0.230127 0.224567 53.000000
3.247057 0.220237 0.224625 53.000000
3.242736 0.209952 0.224334 57.000000
3.239379 0.199757 0.224102 68.000000
3.237984 0.189702 0.223986 55.000000
3.238551 0.179767 0.223986 52.000000
3.238090 0.169778 0.223928 59.000000
3.237598 0.159794 0.223870 48.000000
3.238074 0.149860 0.223870 49.000000
3.242508 0.140097 0.224102 69.000000
3.244917 0.130228 0.224218 50.000000
3.245301 0.120272 0.224218 54.000000
3.251642 0.110518 0.224567 60.000000
3.252963 0.100573 0.224625 59.000000
3.255252 0.090647 0.224741 63.000000
3.255515 0.080660 0.224741 58.000000
3.256745 0.070693 0.224799 64.000000
3.257945 0.060720 0.224857 63.000000
3.260113 0.050755 0.224973 56.000000
3.262249 0.040778 0.225089 39.000000
3.265354 0.030797 0.225264 41.000000
3.263437 0.020767 0.225147 52.000000
3.269475 0.010773 0.225496 48.000000
3.275482 0.000743 0.225845 30.000000
3.260494 -0.009261 0.224973 7.000000
3.157554 0.820755 0.186452 36.000000
3.152317 0.809075 0.186082 26.000000
3.159626 0.800628 0.186313 52.000000
3.157223 0.789717 0.186082 37.000000
3.160600 0.780267 0.186128 35.000000
3.168965 0.741195 0.186082 48.000000
3.173170 0.731919 0.186174 44.000000
3.175400 0.722180 0.186174 47.000000
3.177601 0.712435 0.186174 50.000000
3.178797 0.702467 0.186128 51.000000
3.178985 0.692285 0.186036 49.000000
3.176211 0.681480 0.185805 26.000000
3.184150 0.672973 0.186082 38.000000
3.181310 0.662182 0.185851 43.000000
3.181370 0.652017 0.185758 38.000000
3.182376 0.642056 0.185712 32.000000
3.181392 0.631704 0.185573 46.000000
3.179394 0.621174 0.185388 41.000000
3.182266 0.611605 0.185435 47.000000
3.183145 0.601653 0.185388 46.000000
3.187759 0.582291 0.185435 51.000000
3.187565 0.572154 0.185342 35.000000
3.192256 0.562894 0.185481 37.000000
3.193968 0.553097 0.185481 38.000000
3.201558 0.544302 0.185758 38.000000
3.206169 0.534972 0.185897 52.000000
3.206809 0.524971 0.185851 48.000000
3.209391 0.515289 0.185897 55.000000
3.214904 0.506063 0.186082 38.000000
3.212492 0.495587 0.185897 51.000000
3.213998 0.485729 0.185897 51.000000
3.212508 0.475426 0.185758 50.000000
3.209009 0.464851 0.185527 53.000000
3.211409 0.455144 0.185573 46.000000
3.204875 0.444189 0.185204 53.000000
3.201273 0.433682 0.184972 45.000000
3.210511 0.424910 0.185342 36.000000
3.214772 0.415444 0.185481 52.000000
3.211076 0.404952 0.185250 34.000000
3.211311 0.394977 0.185204 45.000000
3.216475 0.385600 0.185388 37.000000
3.216651 0.375614 0.185342 46.000000
3.222751 0.366309 0.185573 30.000000
3.220881 0.356090 0.185435 35.000000
3.220965 0.346100 0.185388 38.000000
3.223999 0.336424 0.185481 43.000000
3.227997 0.326835 0.185620 33.000000
3.234950 0.317517 0.185897 52.000000
3.233919 0.307401 0.185805 38.000000
3.234847 0.297478 0.185805 30.000000
3.238729 0.287819 0.185943 41.000000
3.240592 0.277967 0.185990 55.000000
3.243421 0.268189 0.186082 43.000000
3.246220 0.258396 0.186174 43.000000
3.241021 0.247976 0.185897 48.000000
3.246748 0.238399 0.186128 42.000000
3.248461 0.228508 0.186174 47.000000
3.248150 0.218473 0.186128 43.000000
3.246811 0.208378 0.186036 47.000000
3.250427 0.198600 0.186174 35.000000
3.251021 0.188627 0.186174 36.000000
3.255574 0.178873 0.186359 39.000000
3.253114 0.168728 0.186221 56.000000
3.252619 0.158698 0.186174 44.000000
3.259078 0.148994 0.186452 42.000000
3.256526 0.138866 0.186313 50.000000
3.255938 0.128834 0.186267 34.000000
3.255320 0.118808 0.186221 34.000000
3.252674 0.108719 0.186082 34.000000
3.252992 0.098739 0.186082 40.000000
3.256275 0.088842 0.186221 45.000000
3.251539 0.078728 0.185990 39.000000
3.253763 0.068795 0.186082 42.000000
3.259951 0.058923 0.186359 35.000000
3.262114 0.048952 0.186452 47.000000
3.265246 0.038981 0.186591 37.000000
3.271343 0.029018 0.186868 41.000000
3.268420 0.018963 0.186729 53.000000
3.274457 0.008954 0.187007 36.000000
3.232514 -0.001093 0.185065 17.000000
3.112624 -0.010645 0.179517 4.000000
3.162701 0.823404 0.146344 41.000000
3.170052 0.814941 0.146513 30.000000
3.167694 0.803983 0.146344 44.000000
3.164329 0.792804 0.146141 36.000000
3.174508 0.785011 0.146412 47.000000
3.182727 0.776689 0.146615 48.000000
3.178293 0.765284 0.146378 33.000000
3.178681 0.755067 0.146310 37.000000
3.179037 0.744856 0.146242 35.000000
3.183254 0.735549 0.146310 32.000000
3.191343 0.727111 0.146513 49.000000
3.464218 0.678195 0.155213 21.000000
3.512409 0.676442 0.156805 25.000000
3.538036 0.670124 0.157617 24.000000
3.542040 0.659632 0.157685 24.000000
3.523402 0.644985 0.156974 28.000000
3.521429 0.633465 0.156838 27.000000
3.487926 0.616401 0.155620 33.000000
3.475029 0.603135 0.155112 37.000000
3.469966 0.591297 0.154875 39.000000
3.457964 0.578342 0.154401 37.000000
3.445914 0.565466 0.153927 33.000000
3.436779 0.553146 0.153555 44.000000
3.450306 0.544467 0.153961 53.000000
3.454923 0.534337 0.154062 53.000000
3.487180 0.528373 0.155112 86.000000
3.470989 0.515034 0.154503 59.000000
3.456728 0.502086 0.153961 62.000000
3.447367 0.489932 0.153588 49.000000
3.423116 0.475779 0.152708 32.000000
3.425550 0.465410 0.152742 39.000000
3.452721 0.458314 0.153622 49.000000
3.467987 0.449516 0.154096 58.000000
3.476291 0.439752 0.154333 55.000000
3.497462 0.431530 0.155010 63.000000
3.510677 0.422229 0.155417 71.000000
3.503022 0.410411 0.155112 62.000000
3.470502 0.395815 0.153961 29.000000
3.530308 0.391661 0.155958 14.000000
3.552360 0.383076 0.156669 19.000000
3.521710 0.368848 0.155586 29.000000
3.516860 0.357436 0.155383 39.000000
3.552751 0.350072 0.156568 36.000000
3.584651 0.342110 0.157617 23.000000
3.582698 0.330836 0.157515 39.000000
3.576728 0.319222 0.157278 34.000000
3.597605 0.309960 0.157956 42.000000
3.610492 0.299913 0.158362 36.000000
3.608591 0.706490 0.115431 18.000000
3.596998 0.692764 0.115128 17.000000
3.597143 0.681353 0.115085 25.000000
3.582508 0.667197 0.114717 30.000000
3.578638 0.655121 0.114587 17.000000
3.557017 0.639883 0.114068 28.000000
3.543212 0.626178 0.113722 31.000000
3.527387 0.612221 0.113332 50.000000
3.519394 0.599714 0.113116 34.000000
3.512343 0.587427 0.112921 52.000000
3.510183 0.575999 0.112834 32.000000
3.498115 0.562999 0.112532 44.000000
3.492913 0.551171 0.112380 63.000000
3.493600 0.540299 0.112358 57.000000
3.489310 0.528678 0.112229 55.000000
3.492894 0.518264 0.112272 44.000000
3.497435 0.507978 0.112337 37.000000
3.496008 0.496823 0.112272 46.000000
3.497516 0.486095 0.112272 41.000000
3.503943 0.476037 0.112380 36.000000
3.501424 0.464757 0.112293 46.000000
3.504816 0.454270 0.112337 46.000000
3.506193 0.443516 0.112337 49.000000
3.507537 0.432757 0.112337 52.000000
3.512819 0.422472 0.112423 50.000000
3.527999 0.413327 0.112726 65.000000
3.528257 0.402387 0.112705 47.000000
3.535437 0.392224 0.112834 45.000000
3.550539 0.382881 0.113137 51.000000
3.563629 0.373240 0.113397 33.000000
3.576693 0.363522 0.113657 28.000000
3.592715 0.354023 0.113981 37.000000
3.605726 0.344142 0.114241 29.000000
3.627671 0.335016 0.114696 36.000000
3.656564 0.326383 0.115301 18.000000
3.657547 0.315163 0.115301 21.000000
3.671449 0.305020 0.115583 25.000000
3.583120 0.689406 0.069787 13.000000
3.578341 0.677109 0.069723 19.000000
3.568604 0.663934 0.069612 28.000000
3.559803 0.651005 0.069510 27.000000
3.541116 0.636369 0.069316 38.000000
3.529265 0.623070 0.069186 33.000000
3.515396 0.609508 0.069038 32.000000
3.502462 0.596204 0.068899 56.000000
3.492439 0.583480 0.068788 41.000000
3.491252 0.572278 0.068761 38.000000
3.487068 0.560612 0.068705 48.000000
3.481857 0.548822 0.068640 56.000000
3.479571 0.537527 0.068603 58.000000
3.479227 0.526551 0.068585 39.000000
3.478847 0.515581 0.068566 49.000000
3.477444 0.504475 0.068539 63.000000
3.476995 0.493523 0.068520 68.000000
3.485426 0.483815 0.068585 57.000000
3.490858 0.473657 0.068622 50.000000
3.498242 0.463733 0.068677 53.000000
3.505599 0.453768 0.068733 52.000000
3.512927 0.443762 0.068788 60.000000
3.514272 0.432983 0.068788 52.000000
3.517569 0.422437 0.068807 50.000000
3.522821 0.412108 0.068844 38.000000
3.524069 0.401298 0.068844 52.000000
3.530253 0.391034 0.068890 42.000000
3.540384 0.381164 0.068973 40.000000
3.567395 0.373001 0.069214 21.000000
3.566533 0.361853 0.069195 28.000000
3.586535 0.352767 0.069371 26.000000
3.597554 0.342710 0.069464 26.000000
3.624478 0.334054 0.069704 17.000000
3.632458 0.323553 0.069769 27.000000
3.639412 0.312921 0.069824 23.000000
3.651317 0.302661 0.069926 11.000000
3.583089 0.690081 0.024132 15.000000
3.577330 0.677594 0.024158 12.000000
3.562680 0.663498 0.024215 22.000000
3.561748 0.652023 0.024225 20.000000
3.542081 0.637191 0.024298 22.000000
3.506601 0.619695 0.024424 39.000000
3.492723 0.606193 0.024477 53.000000
3.487666 0.594297 0.024500 49.000000
3.485528 0.582933 0.024513 40.000000
3.480393 0.571101 0.024536 55.000000
3.474231 0.559147 0.024563 41.000000
3.473954 0.548173 0.024570 51.000000
3.467714 0.536287 0.024596 81.000000
3.467366 0.525345 0.024603 75.000000
3.466983 0.514411 0.024609 59.000000
3.466565 0.503484 0.024616 56.000000
3.466114 0.492564 0.024623 52.000000
3.470580 0.482342 0.024613 76.000000
3.474025 0.471962 0.024606 74.000000
3.476448 0.461434 0.024603 64.000000
3.479831 0.451024 0.024596 51.000000
3.484174 0.440723 0.024586 58.000000
3.484518 0.429909 0.024590 60.000000
3.492769 0.420055 0.024566 54.000000
3.499008 0.409920 0.024550 37.000000
3.509191 0.400206 0.024520 58.000000
3.523322 0.390876 0.024477 46.000000
3.530470 0.380710 0.024457 41.000000
3.545544 0.371340 0.024410 57.000000
3.567559 0.362591 0.024341 34.000000
3.578606 0.352628 0.024308 40.000000
3.602566 0.343840 0.024231 29.000000
3.621527 0.334447 0.024172 27.000000
3.630504 0.324048 0.024145 21.000000
3.649414 0.314459 0.024085 29.000000
3.659330 0.304010 0.024056 10.000000
3.598302 0.693622 -0.021139 20.000000
3.582730 0.679229 -0.020856 24.000000
3.571035 0.665671 -0.020636 30.000000
3.544539 0.649489 -0.020181 26.000000
3.529786 0.635600 -0.019914 19.000000
3.512027 0.621287 -0.019600 26.000000
3.497169 0.607601 -0.019333 41.000000
3.490146 0.595357 -0.019191 46.000000
3.488997 0.584152 -0.019144 37.000000
3.479920 0.571663 -0.018971 66.000000
3.471786 0.559395 -0.018814 56.000000
3.467560 0.547805 -0.018720 58.000000
3.460331 0.535788 -0.018579 67.000000
3.458993 0.524720 -0.018532 84.000000
3.451685 0.512784 -0.018390 55.000000
3.453242 0.502192 -0.018390 66.000000
3.454766 0.491596 -0.018390 55.000000
3.462200 0.481820 -0.018485 68.000000
3.469607 0.472004 -0.018579 59.000000
3.472030 0.461489 -0.018594 62.000000
3.477396 0.451349 -0.018657 73.000000
3.482732 0.441181 -0.018720 73.000000
3.483077 0.430371 -0.018704 67.000000
3.487359 0.420042 -0.018752 63.000000
3.482672 0.408642 -0.018657 81.000000
3.499805 0.399769 -0.018909 46.000000
3.522877 0.391457 -0.019254 37.000000
3.529032 0.381184 -0.019333 42.000000
3.545102 0.371918 -0.019568 30.000000
3.563137 0.362760 -0.019835 33.000000
3.579159 0.353299 -0.020071 33.000000
3.601128 0.344313 -0.020401 22.000000
3.619093 0.334827 -0.020668 25.000000
3.630063 0.324612 -0.020825 20.000000
3.643992 0.314590 -0.021029 31.000000
3.641950 0.303160 -0.020982 17.000000
3.630811 0.699288 -0.066018 9.000000
3.588746 0.679760 -0.064770 16.000000
3.561334 0.663246 -0.063937 25.000000
3.530906 0.646367 -0.063022 25.000000
3.525002 0.634113 -0.062800 17.000000
3.498386 0.618241 -0.061995 40.000000
3.487464 0.605279 -0.061634 24.000000
3.479450 0.592894 -0.061357 36.000000
3.474352 0.581060 -0.061162 49.000000
3.469214 0.569263 -0.060968 35.000000
3.468971 0.558298 -0.060913 32.000000
3.469680 0.547497 -0.060885 54.000000
3.468379 0.536390 -0.060802 37.000000
3.463091 0.524696 -0.060608 48.000000
3.461718 0.513628 -0.060524 44.000000
3.462288 0.502861 -0.060497 47.000000
3.463815 0.492237 -0.060497 71.000000
3.465308 0.481608 -0.060497 50.000000
3.465779 0.470839 -0.060469 49.000000
3.467207 0.460204 -0.060469 49.000000
3.470586 0.449822 -0.060524 56.000000
3.471950 0.439173 -0.060524 58.000000
3.469312 0.428028 -0.060413 48.000000
3.472594 0.417621 -0.060469 56.000000
3.475845 0.407199 -0.060524 36.000000
3.478071 0.396647 -0.060552 52.000000
3.491193 0.387301 -0.060885 50.000000
3.504290 0.377878 -0.061218 35.000000
3.519351 0.368588 -0.061606 30.000000
3.541349 0.359918 -0.062189 26.000000
3.559348 0.350724 -0.062661 42.000000
3.582298 0.341899 -0.063271 30.000000
3.608214 0.333213 -0.063965 23.000000
3.635106 0.324460 -0.064686 29.000000
3.648035 0.314340 -0.065019 29.000000
3.663924 0.304393 -0.065436 16.000000
3.590927 0.692201 -0.110704 12.000000
3.567509 0.676345 -0.109656 22.000000
3.559744 0.663567 -0.109253 19.000000
3.535226 0.647783 -0.108164 26.000000
3.522446 0.634280 -0.107560 21.000000
3.514536 0.621731 -0.107157 31.000000
3.507567 0.609407 -0.106794 28.000000
3.496615 0.596460 -0.106270 57.000000
3.491530 0.584576 -0.105988 45.000000
3.482461 0.572080 -0.105544 62.000000
3.476308 0.560123 -0.105222 59.000000
3.468141 0.547897 -0.104819 61.000000
3.464868 0.536490 -0.104617 50.000000
3.461559 0.525109 -0.104416 56.000000
3.458211 0.513753 -0.104214 48.000000
3.459771 0.503141 -0.104214 79.000000
3.464267 0.492946 -0.104335 66.000000
3.467742 0.482591 -0.104416 54.000000
3.474156 0.472623 -0.104617 55.000000
3.474600 0.461830 -0.104577 36.000000
3.476991 0.451297 -0.104617 73.000000
3.480341 0.440878 -0.104698 55.000000
3.475728 0.429464 -0.104456 48.000000
3.477029 0.418799 -0.104456 51.000000
3.481275 0.408478 -0.104577 42.000000
3.485490 0.398136 -0.104698 59.000000
3.499605 0.388874 -0.105222 31.000000
3.511709 0.379315 -0.105665 43.000000
3.527763 0.370101 -0.106270 35.000000
3.552739 0.361703 -0.107237 28.000000
3.569742 0.352370 -0.107882 29.000000
3.585726 0.342842 -0.108487 19.000000
3.604670 0.333494 -0.109212 30.000000
3.618614 0.323589 -0.109736 23.000000
3.628549 0.313258 -0.110099 18.000000
3.643434 0.303284 -0.110663 10.000000
3.572213 0.709452 -0.153862 25.000000
3.568492 0.697339 -0.153548 21.000000
3.553944 0.683177 -0.152658 26.000000
3.552099 0.671527 -0.152449 19.000000
3.537452 0.657519 -0.151559 29.000000
3.521771 0.643427 -0.150617 30.000000
3.504072 0.629083 -0.149570 47.000000
3.493201 0.616071 -0.148890 48.000000
3.484252 0.603473 -0.148314 56.000000
3.480180 0.591774 -0.148000 45.000000
3.473114 0.579612 -0.147529 54.000000
3.468964 0.567984 -0.147215 47.000000
3.464774 0.556386 -0.146901 43.000000
3.463506 0.545287 -0.146744 48.000000
3.466149 0.534811 -0.146797 59.000000
3.464812 0.523726 -0.146640 56.000000
3.459487 0.512068 -0.146273 47.000000
3.459065 0.501165 -0.146169 46.000000
3.460587 0.490550 -0.146169 50.000000
3.463064 0.480068 -0.146221 43.000000
3.471448 0.470382 -0.146587 39.000000
3.472875 0.459730 -0.146587 50.000000
3.477240 0.449458 -0.146744 61.000000
3.481575 0.439164 -0.146901 40.000000
3.476959 0.427747 -0.146587 48.000000
3.481229 0.417436 -0.146744 34.000000
3.482494 0.406753 -0.146744 36.000000
3.479756 0.395615 -0.146535 45.000000
3.490879 0.386038 -0.147058 35.000000
3.498004 0.375969 -0.147372 35.000000
3.513046 0.366691 -0.148105 45.000000
3.531044 0.357628 -0.148995 35.000000
3.546038 0.348164 -0.149727 31.000000
3.560013 0.338516 -0.150408 29.000000
3.581917 0.329520 -0.151507 34.000000
3.595842 0.319683 -0.152187 27.000000
3.611730 0.309936 -0.152972 25.000000
3.622616 0.299680 -0.153496 19.000000
3.584198 0.702316 -0.199623 13.000000
3.554979 0.685276 -0.197552 23.000000
3.541378 0.671394 -0.196517 19.000000
3.533610 0.658698 -0.195870 24.000000
3.519909 0.644978 -0.194835 32.000000
3.510086 0.632055 -0.194058 29.000000
3.505130 0.620067 -0.193605 32.000000
3.505049 0.608970 -0.193476 43.000000
3.500999 0.597207 -0.193088 41.000000
3.495925 0.585311 -0.192635 35.000000
3.494750 0.574098 -0.192441 40.000000
3.491569 0.562580 -0.192117 35.000000
3.490321 0.551399 -0.191923 48.000000
3.490024 0.540383 -0.191793 58.000000
3.491666 0.529673 -0.191793 45.000000
3.491300 0.518665 -0.191664 35.000000
3.490900 0.507664 -0.191535 46.000000
3.489477 0.496531 -0.191341 34.000000
3.494937 0.486373 -0.191599 44.000000
3.498391 0.475917 -0.191729 37.000000
3.499834 0.465182 -0.191729 37.000000
3.501245 0.454442 -0.191729 61.000000
3.503613 0.443824 -0.191793 45.000000
3.506939 0.433317 -0.191923 37.000000
3.509243 0.422675 -0.191988 45.000000
3.511514 0.412023 -0.192052 36.000000
3.510778 0.401022 -0.191923 40.000000
3.516951 0.390799 -0.192246 40.000000
3.516149 0.379794 -0.192117 42.000000
3.525238 0.369837 -0.192635 33.000000
3.536283 0.360029 -0.193282 33.000000
3.547302 0.350158 -0.193929 40.000000
3.560281 0.340411 -0.194705 35.000000
3.581182 0.331324 -0.195999 36.000000
3.602060 0.322111 -0.197294 22.000000
3.618939 0.312430 -0.198329 25.000000
3.630820 0.302235 -0.199041 30.000000
3.640682 0.291811 -0.199623 23.000000
3.554909 0.706010 -0.240851 17.000000
3.525747 0.688971 -0.238402 27.000000
3.521970 0.677020 -0.237943 27.000000
3.517173 0.664913 -0.237407 41.000000
3.511355 0.652659 -0.236794 30.000000
3.505494 0.640447 -0.236182 33.000000
3.505480 0.629336 -0.236029 36.000000
3.502485 0.617711 -0.235646 29.000000
3.499452 0.606111 -0.235263 47.000000
3.496380 0.594534 -0.234881 34.000000
3.490320 0.582489 -0.234268 29.000000
3.490123 0.571455 -0.234115 28.000000
3.491860 0.560745 -0.234115 38.000000
3.488639 0.549253 -0.233733 33.000000
3.489322 0.538395 -0.233656 46.000000
3.488986 0.527388 -0.233503 72.000000
3.489602 0.516535 -0.233426 42.000000
3.487223 0.505254 -0.233120 38.000000
3.486783 0.494272 -0.232967 32.000000
3.485320 0.483161 -0.232737 45.000000
3.486785 0.472466 -0.232737 45.000000
3.489207 0.461898 -0.232814 37.000000
3.492585 0.451447 -0.232967 35.000000
3.502857 0.441856 -0.233656 32.000000
3.511123 0.431962 -0.234192 35.000000
3.510452 0.420949 -0.234039 55.000000
3.514697 0.410526 -0.234268 38.000000
3.519903 0.400192 -0.234575 38.000000
3.524087 0.389722 -0.234804 33.000000
3.521301 0.378480 -0.234498 32.000000
3.523437 0.367779 -0.234575 35.000000
3.526533 0.357169 -0.234728 42.000000
3.529597 0.346544 -0.234881 40.000000
3.527665 0.335430 -0.234651 47.000000
3.551513 0.326713 -0.236412 26.000000
3.558458 0.316348 -0.236871 24.000000
3.567358 0.306114 -0.237483 23.000000
3.575236 0.295745 -0.238019 38.000000
3.576127 0.284775 -0.238019 52.000000
3.551992 0.717383 -0.285183 20.000000
3.539521 0.703571 -0.283852 18.000000
3.533843 0.691180 -0.283142 20.000000
3.524209 0.678078 -0.282077 25.000000
3.514529 0.665041 -0.281013 25.000000
3.506759 0.652435 -0.280126 42.000000
3.497967 0.639704 -0.279150 18.000000
3.509717 0.630730 -0.280037 31.000000
3.505749 0.618921 -0.279505 28.000000
3.499780 0.606802 -0.278795 41.000000
3.499661 0.595728 -0.278617 33.000000
3.495578 0.584004 -0.278085 33.000000
3.492438 0.572472 -0.277641 30.000000
3.492211 0.561439 -0.277464 49.000000
3.492934 0.550567 -0.277375 27.000000
3.494606 0.539848 -0.277375 33.000000
3.493291 0.528678 -0.277109 44.000000
3.488985 0.517082 -0.276577 56.000000
3.493512 0.506805 -0.276843 25.000000
3.493078 0.495804 -0.276666 40.000000
3.491623 0.484675 -0.276399 32.000000
3.490132 0.473559 -0.276133 27.000000
3.492557 0.462980 -0.276222 27.000000
3.493960 0.452263 -0.276222 38.000000
3.496320 0.441666 -0.276311 39.000000
3.493704 0.430451 -0.275956 48.000000
3.495997 0.419849 -0.276044 79.000000
3.492322 0.408543 -0.275601 46.000000
3.494549 0.397940 -0.275690 45.000000
3.496743 0.387326 -0.275778 39.000000
3.495934 0.376383 -0.275601 35.000000
3.502026 0.366174 -0.276044 38.000000
3.507097 0.355830 -0.276399 38.000000
3.507180 0.344971 -0.276311 38.000000
3.516155 0.334964 -0.277020 36.000000
3.528077 0.325180 -0.277996 39.000000
3.534019 0.314795 -0.278440 27.000000
3.547869 0.305060 -0.279593 24.000000
3.554744 0.294666 -0.280126 22.000000
3.560596 0.284155 -0.280569 26.000000
3.567410 0.273686 -0.281102 13.000000
3.535258 0.702740 -0.328976 17.000000
3.533493 0.691125 -0.328571 28.000000
3.537550 0.680658 -0.328774 14.000000
3.523005 0.666652 -0.327053 15.000000
3.508407 0.652741 -0.325332 27.000000
3.506479 0.641257 -0.324927 30.000000
3.503534 0.629615 -0.324421 29.000000
3.498592 0.617650 -0.323712 34.000000
3.493609 0.605722 -0.323003 30.000000
3.496432 0.595168 -0.323105 41.000000
3.496279 0.584110 -0.322902 44.000000
3.497072 0.573220 -0.322801 37.000000
3.495868 0.562013 -0.322497 42.000000
3.498559 0.551441 -0.322599 40.000000
3.499250 0.540552 -0.322497 39.000000
3.500893 0.529814 -0.322497 66.000000
3.499550 0.518633 -0.322194 39.000000
3.505062 0.508466 -0.322599 38.000000
3.511530 0.498411 -0.323105 50.000000
3.521911 0.488870 -0.324016 78.000000
3.516494 0.477124 -0.323307 50.000000
3.521886 0.466857 -0.323712 21.000000
3.511463 0.454514 -0.322497 26.000000
3.513828 0.443864 -0.322599 27.000000
3.506287 0.431983 -0.321687 39.000000
3.491791 0.419321 -0.320068 81.000000
3.493062 0.408606 -0.320068 53.000000
3.486392 0.396985 -0.319258 34.000000
3.480672 0.385518 -0.318549 30.000000
3.487773 0.375479 -0.319157 45.000000
3.495834 0.365503 -0.319865 33.000000
3.500898 0.355179 -0.320270 45.000000
3.511872 0.345414 -0.321283 59.000000
3.523809 0.335679 -0.322396 43.000000
3.531756 0.325508 -0.323105 42.000000
3.533729 0.314760 -0.323206 47.000000
3.545582 0.304858 -0.324319 32.000000
3.546500 0.293979 -0.324319 26.000000
3.550360 0.283336 -0.324623 25.000000
3.576011 0.274353 -0.327154 13.000000
3.514112 0.699158 -0.369619 24.000000
3.510389 0.687229 -0.368941 25.000000
3.507603 0.675517 -0.368376 24.000000
3.497944 0.662535 -0.367019 36.000000
3.498006 0.651436 -0.366793 41.000000
3.495102 0.639808 -0.366228 27.000000
3.495092 0.628730 -0.366002 33.000000
3.499940 0.618523 -0.366341 30.000000
3.499863 0.607443 -0.366115 38.000000
3.503669 0.597036 -0.366341 33.000000
3.502544 0.585793 -0.366002 28.000000
3.508247 0.575687 -0.366454 39.000000
3.509016 0.564764 -0.366341 32.000000
3.509751 0.553841 -0.366228 39.000000
3.515361 0.543677 -0.366680 38.000000
3.523889 0.533931 -0.367471 72.000000
3.532391 0.524137 -0.368263 30.000000
3.537915 0.513869 -0.368715 26.000000
3.539475 0.503012 -0.368715 41.000000
3.551827 0.493654 -0.369958 78.000000
3.544464 0.481552 -0.368941 26.000000
3.532135 0.468847 -0.367358 20.000000
3.519762 0.456222 -0.365776 29.000000
3.515230 0.444673 -0.365098 38.000000
3.512634 0.433401 -0.364646 40.000000
3.506055 0.421674 -0.363741 52.000000
3.506345 0.410800 -0.363628 60.000000
3.500679 0.399253 -0.362837 36.000000
3.499912 0.388292 -0.362611 43.000000
3.498123 0.377234 -0.362272 28.000000
3.500252 0.366603 -0.362385 32.000000
3.503337 0.356064 -0.362611 44.000000
3.507380 0.345606 -0.362950 69.000000
3.514358 0.335409 -0.363628 46.000000
3.519328 0.324991 -0.364080 44.000000
3.525257 0.314633 -0.364646 43.000000
3.529175 0.304072 -0.364985 36.000000
3.544945 0.294475 -0.366680 22.000000
3.540879 0.283203 -0.366115 28.000000
3.561545 0.273860 -0.368376 14.000000
3.521643 0.700029 -0.415420 18.000000
3.525722 0.689602 -0.415671 12.000000
3.533666 0.679909 -0.416423 10.000000
3.521114 0.666293 -0.414543 25.000000
3.517289 0.654397 -0.413791 30.000000
3.510498 0.641994 -0.412663 34.000000
3.506593 0.630166 -0.411911 36.000000
3.510463 0.619750 -0.412161 36.000000
3.505506 0.607789 -0.411284 38.000000
3.509310 0.597365 -0.411535 45.000000
3.505255 0.585613 -0.410783 43.000000
3.509972 0.575338 -0.411159 33.000000
3.511721 0.564567 -0.411159 26.000000
3.513436 0.553791 -0.411159 46.000000
3.521001 0.543920 -0.411911 39.000000
3.547176 0.536834 -0.415044 22.000000
3.549788 0.526095 -0.415169 29.000000
3.572003 0.518200 -0.417801 18.000000
3.580451 0.508217 -0.418679 13.000000
3.561358 0.494358 -0.416047 24.000000
3.557942 0.482761 -0.415420 25.000000
3.549572 0.470537 -0.414167 22.000000
3.519515 0.455559 -0.410156 38.000000
3.520896 0.444759 -0.410156 28.000000
3.512398 0.432738 -0.408903 34.000000
3.504844 0.420893 -0.407775 44.000000
3.503163 0.409791 -0.407399 53.000000
3.496518 0.398141 -0.406396 21.000000
3.493779 0.386974 -0.405895 37.000000
3.492977 0.376041 -0.405644 35.000000
3.489180 0.364805 -0.405017 37.000000
3.486335 0.353697 -0.404516 72.000000
3.496289 0.343876 -0.405644 48.000000
3.499303 0.333337 -0.405895 54.000000
3.515128 0.323970 -0.407775 44.000000
3.522035 0.313715 -0.408527 40.000000
3.524957 0.303078 -0.408777 36.000000
3.534769 0.293003 -0.409905 41.000000
3.542574 0.282712 -0.410783 36.000000
3.637397 0.279082 -0.422689 6.000000
3.555473 0.708667 -0.464695 15.000000
3.558603 0.697946 -0.464832 26.000000
3.548083 0.684587 -0.463045 23.000000
3.545301 0.672776 -0.462358 25.000000
3.537611 0.660080 -0.460984 21.000000
3.530851 0.647616 -0.459747 35.000000
3.522099 0.634849 -0.458235 30.000000
3.523054 0.623868 -0.458097 29.000000
3.522024 0.612547 -0.457685 43.000000
3.528769 0.602572 -0.458372 27.000000
3.528647 0.591416 -0.458097 32.000000
3.530445 0.580587 -0.458097 27.000000
3.536121 0.570384 -0.458647 21.000000
3.541768 0.560151 -0.459197 26.000000
3.544448 0.549434 -0.459334 31.000000
3.560807 0.540787 -0.461396 20.000000
3.579105 0.532335 -0.463732 9.000000
3.599345 0.524062 -0.466344 7.000000
3.582871 0.499235 -0.463595 18.000000
3.582423 0.487973 -0.463320 15.000000
3.567212 0.474760 -0.460984 26.000000
3.552935 0.461773 -0.458784 27.000000
3.540579 0.449127 -0.456860 28.000000
3.527194 0.436440 -0.454799 27.000000
3.520650 0.424668 -0.453699 32.000000
3.510131 0.412479 -0.452050 31.000000
3.509412 0.401484 -0.451775 39.000000
3.509642 0.390605 -0.451637 21.000000
3.504915 0.379198 -0.450813 39.000000
3.505077 0.368339 -0.450675 33.000000
3.507177 0.357685 -0.450813 27.000000
3.514171 0.347507 -0.451637 49.000000
3.525081 0.337668 -0.453012 32.000000
3.533005 0.327491 -0.453974 35.000000
3.545831 0.317709 -0.455623 33.000000
3.545802 0.306744 -0.455486 40.000000
3.587197 0.299236 -0.461121 15.000000
3.538404 0.691449 -0.505409 11.000000
3.524973 0.677598 -0.503022 16.000000
3.513434 0.664205 -0.500934 26.000000
3.516427 0.653604 -0.501083 19.000000
3.507717 0.640854 -0.499442 34.000000
3.500908 0.628514 -0.498099 21.000000
3.499898 0.617254 -0.497651 31.000000
3.507621 0.607528 -0.498547 29.000000
3.518241 0.598259 -0.499889 36.000000
3.528837 0.588930 -0.501232 37.000000
3.539410 0.579542 -0.502575 22.000000
3.547028 0.569623 -0.503470 35.000000
3.564387 0.561204 -0.505857 28.000000
3.573909 0.551475 -0.507050 29.000000
3.560920 0.538286 -0.504813 15.000000
3.553561 0.470438 -0.502276 29.000000
3.551065 0.459026 -0.501680 33.000000
3.532836 0.445647 -0.498696 25.000000
3.521429 0.433233 -0.496756 31.000000
3.511943 0.421129 -0.495115 39.000000
3.498487 0.408627 -0.492877 31.000000
3.497759 0.397668 -0.492579 24.000000
3.495032 0.386499 -0.491982 45.000000
3.487353 0.374820 -0.490640 50.000000
3.497338 0.365046 -0.491982 34.000000
3.510246 0.355514 -0.493773 23.000000
3.520176 0.345616 -0.495115 29.000000
3.543860 0.336975 -0.498547 43.000000
3.565554 0.328010 -0.501680 36.000000
3.563589 0.316806 -0.501232 50.000000
3.592129 0.308247 -0.505409 26.000000
3.606853 0.298371 -0.507498 13.000000
3.533365 0.692361 -0.548919 13.000000
3.520935 0.678717 -0.546503 16.000000
3.523001 0.667912 -0.546503 23.000000
3.526004 0.657281 -0.546664 19.000000
3.518296 0.644683 -0.545053 33.000000
3.516372 0.633187 -0.544409 35.000000
3.522185 0.623083 -0.545053 34.000000
3.529914 0.613287 -0.546020 36.000000
3.540536 0.603947 -0.547470 32.000000
3.548212 0.594059 -0.548436 28.000000
3.554888 0.583970 -0.549242 24.000000
3.559586 0.573532 -0.549725 26.000000
3.568152 0.563686 -0.550853 24.000000
3.571816 0.553038 -0.551175 10.000000
3.560366 0.473221 -0.547470 19.000000
3.555929 0.461534 -0.546503 24.000000
3.556349 0.450498 -0.546342 29.000000
3.549878 0.438618 -0.545053 25.000000
3.534549 0.425720 -0.542315 28.000000
3.526037 0.413726 -0.540704 27.000000
3.521406 0.402234 -0.539738 24.000000
3.515757 0.390667 -0.538610 28.000000
3.511051 0.379244 -0.537643 24.000000
3.508272 0.368059 -0.536999 27.000000
3.516258 0.357993 -0.538127 30.000000
3.531090 0.348559 -0.540382 28.000000
3.547862 0.339225 -0.542959 31.000000
3.563628 0.329701 -0.545376 33.000000
3.575436 0.319733 -0.547148 24.000000
3.616715 0.312238 -0.553752 10.000000
3.541773 0.703397 -0.595160 15.000000
3.538114 0.691392 -0.594122 14.000000
3.532481 0.679044 -0.592738 25.000000
3.538419 0.668937 -0.593430 21.000000
3.535613 0.657176 -0.592565 34.000000
3.538581 0.646503 -0.592738 32.000000
3.531824 0.634075 -0.591182 21.000000
3.543452 0.624950 -0.592911 25.000000
3.548264 0.614581 -0.593430 40.000000
3.559842 0.605347 -0.595160 30.000000
3.556825 0.593610 -0.594295 29.000000
3.551826 0.581579 -0.593084 26.000000
3.561373 0.571931 -0.594468 13.000000
3.569427 0.461405 -0.593084 21.000000
3.563986 0.449587 -0.591874 17.000000
3.556551 0.437566 -0.590317 20.000000
3.542230 0.424771 -0.587550 25.000000
3.528843 0.412182 -0.584955 23.000000
3.523241 0.400573 -0.583744 22.000000
3.512706 0.388459 -0.581669 29.000000
3.519757 0.378314 -0.582707 30.000000
3.518942 0.367309 -0.582361 22.000000
3.522012 0.356710 -0.582707 40.000000
3.534852 0.347062 -0.584782 32.000000
3.540802 0.336683 -0.585647 33.000000
3.533973 0.325094 -0.584263 29.000000
3.541921 0.704048 -0.638632 18.000000
3.538276 0.692047 -0.637526 19.000000
3.539418 0.681002 -0.637341 38.000000
3.556942 0.673063 -0.640293 48.000000
3.561889 0.662686 -0.640846 56.000000
3.552304 0.649634 -0.638632 34.000000
3.550410 0.638038 -0.637895 25.000000
3.554287 0.627484 -0.638263 25.000000
3.557163 0.616745 -0.638448 42.000000
3.558070 0.605664 -0.638263 26.000000
3.548279 0.592803 -0.636050 20.000000
3.564629 0.584297 -0.638817 9.000000
3.578845 0.452082 -0.637895 20.000000
3.573386 0.440259 -0.636603 25.000000
3.570817 0.428826 -0.635865 28.000000
3.558449 0.416272 -0.633283 29.000000
3.538225 0.402908 -0.629225 25.000000
3.538468 0.391943 -0.629040 28.000000
3.537699 0.380875 -0.628671 34.000000
3.533964 0.369509 -0.627749 29.000000
3.538014 0.358963 -0.628302 25.000000
3.537143 0.347915 -0.627933 18.000000
3.543085 0.337527 -0.628856 21.000000
3.546062 0.326835 -0.629225 12.000000
3.526924 0.711698 -0.680275 20.000000
3.523320 0.699726 -0.679098 21.000000
3.531224 0.690043 -0.680275 22.000000
3.534287 0.679392 -0.680471 20.000000
3.540209 0.669276 -0.681255 28.000000
3.547066 0.659309 -0.682236 26.000000
3.550036 0.648600 -0.682432 34.000000
3.556835 0.638574 -0.683412 26.000000
3.567468 0.629194 -0.685177 22.000000
3.572280 0.618749 -0.685766 22.000000
3.567395 0.606634 -0.684393 30.000000
3.568272 0.595524 -0.684197 28.000000
3.568147 0.584257 -0.683805 12.000000
3.574159 0.462018 -0.681451 19.000000
3.569723 0.450313 -0.680275 25.000000
3.570115 0.439239 -0.680078 21.000000
3.566577 0.427698 -0.679098 29.000000
3.559108 0.415728 -0.677333 31.000000
3.553546 0.404029 -0.675960 34.000000
3.553795 0.393017 -0.675764 38.000000
3.555959 0.382217 -0.675960 38.000000
3.561016 0.371714 -0.676744 41.000000
3.565066 0.361085 -0.677333 51.000000
3.563229 0.349857 -0.676744 27.000000
3.571119 0.339576 -0.678117 31.000000
3.578002 0.329159 -0.679294 30.000000
3.578413 0.724011 -0.735826 9.000000
3.553756 0.707683 -0.730009 27.000000
3.548230 0.695273 -0.728347 28.000000
3.541702 0.682718 -0.726477 33.000000
3.546663 0.672395 -0.727101 16.000000
3.547748 0.661332 -0.726893 31.000000
3.549760 0.650445 -0.726893 16.000000
3.560403 0.641110 -0.728763 24.000000
3.566206 0.630865 -0.729594 27.000000
3.577763 0.621595 -0.731671 55.000000
3.580617 0.610780 -0.731879 32.000000
3.583439 0.599953 -0.732086 33.000000
3.600707 0.591492 -0.735410 15.000000
3.608914 0.468405 -0.733333 26.000000
3.601600 0.456225 -0.731463 42.000000
3.592304 0.443855 -0.729178 44.000000
3.584908 0.431780 -0.727308 39.000000
3.574557 0.419413 -0.724815 35.000000
3.567080 0.407447 -0.722946 32.000000
3.564425 0.396069 -0.722115 42.000000
3.562706 0.384817 -0.721492 38.000000
3.560951 0.373579 -0.720868 50.000000
3.568892 0.363346 -0.722323 37.000000
3.573884 0.352779 -0.723154 38.000000
3.573002 0.341626 -0.722738 27.000000
3.550656 0.328503 -0.717752 16.000000
3.604830 0.738310 -0.786827 11.000000
3.596558 0.725122 -0.784417 13.000000
3.586325 0.711612 -0.781568 13.000000
3.578916 0.698733 -0.779376 25.000000
3.579127 0.687381 -0.778938 15.000000
3.578343 0.675853 -0.778280 24.000000
3.579440 0.664694 -0.778061 27.000000
3.584342 0.654235 -0.778718 24.000000
3.590173 0.643926 -0.779595 20.000000
3.592132 0.632908 -0.779595 26.000000
3.591173 0.621385 -0.778938 40.000000
3.593062 0.610364 -0.778938 27.000000
3.600692 0.600303 -0.780253 20.000000
3.619848 0.592094 -0.784198 8.000000
3.601486 0.476162 -0.776308 22.000000
3.600028 0.464735 -0.775650 19.000000
3.600468 0.453566 -0.775431 32.000000
3.597001 0.441921 -0.774335 33.000000
3.590590 0.429953 -0.772582 34.000000
3.583171 0.417915 -0.770609 34.000000
3.575711 0.405927 -0.768637 27.000000
3.575000 0.394740 -0.768198 35.000000
3.571344 0.383248 -0.767103 32.000000
3.572503 0.372290 -0.767103 28.000000
3.577511 0.361721 -0.767979 34.000000
3.582488 0.351126 -0.768856 30.000000
