ply
format ascii 1.0
element vertex 1290
property float x
property float y
property float z
property float intensity
end_header
3.012948 0.148491 0.765487 50.000000
3.015331 0.139337 0.765960 46.000000
3.016715 0.130128 0.766196 47.000000
3.014187 0.120754 0.765487 34.000000
3.017456 0.111615 0.766196 31.000000
3.017784 0.102357 0.766196 42.000000
3.016142 0.093038 0.765724 33.000000
3.012528 0.083675 0.764779 31.000000
3.012770 0.074432 0.764779 41.000000
3.010070 0.065124 0.764070 37.000000
3.010256 0.055889 0.764070 48.000000
3.016243 0.046746 0.765487 34.000000
3.015400 0.037480 0.765251 35.000000
3.020359 0.028276 0.766432 37.000000
3.027234 0.019055 0.768085 28.000000
3.031165 0.009781 0.769030 30.000000
3.034096 0.000483 0.769738 40.000000
3.041857 -0.008845 0.771627 26.000000
3.040843 -0.018171 0.771391 39.000000
3.040773 -0.027501 0.771391 41.000000
3.039703 -0.036818 0.771155 32.000000
3.043462 -0.046201 0.772100 23.000000
3.039420 -0.055469 0.771155 27.000000
3.046036 -0.064935 0.772808 39.000000
3.047765 -0.074327 0.773281 44.000000
3.047523 -0.083677 0.773281 27.000000
3.053079 -0.093202 0.774698 41.000000
3.054722 -0.102633 0.775170 34.000000
3.042739 -0.111581 0.772336 13.000000
2.970782 0.725540 0.737990 23.000000
2.972046 0.716194 0.737765 40.000000
2.974230 0.707073 0.737765 35.000000
2.977334 0.698167 0.737990 27.000000
2.980411 0.689249 0.738215 43.000000
2.981561 0.679885 0.737990 30.000000
2.985535 0.671162 0.738439 40.000000
2.982823 0.660946 0.737316 48.000000
2.981029 0.650961 0.736416 40.000000
2.980154 0.641198 0.735742 34.000000
2.974481 0.630436 0.733944 39.000000
2.973539 0.620711 0.733269 39.000000
2.976384 0.611781 0.733494 35.000000
2.977292 0.602454 0.733269 24.000000
2.979126 0.593317 0.733269 38.000000
2.980932 0.584174 0.733269 33.000000
2.986538 0.575763 0.734169 42.000000
2.990205 0.566961 0.734618 31.000000
2.990973 0.557606 0.734393 39.000000
2.995545 0.548954 0.735068 39.000000
2.996256 0.539588 0.734843 36.000000
2.993099 0.529545 0.733719 36.000000
2.995670 0.520527 0.733944 34.000000
2.994371 0.510842 0.733269 42.000000
2.993041 0.501171 0.732595 43.000000
2.996488 0.492302 0.733045 51.000000
2.993174 0.482332 0.731921 38.000000
2.999452 0.473906 0.733045 34.000000
3.003780 0.465149 0.733719 48.000000
3.003267 0.455639 0.733269 35.000000
3.003687 0.446280 0.733045 37.000000
3.006006 0.437203 0.733269 50.000000
3.006368 0.427841 0.733045 42.000000
3.009597 0.418884 0.733494 50.000000
3.006040 0.408993 0.732370 37.000000
3.005349 0.399512 0.731921 44.000000
3.011392 0.390916 0.733045 47.000000
3.010644 0.381431 0.732595 44.000000
3.010833 0.372073 0.732370 46.000000
3.009058 0.362485 0.731696 38.000000
3.010156 0.353252 0.731696 35.000000
3.016066 0.344568 0.732820 28.000000
3.016141 0.335205 0.732595 57.000000
3.015217 0.325741 0.732146 47.000000
3.016202 0.316489 0.732146 37.000000
3.021037 0.307628 0.733045 37.000000
3.022936 0.298454 0.733269 35.000000
3.022868 0.289086 0.733045 46.000000
3.025681 0.279990 0.733494 58.000000
3.023614 0.270446 0.732820 38.000000
3.026371 0.261336 0.733269 40.000000
3.032014 0.252453 0.734393 41.000000
3.028889 0.242839 0.733494 39.000000
3.027677 0.233396 0.733045 34.000000
3.030322 0.224250 0.733494 36.000000
3.029052 0.214814 0.733045 49.000000
3.032613 0.205717 0.733719 42.000000
3.033230 0.196413 0.733719 46.000000
3.027983 0.186747 0.732370 44.000000
3.025623 0.177285 0.731696 46.000000
3.025180 0.167948 0.731471 37.000000
3.023735 0.158565 0.731022 43.000000
3.026153 0.149383 0.731471 35.000000
3.027571 0.140143 0.731696 31.000000
3.029933 0.130938 0.732146 33.000000
3.033242 0.121758 0.732820 40.000000
3.038470 0.112632 0.733944 50.000000
3.040749 0.103375 0.734393 47.000000
3.043974 0.094136 0.735068 35.000000
3.043274 0.084770 0.734843 39.000000
3.046442 0.075505 0.735517 42.000000
3.045685 0.066137 0.735292 52.000000
3.047822 0.056829 0.735742 38.000000
3.049931 0.047508 0.736192 35.000000
3.051037 0.038163 0.736416 52.000000
3.054063 0.028829 0.737091 46.000000
3.054137 0.019460 0.737091 32.000000
3.058080 0.010102 0.737990 33.000000
3.061019 0.000720 0.738664 44.000000
3.066854 -0.008688 0.740013 29.000000
3.065838 -0.018091 0.739788 30.000000
3.065768 -0.027497 0.739788 44.000000
3.067618 -0.036926 0.740238 28.000000
3.066516 -0.046323 0.740013 32.000000
3.062463 -0.055659 0.739114 30.000000
3.062277 -0.065054 0.739114 27.000000
3.058167 -0.074354 0.738215 39.000000
3.055976 -0.083682 0.737765 36.000000
3.055705 -0.093057 0.737765 32.000000
3.056379 -0.102464 0.737990 30.000000
3.009310 -0.110124 0.727200 9.000000
2.973835 0.725510 0.701832 31.000000
2.973198 0.715696 0.701191 47.000000
2.976330 0.706797 0.701405 35.000000
2.980386 0.698109 0.701832 26.000000
2.983466 0.689182 0.702045 38.000000
2.983661 0.679591 0.701618 35.000000
2.987639 0.670863 0.702045 35.000000
2.992544 0.662328 0.702686 50.000000
2.997425 0.653770 0.703326 52.000000
2.999417 0.644571 0.703326 35.000000
3.002336 0.635568 0.703540 24.000000
2.999490 0.625356 0.702472 46.000000
2.996610 0.615166 0.701405 36.000000
2.994653 0.605194 0.700550 39.000000
2.993622 0.595431 0.699910 46.000000
2.995435 0.586244 0.699910 42.000000
2.991463 0.575941 0.698629 51.000000
2.992257 0.566579 0.698415 41.000000
2.993020 0.557217 0.698201 34.000000
2.993755 0.547855 0.697988 45.000000
2.993499 0.538321 0.697561 39.000000
2.996098 0.529305 0.697774 34.000000
2.994821 0.519609 0.697134 51.000000
2.999289 0.510912 0.697774 42.000000
3.004697 0.502353 0.698629 40.000000
3.007188 0.493291 0.698842 49.000000
3.011580 0.484530 0.699483 48.000000
3.014983 0.475593 0.699910 45.000000
3.014497 0.466042 0.699483 40.000000
3.013015 0.456351 0.698842 50.000000
3.014401 0.447105 0.698842 53.000000
3.015758 0.437855 0.698842 50.000000
3.017087 0.428601 0.698842 38.000000
3.019356 0.419477 0.699056 35.000000
3.019660 0.410080 0.698842 47.000000
3.015094 0.400041 0.697561 54.000000
3.016307 0.390789 0.697561 55.000000
3.015553 0.381287 0.697134 44.000000
3.015739 0.371914 0.696920 44.000000
3.017836 0.362777 0.697134 42.000000
3.020875 0.353745 0.697561 51.000000
3.024858 0.344808 0.698201 33.000000
3.029786 0.335959 0.699056 46.000000
3.032745 0.326872 0.699483 44.000000
3.034705 0.317668 0.699696 50.000000
3.036637 0.308455 0.699910 44.000000
3.039514 0.299330 0.700337 50.000000
3.040418 0.290003 0.700337 53.000000
3.045184 0.281035 0.701191 50.000000
3.046032 0.271691 0.701191 34.000000
3.045878 0.262260 0.700977 57.000000
3.048615 0.253077 0.701405 54.000000
3.043535 0.243253 0.700123 34.000000
3.038422 0.233464 0.698842 56.000000
3.042047 0.224357 0.699483 39.000000
3.039798 0.214816 0.698842 42.000000
3.040442 0.205489 0.698842 50.000000
3.043008 0.196286 0.699269 49.000000
3.039696 0.186709 0.698415 36.000000
3.043180 0.177554 0.699056 53.000000
3.046637 0.168380 0.699696 49.000000
3.049090 0.159134 0.700123 44.000000
3.051515 0.149876 0.700550 48.000000
3.051961 0.140513 0.700550 43.000000
3.055306 0.131276 0.701191 45.000000
3.055694 0.121902 0.701191 50.000000
3.054101 0.112454 0.700764 49.000000
3.054432 0.103084 0.700764 40.000000
3.053757 0.093682 0.700550 39.000000
3.052077 0.084258 0.700123 43.000000
3.055251 0.074967 0.700764 60.000000
3.055467 0.065593 0.700764 50.000000
3.053700 0.056182 0.700337 42.000000
3.054835 0.046829 0.700550 50.000000
3.054965 0.037456 0.700550 47.000000
3.050181 0.028037 0.699483 44.000000
3.050252 0.018679 0.699483 52.000000
3.056157 0.009341 0.700764 43.000000
3.057148 -0.000035 0.700977 42.000000
3.062018 -0.009427 0.702045 37.000000
3.060997 -0.018816 0.701832 34.000000
3.061902 -0.028215 0.702045 39.000000
3.067662 -0.037679 0.703326 41.000000
3.065579 -0.047061 0.702899 36.000000
3.067374 -0.056501 0.703326 36.000000
3.061325 -0.065787 0.702045 40.000000
3.062086 -0.075203 0.702259 21.000000
3.066724 -0.084730 0.703326 46.000000
3.062543 -0.094019 0.702472 27.000000
3.059311 -0.103317 0.701832 22.000000
3.042383 -0.112097 0.698201 7.000000
2.979344 0.728178 0.664174 27.000000
2.990134 0.721100 0.665989 40.000000
2.992332 0.711923 0.665989 31.000000
2.998317 0.703634 0.666795 41.000000
3.000461 0.694432 0.666795 36.000000
2.999712 0.684570 0.666190 47.000000
3.001799 0.675364 0.666190 47.000000
3.005769 0.666575 0.666594 36.000000
3.010671 0.657977 0.667198 47.000000
3.009802 0.648120 0.666594 46.000000
3.015609 0.639695 0.667400 39.000000
3.018517 0.630640 0.667602 41.000000
3.021396 0.621574 0.667803 37.000000
3.021369 0.611913 0.667400 30.000000
3.014587 0.600918 0.665586 51.000000
3.015455 0.591479 0.665384 42.000000
3.017256 0.582224 0.665384 61.000000
3.012291 0.571687 0.663973 37.000000
3.014031 0.562443 0.663973 42.000000
3.016706 0.553370 0.664174 51.000000
3.017426 0.543939 0.663973 39.000000
3.021009 0.535020 0.664376 50.000000
3.019741 0.525246 0.663771 51.000000
3.021339 0.515979 0.663771 43.000000
3.026771 0.507355 0.664578 40.000000
3.029280 0.498225 0.664779 54.000000
3.029828 0.488773 0.664578 33.000000
3.027443 0.478864 0.663771 45.000000
3.028898 0.469574 0.663771 45.000000
3.026451 0.459691 0.662965 41.000000
3.023972 0.449828 0.662159 57.000000
3.029214 0.441113 0.662965 52.000000
3.030553 0.431817 0.662965 48.000000
3.032834 0.422652 0.663167 39.000000
3.037028 0.413742 0.663771 60.000000
3.034400 0.403906 0.662965 51.000000
3.036595 0.394721 0.663167 37.000000
3.036821 0.385280 0.662965 51.000000
3.035072 0.375601 0.662360 43.000000
3.033293 0.365936 0.661755 52.000000
3.034401 0.356628 0.661755 48.000000
3.033535 0.347095 0.661352 58.000000
3.033612 0.337678 0.661151 40.000000
3.036581 0.328580 0.661554 45.000000
3.035627 0.319058 0.661151 50.000000
3.039515 0.310041 0.661755 43.000000
3.041426 0.300811 0.661957 36.000000
3.042335 0.291478 0.661957 32.000000
3.051017 0.282865 0.663570 39.000000
3.052846 0.273591 0.663771 48.000000
3.055623 0.264392 0.664174 40.000000
3.058372 0.255179 0.664578 56.000000
3.057188 0.245638 0.664174 35.000000
3.057927 0.236258 0.664174 50.000000
3.058637 0.226875 0.664174 55.000000
3.058342 0.217421 0.663973 48.000000
3.057040 0.207905 0.663570 52.000000
3.057663 0.198525 0.663570 53.000000
3.053370 0.188841 0.662562 44.000000
3.053935 0.179473 0.662562 45.000000
3.055449 0.170157 0.662763 63.000000
3.054979 0.160731 0.662562 40.000000
3.057414 0.151454 0.662965 40.000000
3.063735 0.142346 0.664174 45.000000
3.064157 0.132945 0.664174 41.000000
3.073359 0.123898 0.665989 42.000000
3.075682 0.114541 0.666392 43.000000
3.076998 0.105138 0.666594 47.000000
3.080243 0.095788 0.667198 58.000000
3.077585 0.086256 0.666594 47.000000
3.074898 0.076741 0.665989 36.000000
3.072181 0.067243 0.665384 40.000000
3.069435 0.057762 0.664779 44.000000
3.069597 0.048345 0.664779 55.000000
3.067773 0.038903 0.664376 42.000000
3.068857 0.029500 0.664578 55.000000
3.074810 0.020123 0.665787 41.000000
3.078775 0.010702 0.666594 62.000000
3.084670 0.001258 0.667803 41.000000
3.088577 -0.008216 0.668609 36.000000
3.089517 -0.017698 0.668811 48.000000
3.090428 -0.027185 0.669013 51.000000
3.090330 -0.036666 0.669013 50.000000
3.087265 -0.046103 0.668408 34.000000
3.089067 -0.055609 0.668811 48.000000
3.085944 -0.065024 0.668206 39.000000
3.087689 -0.074539 0.668609 32.000000
3.086466 -0.083985 0.668408 51.000000
3.090110 -0.093572 0.669214 27.000000
3.011136 0.734625 0.634472 28.000000
3.008603 0.724233 0.633519 32.000000
3.016541 0.716362 0.634662 39.000000
3.012035 0.705535 0.633329 26.000000
3.015142 0.696512 0.633519 39.000000
3.017265 0.687258 0.633519 38.000000
3.015528 0.677136 0.632758 39.000000
3.018549 0.668094 0.632948 35.000000
3.018667 0.658411 0.632567 46.000000
3.022592 0.649560 0.632948 31.000000
3.027452 0.640895 0.633519 51.000000
3.029403 0.631604 0.633519 43.000000
3.035173 0.623098 0.634281 30.000000
3.038995 0.614173 0.634662 39.000000
3.035088 0.603695 0.633519 32.000000
3.034999 0.594003 0.633138 44.000000
3.033916 0.584131 0.632567 39.000000
3.026049 0.572990 0.630662 39.000000
3.025862 0.563344 0.630281 36.000000
3.023714 0.553350 0.629520 41.000000
3.022499 0.543548 0.628948 38.000000
3.027052 0.534786 0.629520 36.000000
3.028679 0.525497 0.629520 53.000000
3.033180 0.516698 0.630091 37.000000
3.037655 0.507877 0.630662 32.000000
3.042105 0.499033 0.631234 40.000000
3.041683 0.489385 0.630853 48.000000
3.040262 0.479591 0.630281 38.000000
3.040749 0.470111 0.630091 46.000000
3.042176 0.460780 0.630091 49.000000
3.040663 0.451011 0.629520 52.000000
3.043004 0.441822 0.629710 59.000000
3.043373 0.432345 0.629520 42.000000
3.044685 0.423006 0.629520 47.000000
3.046941 0.413796 0.629710 59.000000
3.049170 0.404575 0.629901 66.000000
3.049423 0.395092 0.629710 63.000000
3.051595 0.385859 0.629901 52.000000
3.055687 0.376856 0.630472 41.000000
3.056829 0.367480 0.630472 48.000000
3.058917 0.358214 0.630662 45.000000
3.059026 0.348716 0.630472 50.000000
3.059106 0.339221 0.630281 57.000000
3.058180 0.329623 0.629901 56.000000
3.057224 0.320034 0.629520 55.000000
3.059168 0.310753 0.629710 46.000000
3.056200 0.300980 0.628948 31.000000
3.060040 0.291883 0.629520 49.000000
3.062876 0.282674 0.629901 79.000000
3.066663 0.273539 0.630472 63.000000
3.070421 0.264383 0.631043 43.000000
3.069261 0.254799 0.630662 69.000000
3.066115 0.245067 0.629901 38.000000
3.070767 0.235961 0.630662 58.000000
3.067561 0.226249 0.629901 48.000000
3.063344 0.216489 0.628948 53.000000
3.062035 0.206957 0.628567 39.000000
3.057757 0.197243 0.627615 66.000000
3.057368 0.187801 0.627424 52.000000
3.060870 0.178593 0.627996 53.000000
3.061404 0.169201 0.627996 64.000000
3.065830 0.160015 0.628758 44.000000
3.070228 0.150802 0.629520 50.000000
3.076560 0.141655 0.630662 53.000000
3.081884 0.132428 0.631615 57.000000
3.088161 0.123210 0.632758 44.000000
3.089506 0.113771 0.632948 51.000000
3.089840 0.104292 0.632948 51.000000
3.092108 0.094873 0.633329 54.000000
3.090422 0.085331 0.632948 43.000000
3.085763 0.075727 0.631996 49.000000
3.083036 0.066196 0.631424 48.000000
3.079298 0.056663 0.630662 40.000000
3.080439 0.047231 0.630853 49.000000
3.082533 0.037805 0.631234 46.000000
3.080671 0.028329 0.630853 58.000000
3.085652 0.018909 0.631805 50.000000
3.090604 0.009460 0.632758 53.000000
3.096508 -0.000020 0.633900 35.000000
3.101402 -0.009533 0.634853 56.000000
3.100377 -0.019043 0.634662 33.000000
3.094414 -0.028502 0.633519 23.000000
3.105110 -0.038124 0.635615 41.000000
3.101052 -0.047592 0.634853 47.000000
3.098928 -0.057070 0.634472 40.000000
3.097757 -0.066556 0.634281 32.000000
3.099501 -0.076107 0.634662 29.000000
3.102196 -0.085696 0.635234 25.000000
3.105844 -0.095332 0.635995 22.000000
3.139877 -0.106007 0.642662 7.000000
3.030076 0.740571 0.599615 31.000000
3.029465 0.730580 0.599079 39.000000
3.035521 0.722193 0.599794 33.000000
3.032932 0.711753 0.598901 35.000000
3.035102 0.702445 0.598901 24.000000
3.041080 0.694005 0.599615 48.000000
3.040315 0.684024 0.599079 56.000000
3.039517 0.674055 0.598543 40.000000
3.038687 0.664097 0.598008 38.000000
3.037824 0.654150 0.597472 44.000000
3.038854 0.644623 0.597293 37.000000
3.035039 0.634090 0.596221 35.000000
3.036006 0.624578 0.596043 44.000000
3.039837 0.615651 0.596400 41.000000
3.038816 0.605745 0.595864 37.000000
3.040661 0.596419 0.595864 58.000000
3.046340 0.587833 0.596578 37.000000
3.047163 0.578301 0.596400 54.000000
3.051825 0.569491 0.596936 37.000000
3.054525 0.560303 0.597114 38.000000
3.052356 0.550231 0.596400 39.000000
3.054999 0.541036 0.596578 37.000000
3.058583 0.531997 0.596936 45.000000
3.057291 0.522115 0.596400 51.000000
3.061790 0.513220 0.596936 42.000000
3.060437 0.503346 0.596400 47.000000
3.060025 0.493641 0.596043 55.000000
3.061525 0.484251 0.596043 42.000000
3.062023 0.474705 0.595864 43.000000
3.060547 0.464866 0.595328 57.000000
3.060986 0.455329 0.595149 46.000000
3.058474 0.445370 0.594435 48.000000
3.057878 0.435707 0.594078 47.000000
3.060174 0.426459 0.594256 43.000000
3.059518 0.416803 0.593899 46.000000
3.062733 0.407674 0.594256 50.000000
3.066897 0.398656 0.594792 42.000000
3.068105 0.389245 0.594792 45.000000
3.073191 0.380313 0.595507 33.000000
3.076297 0.371118 0.595864 49.000000
3.081330 0.362138 0.596578 42.000000
3.083404 0.352794 0.596757 48.000000
3.080561 0.342898 0.596043 45.000000
3.081598 0.333445 0.596043 53.000000
3.083585 0.324092 0.596221 57.000000
3.082607 0.314431 0.595864 50.000000
3.081599 0.304779 0.595507 44.000000
3.081540 0.295229 0.595328 41.000000
3.082431 0.285774 0.595328 33.000000
3.083293 0.276316 0.595328 44.000000
3.087067 0.267109 0.595864 43.000000
3.080028 0.256984 0.594435 49.000000
3.080802 0.247533 0.594435 56.000000
3.081547 0.238080 0.594435 54.000000
3.080301 0.228479 0.594078 43.000000
3.076080 0.218680 0.593185 43.000000
3.079681 0.209442 0.593720 62.000000
3.080309 0.199992 0.593720 46.000000
3.084836 0.190783 0.594435 40.000000
3.089336 0.181549 0.595149 63.000000
3.087914 0.171961 0.594792 53.000000
3.088427 0.162486 0.594792 48.000000
3.088911 0.153011 0.594792 35.000000
3.091331 0.143624 0.595149 43.000000
3.089792 0.134054 0.594792 37.000000
3.096087 0.124812 0.595864 41.000000
3.096455 0.115312 0.595864 47.000000
3.097778 0.105845 0.596043 58.000000
3.100055 0.096402 0.596400 56.000000
3.104270 0.087000 0.597114 57.000000
3.104523 0.077476 0.597114 45.000000
3.107697 0.068016 0.597650 39.000000
3.105923 0.058444 0.597293 53.000000
3.109040 0.048961 0.597829 68.000000
3.108191 0.039410 0.597650 62.000000
3.107314 0.029865 0.597472 43.000000
3.106406 0.020325 0.597293 50.000000
3.106454 0.010795 0.597293 43.000000
3.104505 0.001264 0.596936 46.000000
3.107446 -0.008269 0.597472 45.000000
3.107406 -0.017802 0.597472 48.000000
3.110288 -0.027362 0.598008 40.000000
3.115109 -0.036963 0.598901 40.000000
3.116949 -0.046549 0.599258 44.000000
3.112856 -0.056041 0.598543 25.000000
3.120539 -0.065757 0.599972 38.000000
3.122290 -0.075378 0.600330 46.000000
3.130896 -0.085199 0.601937 24.000000
3.134554 -0.094924 0.602652 15.000000
3.043330 0.742493 0.563912 32.000000
3.048470 0.733846 0.564413 40.000000
3.048788 0.724033 0.564079 35.000000
3.050035 0.714451 0.563912 27.000000
3.047410 0.703979 0.563078 33.000000
3.048594 0.694407 0.562911 46.000000
3.052634 0.685483 0.563245 61.000000
3.052798 0.675688 0.562911 35.000000
3.051003 0.665477 0.562243 32.000000
3.051103 0.655699 0.561909 52.000000
3.053100 0.646335 0.561909 44.000000
3.051208 0.636159 0.561241 49.000000
3.053145 0.626795 0.561241 52.000000
3.055054 0.617425 0.561241 41.000000
3.055000 0.607664 0.560907 36.000000
3.053947 0.597719 0.560407 40.000000
3.058671 0.588907 0.560907 40.000000
3.058526 0.579153 0.560574 30.000000
3.063196 0.570309 0.561074 43.000000
3.062992 0.560553 0.560740 51.000000
3.064697 0.551153 0.560740 49.000000
3.063461 0.541233 0.560240 46.000000
3.068021 0.532338 0.560740 44.000000
3.066724 0.522425 0.560240 51.000000
3.063451 0.512200 0.559405 62.000000
3.061116 0.502159 0.558737 46.000000
3.063616 0.492922 0.558904 51.000000
3.067061 0.483829 0.559238 58.000000
3.072428 0.475021 0.559906 42.000000
3.068997 0.464852 0.559071 54.000000
3.070409 0.455435 0.559071 50.000000
3.072767 0.446155 0.559238 49.000000
3.079979 0.437560 0.560240 34.000000
3.079353 0.427836 0.559906 54.000000
3.079674 0.418254 0.559739 42.000000
3.083875 0.409194 0.560240 37.000000
3.085116 0.399731 0.560240 37.000000
3.089262 0.390636 0.560740 50.000000
3.090446 0.381156 0.560740 43.000000
3.088664 0.371319 0.560240 49.000000
3.090769 0.361956 0.560407 45.000000
3.090885 0.352360 0.560240 36.000000
3.089011 0.342549 0.559739 33.000000
3.090048 0.333070 0.559739 45.000000
3.088114 0.323280 0.559238 62.000000
3.091052 0.314004 0.559572 51.000000
3.092982 0.304616 0.559739 62.000000
3.096847 0.295408 0.560240 57.000000
3.097739 0.285905 0.560240 51.000000
3.101547 0.276664 0.560740 51.000000
3.102381 0.267147 0.560740 37.000000
3.103187 0.257628 0.560740 49.000000
3.101014 0.247870 0.560240 52.000000
3.099794 0.238203 0.559906 53.000000
3.098543 0.228546 0.559572 51.000000
3.097263 0.218899 0.559238 58.000000
3.099888 0.209529 0.559572 46.000000
3.104451 0.200273 0.560240 52.000000
3.102099 0.190566 0.559739 57.000000
3.101685 0.180990 0.559572 47.000000
3.100256 0.171364 0.559238 48.000000
3.102736 0.161955 0.559572 55.000000
3.104204 0.152484 0.559739 48.000000
3.102687 0.142868 0.559405 46.000000
3.102126 0.133306 0.559238 47.000000
3.108431 0.124026 0.560240 42.000000
3.110768 0.114562 0.560574 43.000000
3.112090 0.105052 0.560740 50.000000
3.114368 0.095565 0.561074 36.000000
3.118589 0.086120 0.561742 49.000000
3.121796 0.076625 0.562243 46.000000
3.122016 0.067047 0.562243 32.000000
3.116292 0.057358 0.561241 45.000000
3.123355 0.047905 0.562410 43.000000
3.124473 0.038335 0.562577 58.000000
3.124576 0.028749 0.562577 43.000000
3.125635 0.019170 0.562744 33.000000
3.125679 0.009580 0.562744 37.000000
3.125694 -0.000009 0.562744 41.000000
3.130609 -0.009612 0.563578 49.000000
3.125635 -0.019188 0.562744 43.000000
3.126548 -0.028786 0.562911 43.000000
3.127430 -0.038390 0.563078 45.000000
3.130255 -0.048029 0.563578 36.000000
3.131079 -0.057650 0.563745 33.000000
3.136802 -0.067380 0.564747 29.000000
3.132638 -0.076908 0.564079 34.000000
3.147171 -0.086922 0.566583 25.000000
3.208977 -0.098459 0.577101 9.000000
3.067466 0.749140 0.528737 24.000000
3.066869 0.739032 0.528273 28.000000
3.058549 0.727107 0.526569 33.000000
3.059803 0.717495 0.526414 45.000000
3.062953 0.708327 0.526569 48.000000
3.063185 0.698487 0.526259 47.000000
3.064349 0.688870 0.526104 44.000000
3.062590 0.678611 0.525485 57.000000
3.062727 0.668790 0.525175 42.000000
3.062833 0.658975 0.524865 43.000000
3.061941 0.648962 0.524401 37.000000
3.061983 0.639161 0.524091 43.000000
3.067801 0.630559 0.524710 52.000000
3.071657 0.621536 0.525020 53.000000
3.074519 0.612302 0.525175 40.000000
3.073474 0.602297 0.524710 62.000000
3.075308 0.592865 0.524710 50.000000
3.077112 0.583427 0.524710 44.000000
3.076945 0.573622 0.524401 48.000000
3.075775 0.563646 0.523936 51.000000
3.074573 0.553682 0.523471 53.000000
3.075284 0.544075 0.523317 49.000000
3.076939 0.534637 0.523317 48.000000
3.077591 0.525029 0.523162 56.000000
3.078212 0.515421 0.523007 45.000000
3.078805 0.505815 0.522852 39.000000
3.080342 0.496367 0.522852 43.000000
3.082826 0.487068 0.523007 52.000000
3.086258 0.477910 0.523317 44.000000
3.090641 0.468884 0.523781 35.000000
3.089133 0.458964 0.523317 47.000000
3.091504 0.449627 0.523471 41.000000
3.094825 0.440418 0.523781 63.000000
3.098119 0.431194 0.524091 53.000000
3.097469 0.421421 0.523781 49.000000
3.099727 0.412046 0.523936 77.000000
3.098037 0.402153 0.523471 50.000000
3.103177 0.393142 0.524091 49.000000
3.100446 0.383136 0.523471 47.000000
3.097684 0.373150 0.522852 41.000000
3.094889 0.363185 0.522232 69.000000
3.096971 0.353800 0.522387 46.000000
3.098041 0.344297 0.522387 54.000000
3.102030 0.335109 0.522852 42.000000
3.100096 0.325281 0.522387 56.000000
3.104028 0.316069 0.522852 61.000000
3.108915 0.306932 0.523471 38.000000
3.114760 0.297862 0.524246 56.000000
3.112708 0.288032 0.523781 59.000000
3.113576 0.278481 0.523781 55.000000
3.115401 0.269012 0.523936 53.000000
3.119165 0.259699 0.524401 36.000000
3.121916 0.250286 0.524710 40.000000
3.122670 0.240706 0.524710 47.000000
3.123393 0.231125 0.524710 51.000000
3.130001 0.221960 0.525640 50.000000
3.130667 0.212356 0.525640 50.000000
3.132289 0.202814 0.525795 60.000000
3.133883 0.193264 0.525950 50.000000
3.132489 0.183534 0.525640 55.000000
3.130078 0.173758 0.525175 51.000000
3.131583 0.164206 0.525330 44.000000
3.127138 0.154355 0.524556 42.000000
3.123649 0.144578 0.523936 59.000000
3.120130 0.134824 0.523317 46.000000
3.120529 0.125251 0.523317 65.000000
3.118924 0.115604 0.523007 40.000000
3.119264 0.106035 0.523007 48.000000
3.124512 0.096616 0.523781 37.000000
3.122819 0.086975 0.523471 43.000000
3.125046 0.077443 0.523781 63.000000
3.129220 0.067940 0.524401 45.000000
3.128426 0.058321 0.524246 45.000000
3.131553 0.048769 0.524710 44.000000
3.134652 0.039198 0.525175 50.000000
3.136733 0.029599 0.525485 54.000000
3.143725 0.020019 0.526569 66.000000
3.144759 0.010377 0.526724 58.000000
3.142801 0.000729 0.526414 46.000000
3.142788 -0.008913 0.526414 51.000000
3.140770 -0.018543 0.526104 46.000000
3.137735 -0.028152 0.525640 44.000000
3.138621 -0.037790 0.525795 37.000000
3.138490 -0.047419 0.525795 42.000000
3.137343 -0.057029 0.525640 43.000000
3.140116 -0.066718 0.526104 36.000000
3.140884 -0.076375 0.526259 40.000000
3.133722 -0.085821 0.525175 18.000000
3.079867 0.792163 0.493297 22.000000
3.075568 0.781002 0.492296 22.000000
3.081789 0.772527 0.492868 21.000000
3.075499 0.760926 0.491581 32.000000
3.071089 0.749841 0.490580 34.000000
3.078186 0.741576 0.491295 40.000000
3.078521 0.731671 0.491009 34.000000
3.078824 0.721770 0.490723 52.000000
3.080060 0.712098 0.490580 37.000000
3.084160 0.703085 0.490866 63.000000
3.086302 0.693620 0.490866 46.000000
3.083585 0.683076 0.490151 44.000000
3.083732 0.673190 0.489866 34.000000
3.083848 0.663309 0.489580 43.000000
3.087805 0.654256 0.489866 39.000000
3.085922 0.643969 0.489294 39.000000
3.083036 0.633501 0.488579 30.000000
3.079145 0.622860 0.487721 29.000000
3.082983 0.613797 0.488007 34.000000
3.081938 0.603764 0.487578 40.000000
3.086691 0.594869 0.488007 42.000000
3.085584 0.584842 0.487578 39.000000
3.090283 0.575918 0.488007 32.000000
3.089115 0.565898 0.487578 42.000000
3.092784 0.556770 0.487864 44.000000
3.090580 0.546588 0.487292 48.000000
3.093217 0.537273 0.487435 49.000000
3.091924 0.527281 0.487006 39.000000
3.092551 0.517628 0.486863 41.000000
3.091195 0.507656 0.486434 48.000000
3.092738 0.498170 0.486434 40.000000
3.096207 0.488989 0.486720 36.000000
3.097693 0.479487 0.486720 52.000000
3.099149 0.469982 0.486720 51.000000
3.099597 0.460326 0.486577 49.000000
3.101974 0.450957 0.486720 32.000000
3.106283 0.441857 0.487149 43.000000
3.105664 0.432052 0.486863 46.000000
3.105013 0.422254 0.486577 36.000000
3.107275 0.412857 0.486720 39.000000
3.107546 0.403194 0.486577 36.000000
3.114659 0.394407 0.487435 42.000000
3.114872 0.384727 0.487292 43.000000
3.116038 0.375169 0.487292 45.000000
3.120123 0.365955 0.487721 44.000000
3.124181 0.356718 0.488150 46.000000
3.130179 0.347680 0.488865 62.000000
3.130247 0.337969 0.488722 42.000000
3.129300 0.328156 0.488436 53.000000
3.131277 0.318655 0.488579 62.000000
3.131255 0.308949 0.488436 61.000000
3.126277 0.298774 0.487578 39.000000
3.126193 0.289090 0.487435 34.000000
3.127065 0.279497 0.487435 57.000000
3.126922 0.269817 0.487292 45.000000
3.129708 0.260387 0.487578 31.000000
3.132465 0.250943 0.487864 57.000000
3.131246 0.241179 0.487578 57.000000
3.132959 0.231644 0.487721 45.000000
3.134642 0.222102 0.487864 50.000000
3.134321 0.212417 0.487721 60.000000
3.138909 0.203057 0.488293 47.000000
3.140505 0.193487 0.488436 50.000000
3.139107 0.183735 0.488150 41.000000
3.141633 0.174214 0.488436 34.000000
3.149071 0.164939 0.489437 47.000000
3.148573 0.155228 0.489294 48.000000
3.146069 0.145430 0.488865 62.000000
3.143534 0.135648 0.488436 47.000000
3.141958 0.125923 0.488150 37.000000
3.145296 0.116394 0.488579 43.000000
3.145638 0.106744 0.488579 44.000000
3.143973 0.097031 0.488293 39.000000
3.144256 0.087385 0.488293 50.000000
3.146487 0.077787 0.488579 51.000000
3.149680 0.068199 0.489008 57.000000
3.150864 0.058554 0.489151 35.000000
3.152018 0.048903 0.489294 41.000000
3.151164 0.039220 0.489151 41.000000
3.149290 0.029533 0.488865 41.000000
3.150356 0.019878 0.489008 45.000000
3.148422 0.010205 0.488722 40.000000
3.145470 0.000544 0.488293 44.000000
3.146446 -0.009108 0.488436 36.000000
3.142444 -0.018739 0.487864 47.000000
3.144351 -0.028397 0.488150 41.000000
3.150187 -0.038114 0.489008 38.000000
3.152035 -0.047807 0.489294 31.000000
3.146926 -0.057389 0.488579 27.000000
3.169494 -0.067520 0.491867 35.000000
3.172240 -0.077315 0.492296 36.000000
3.123509 -0.085734 0.485290 7.000000
3.080665 0.782475 0.454240 32.000000
3.084974 0.773502 0.454502 39.000000
3.086370 0.763795 0.454371 30.000000
3.091588 0.755028 0.454764 32.000000
3.095818 0.746004 0.455026 74.000000
3.094234 0.735586 0.454502 55.000000
3.100337 0.726994 0.455026 62.000000
3.102553 0.717479 0.455026 40.000000
3.104739 0.707957 0.455026 55.000000
3.103995 0.697777 0.454633 54.000000
3.102250 0.687393 0.454109 52.000000
3.097564 0.676393 0.453192 55.000000
3.099624 0.666886 0.453192 72.000000
3.100686 0.657168 0.453061 54.000000
3.098806 0.646843 0.452536 47.000000
3.098833 0.636934 0.452274 56.000000
3.099801 0.627227 0.452143 50.000000
3.100738 0.617521 0.452012 58.000000
3.104564 0.608386 0.452274 48.000000
3.109337 0.599421 0.452667 47.000000
3.105316 0.588771 0.451881 44.000000
3.108083 0.579423 0.452012 46.000000
3.108871 0.569706 0.451881 50.000000
3.110604 0.560166 0.451881 59.000000
3.110355 0.550275 0.451619 48.000000
3.113006 0.540899 0.451750 51.000000
3.112696 0.531013 0.451488 55.000000
3.112355 0.521134 0.451226 54.000000
3.112961 0.511422 0.451095 57.000000
3.114515 0.501869 0.451095 55.000000
3.118978 0.492776 0.451488 45.000000
3.121455 0.483356 0.451619 54.000000
3.124883 0.474074 0.451881 54.000000
3.125343 0.464340 0.451750 58.000000
3.127733 0.454892 0.451881 41.000000
3.130096 0.445433 0.452012 52.000000
3.131448 0.435828 0.452012 48.000000
3.128840 0.425685 0.451488 59.000000
3.132097 0.416345 0.451750 54.000000
3.130410 0.406351 0.451357 67.000000
3.133610 0.396994 0.451619 58.000000
3.133829 0.387257 0.451488 63.000000
3.137955 0.377996 0.451881 43.000000
3.137131 0.368136 0.451619 61.000000
3.137260 0.358398 0.451488 49.000000
3.138345 0.348771 0.451488 45.000000
3.139400 0.339141 0.451488 61.000000
3.140426 0.329508 0.451488 45.000000
3.140436 0.319771 0.451357 56.000000
3.136469 0.309649 0.450702 57.000000
3.139378 0.300213 0.450964 58.000000
3.141272 0.290672 0.451095 49.000000
3.142149 0.281033 0.451095 43.000000
3.145959 0.271647 0.451488 54.000000
3.143814 0.261748 0.451095 53.000000
3.144602 0.252101 0.451095 48.000000
3.148326 0.242681 0.451488 63.000000
3.146090 0.232802 0.451095 50.000000
3.143822 0.222939 0.450702 65.000000
3.144492 0.213292 0.450702 41.000000
3.145131 0.203644 0.450702 52.000000
3.146730 0.194055 0.450833 51.000000
3.151270 0.184632 0.451357 56.000000
3.152811 0.175018 0.451488 49.000000
3.156304 0.165499 0.451881 50.000000
3.159767 0.155962 0.452274 50.000000
3.165182 0.146495 0.452929 41.000000
3.168588 0.136912 0.453323 47.000000
3.168993 0.127190 0.453323 50.000000
3.170359 0.117504 0.453454 55.000000
3.170705 0.107777 0.453454 59.000000
3.171021 0.098049 0.453454 52.000000
3.176262 0.088457 0.454109 53.000000
3.173545 0.078639 0.453716 65.000000
3.169806 0.068817 0.453192 43.000000
3.174958 0.059183 0.453847 58.000000
3.173143 0.049412 0.453585 59.000000
3.172288 0.039664 0.453454 45.000000
3.172395 0.029931 0.453454 41.000000
3.164541 0.020149 0.452405 48.000000
3.162605 0.010434 0.452143 44.000000
3.162622 0.000731 0.452143 47.000000
3.160627 -0.008966 0.451881 45.000000
3.157611 -0.018644 0.451488 54.000000
3.160512 -0.028359 0.451881 49.000000
3.168341 -0.038151 0.452929 38.000000
3.175148 -0.047977 0.453847 49.000000
3.183907 -0.057882 0.455026 65.000000
3.189661 -0.067776 0.455812 63.000000
3.194393 -0.077683 0.456468 56.000000
3.200086 -0.087646 0.457254 49.000000
3.182956 -0.096949 0.455026 20.000000
3.101571 0.767959 0.416997 33.000000
3.103913 0.758440 0.416997 39.000000
3.106225 0.748913 0.416997 39.000000
3.108508 0.739380 0.416997 44.000000
3.105929 0.728704 0.416403 46.000000
3.112987 0.720293 0.416997 41.000000
3.112278 0.710075 0.416641 45.000000
3.111536 0.699869 0.416284 48.000000
3.110760 0.689673 0.415927 39.000000
3.107042 0.678853 0.415213 47.000000
3.106198 0.668689 0.414857 47.000000
3.110178 0.659569 0.415095 54.000000
3.111215 0.649821 0.414976 59.000000
3.113194 0.640273 0.414976 43.000000
3.117090 0.631113 0.415213 59.000000
3.119011 0.621547 0.415213 40.000000
3.123826 0.612550 0.415570 46.000000
3.127640 0.603340 0.415808 36.000000
3.127526 0.593371 0.415570 38.000000
3.127379 0.583408 0.415332 41.000000
3.127202 0.573452 0.415095 64.000000
3.127969 0.563678 0.414976 53.000000
3.131639 0.554426 0.415213 35.000000
3.130390 0.544304 0.414857 46.000000
3.132046 0.534698 0.414857 48.000000
3.132692 0.524922 0.414738 62.000000
3.134288 0.515309 0.414738 55.000000
3.135854 0.505690 0.414738 51.000000
3.137391 0.496067 0.414738 55.000000
3.141842 0.486897 0.415095 54.000000
3.141357 0.476957 0.414857 60.000000
3.139860 0.466878 0.414500 57.000000
3.144225 0.457673 0.414857 53.000000
3.146597 0.448164 0.414976 65.000000
3.147957 0.438509 0.414976 55.000000
3.147320 0.428580 0.414738 42.000000
3.148620 0.418922 0.414738 45.000000
3.150875 0.409389 0.414857 42.000000
3.156056 0.400221 0.415332 56.000000
3.157269 0.390537 0.415332 48.000000
3.157467 0.380729 0.415213 48.000000
3.156648 0.370808 0.414976 49.000000
3.156784 0.361009 0.414857 40.000000
3.154917 0.350992 0.414500 58.000000
3.155979 0.341311 0.414500 53.000000
3.157011 0.331627 0.414500 40.000000
3.154062 0.321536 0.414024 58.000000
3.152070 0.311563 0.413667 62.000000
3.153999 0.301987 0.413786 44.000000
3.152934 0.292125 0.413548 47.000000
3.154804 0.282539 0.413667 52.000000
3.153677 0.272687 0.413430 33.000000
3.154499 0.263011 0.413430 49.000000
3.159250 0.253651 0.413905 52.000000
3.163973 0.244265 0.414381 42.000000
3.162727 0.234409 0.414143 49.000000
3.166403 0.224917 0.414500 54.000000
3.165097 0.215066 0.414262 52.000000
3.164751 0.205290 0.414143 50.000000
3.168339 0.195765 0.414500 68.000000
3.168924 0.186043 0.414500 54.000000
3.169480 0.176320 0.414500 54.000000
3.172981 0.166753 0.414857 53.000000
3.171494 0.156919 0.414619 37.000000
3.178903 0.147513 0.415451 56.000000
3.179341 0.137759 0.415451 33.000000
3.179749 0.128005 0.415451 60.000000
3.182111 0.118323 0.415689 51.000000
3.184443 0.108629 0.415927 45.000000
3.188731 0.098983 0.416403 54.000000
3.189020 0.089200 0.416403 39.000000
3.190271 0.079441 0.416522 34.000000
3.185537 0.069542 0.415927 38.000000
3.185735 0.059769 0.415927 51.000000
3.182925 0.049947 0.415570 54.000000
3.184056 0.040195 0.415689 33.000000
3.179200 0.030377 0.415095 45.000000
3.180271 0.020630 0.415213 47.000000
3.178334 0.010865 0.414976 52.000000
3.181331 0.001116 0.415332 49.000000
3.184298 -0.008651 0.415689 50.000000
3.186242 -0.018431 0.415927 49.000000
3.191135 -0.028248 0.416522 37.000000
3.195005 -0.038084 0.416997 45.000000
3.195866 -0.047901 0.417116 41.000000
3.203646 -0.057846 0.418068 58.000000
3.203453 -0.067674 0.418068 57.000000
3.203231 -0.077502 0.418068 50.000000
3.204963 -0.087382 0.418305 42.000000
3.160019 -0.095876 0.412954 11.000000
3.124621 0.763666 0.379941 29.000000
3.125983 0.753843 0.379834 41.000000
3.127313 0.744019 0.379727 35.000000
3.132485 0.735103 0.380047 46.000000
3.135695 0.725713 0.380154 51.000000
3.134998 0.715426 0.379834 51.000000
3.139118 0.706241 0.380047 54.000000
3.136416 0.695531 0.379514 68.000000
3.137564 0.685693 0.379407 53.000000
3.137709 0.675646 0.379193 52.000000
3.134904 0.664985 0.378659 62.000000
3.137902 0.655568 0.378766 57.000000
3.141847 0.646338 0.378980 45.000000
3.139917 0.635907 0.378552 51.000000
3.142828 0.626465 0.378659 54.000000
3.143759 0.616629 0.378552 48.000000
3.141732 0.606228 0.378125 41.000000
3.143577 0.596586 0.378125 53.000000
3.142460 0.586392 0.377805 49.000000
3.143266 0.576569 0.377698 49.000000
3.145020 0.566923 0.377698 54.000000
3.144787 0.556925 0.377485 75.000000
3.146480 0.547275 0.377485 55.000000
3.151085 0.538121 0.377805 48.000000
3.151740 0.528286 0.377698 59.000000
3.151384 0.518292 0.377485 48.000000
3.155904 0.509096 0.377805 57.000000
3.155487 0.499101 0.377591 36.000000
3.160933 0.490026 0.378018 55.000000
3.158490 0.479730 0.377591 61.000000
3.156013 0.469453 0.377164 60.000000
3.157438 0.459768 0.377164 51.000000
3.158834 0.450079 0.377164 51.000000
3.157246 0.439974 0.376844 53.000000
3.159566 0.430420 0.376951 74.000000
3.161857 0.420856 0.377057 50.000000
3.167078 0.411665 0.377485 68.000000
3.168325 0.401947 0.377485 47.000000
3.165597 0.391737 0.377057 41.000000
3.171719 0.382618 0.377591 53.000000
3.177816 0.373465 0.378125 60.000000
3.180923 0.363940 0.378339 54.000000
3.183012 0.354289 0.378446 51.000000
3.182107 0.344308 0.378232 48.000000
3.183148 0.334544 0.378232 65.000000
3.183171 0.324676 0.378125 51.000000
3.179204 0.314420 0.377591 51.000000
3.176195 0.304286 0.377164 58.000000
3.174143 0.294265 0.376844 51.000000
3.175031 0.284526 0.376844 49.000000
3.172917 0.274527 0.376524 54.000000
3.172754 0.264709 0.376417 61.000000
3.173551 0.254973 0.376417 56.000000
3.172336 0.245083 0.376203 40.000000
3.179022 0.235790 0.376844 50.000000
3.179730 0.226036 0.376844 62.000000
3.177433 0.216077 0.376524 67.000000
3.181058 0.206521 0.376844 56.000000
3.183661 0.196883 0.377057 54.000000
3.184250 0.187115 0.377057 49.000000
3.185802 0.177400 0.377164 56.000000
3.189310 0.167782 0.377485 45.000000
3.193782 0.158192 0.377912 66.000000
3.198225 0.148577 0.378339 40.000000
3.197672 0.138722 0.378232 57.000000
3.194109 0.128751 0.377805 41.000000
3.197470 0.119062 0.378125 49.000000
3.197820 0.109251 0.378125 50.000000
3.199134 0.099471 0.378232 57.000000
3.201412 0.089711 0.378446 48.000000
3.204654 0.079963 0.378766 55.000000
3.204884 0.070131 0.378766 58.000000
3.211049 0.060409 0.379407 47.000000
3.206248 0.050480 0.378873 43.000000
3.208377 0.040668 0.379086 54.000000
3.209480 0.030834 0.379193 43.000000
3.206577 0.020968 0.378873 51.000000
3.205632 0.011127 0.378766 47.000000
3.210622 0.001294 0.379300 61.000000
3.205640 -0.008542 0.378766 57.000000
3.208582 -0.018394 0.379086 58.000000
3.207516 -0.028229 0.378980 47.000000
3.207414 -0.038070 0.378980 43.000000
3.208277 -0.047925 0.379086 41.000000
3.212091 -0.057839 0.379514 58.000000
3.210904 -0.067673 0.379407 25.000000
3.141067 0.766954 0.343164 47.000000
3.143406 0.757314 0.343164 44.000000
3.142809 0.746975 0.342879 40.000000
3.145086 0.737330 0.342879 33.000000
3.144424 0.727003 0.342594 47.000000
3.143728 0.716688 0.342310 49.000000
3.145912 0.707040 0.342310 52.000000
3.145151 0.696738 0.342025 43.000000
3.147273 0.687086 0.342025 49.000000
3.147420 0.677007 0.341835 55.000000
3.146561 0.666728 0.341550 54.000000
3.150541 0.657479 0.341740 52.000000
3.154493 0.648211 0.341930 44.000000
3.154516 0.638135 0.341740 57.000000
3.156458 0.628454 0.341740 54.000000
3.155441 0.618192 0.341455 50.000000
3.157323 0.608508 0.341455 51.000000
3.164065 0.599748 0.341930 47.000000
3.163933 0.589672 0.341740 49.000000
3.164748 0.579783 0.341645 46.000000
3.163573 0.569541 0.341360 48.000000
3.163345 0.559485 0.341170 49.000000
3.166027 0.549948 0.341265 48.000000
3.164756 0.539729 0.340980 55.000000
3.162470 0.529358 0.340600 50.000000
3.164079 0.519653 0.340600 43.000000
3.167624 0.510261 0.340790 32.000000
3.170157 0.500696 0.340885 47.000000
3.171679 0.490968 0.340885 50.000000
3.170218 0.480786 0.340600 38.000000
3.174632 0.471498 0.340885 58.000000
3.180003 0.462330 0.341265 47.000000
3.177465 0.452009 0.340885 53.000000
3.178836 0.442259 0.340885 61.000000
3.181165 0.432639 0.340980 45.000000
3.181490 0.422746 0.340885 49.000000
3.177836 0.412341 0.340410 69.000000
3.173161 0.401837 0.339840 58.000000
3.168452 0.391365 0.339270 46.000000
3.170626 0.381762 0.339365 60.000000
3.175737 0.372499 0.339745 46.000000
3.178843 0.362980 0.339935 51.000000
3.177963 0.353006 0.339745 63.000000
3.177051 0.343040 0.339555 40.000000
3.183039 0.333812 0.340030 47.000000
3.185038 0.324146 0.340125 48.000000
3.184036 0.314177 0.339935 51.000000
3.185976 0.304502 0.340030 51.000000
3.188878 0.294910 0.340220 63.000000
3.191751 0.285303 0.340410 43.000000
3.199553 0.276111 0.341075 60.000000
3.200385 0.266294 0.341075 74.000000
3.201187 0.256474 0.341075 67.000000
3.202951 0.246729 0.341170 53.000000
3.201708 0.236753 0.340980 54.000000
3.201426 0.226859 0.340885 61.000000
3.200121 0.216901 0.340695 48.000000
3.199778 0.207017 0.340600 51.000000
3.200398 0.197199 0.340600 43.000000
3.199000 0.187263 0.340410 49.000000
3.201547 0.177558 0.340600 59.000000
3.206053 0.167945 0.340980 75.000000
3.205559 0.158059 0.340885 47.000000
3.207024 0.148270 0.340980 68.000000
3.207464 0.138430 0.340980 55.000000
3.204889 0.128469 0.340695 56.000000
3.204273 0.118598 0.340600 62.000000
3.204622 0.108767 0.340600 57.000000
3.204941 0.098935 0.340600 55.000000
3.209210 0.089214 0.340980 41.000000
3.210464 0.079393 0.341075 51.000000
3.212682 0.069587 0.341265 46.000000
3.216862 0.059806 0.341645 48.000000
3.219021 0.049968 0.341835 37.000000
3.214182 0.040028 0.341360 61.000000
3.218271 0.030205 0.341740 44.000000
3.219345 0.020338 0.341835 66.000000
3.221383 0.010469 0.342025 46.000000
3.225382 0.000588 0.342404 44.000000
3.226364 -0.009310 0.342499 44.000000
3.228311 -0.019219 0.342689 61.000000
3.227241 -0.029115 0.342594 31.000000
3.224151 -0.038981 0.342310 42.000000
3.226007 -0.048902 0.342499 38.000000
3.225841 -0.058799 0.342499 31.000000
3.231617 -0.068820 0.343069 18.000000
3.168641 0.774419 0.304769 42.000000
3.168095 0.763994 0.304522 50.000000
3.165576 0.753118 0.304110 48.000000
3.166902 0.743175 0.304027 43.000000
3.164312 0.732332 0.303615 46.000000
3.164600 0.722178 0.303450 44.000000
3.165829 0.712247 0.303367 51.000000
3.160215 0.700806 0.302708 41.000000
3.163324 0.691320 0.302790 51.000000
3.165430 0.681611 0.302790 54.000000
3.160682 0.670450 0.302213 64.000000
3.163699 0.660954 0.302296 40.000000
3.162784 0.650642 0.302048 47.000000
3.166719 0.641332 0.302213 46.000000
3.173558 0.632587 0.302625 46.000000
3.179396 0.623614 0.302955 50.000000
3.179337 0.613480 0.302790 47.000000
3.186100 0.604651 0.303203 31.000000
3.187940 0.594873 0.303203 47.000000
3.184849 0.584192 0.302790 42.000000
3.183684 0.573888 0.302543 48.000000
3.187392 0.564465 0.302708 64.000000
3.180272 0.553148 0.301966 41.000000
3.184901 0.543891 0.302213 52.000000
3.186555 0.534118 0.302213 50.000000
3.191128 0.524824 0.302460 38.000000
3.197644 0.515824 0.302873 59.000000
3.203149 0.506634 0.303203 52.000000
3.206657 0.497109 0.303367 52.000000
3.204226 0.486671 0.303038 54.000000
3.203732 0.476545 0.302873 51.000000
3.201235 0.466140 0.302543 45.000000
3.191797 0.454772 0.301636 66.000000
3.186267 0.444015 0.301059 79.000000
3.189590 0.434506 0.301224 44.000000
3.188932 0.424456 0.301059 52.000000
3.189230 0.414542 0.300976 51.000000
3.190487 0.404756 0.300976 63.000000
3.196659 0.395577 0.301388 64.000000
3.198847 0.385887 0.301471 59.000000
3.201006 0.376188 0.301553 57.000000
3.200165 0.366139 0.301388 40.000000
3.199292 0.356099 0.301224 64.000000
3.199378 0.346175 0.301141 51.000000
3.201417 0.336462 0.301224 51.000000
3.202434 0.326639 0.301224 50.000000
3.203421 0.316812 0.301224 65.000000
3.208346 0.307362 0.301553 53.000000
3.216220 0.298161 0.302131 72.000000
3.218113 0.288381 0.302213 51.000000
3.228911 0.279365 0.303038 46.000000
3.229753 0.269457 0.303038 55.000000
3.223611 0.258989 0.302460 86.000000
3.233333 0.249788 0.303203 66.000000
3.230109 0.239573 0.302873 59.000000
3.229834 0.229591 0.302790 60.000000
3.233506 0.219884 0.303038 51.000000
3.237149 0.210156 0.303285 58.000000
3.238774 0.200285 0.303367 47.000000
3.237383 0.190231 0.303203 59.000000
3.231981 0.179966 0.302708 65.000000
3.232518 0.170049 0.302708 57.000000
3.229043 0.159935 0.302378 49.000000
3.224541 0.149797 0.301966 51.000000
3.216024 0.139516 0.301224 53.000000
3.216437 0.129648 0.301224 51.000000
3.219807 0.119891 0.301471 64.000000
3.223148 0.110114 0.301718 69.000000
3.228451 0.100379 0.302131 64.000000
3.229740 0.090501 0.302213 53.000000
3.235981 0.080741 0.302708 74.000000
3.240198 0.070899 0.303038 71.000000
3.237411 0.060902 0.302790 65.000000
3.240572 0.051016 0.303038 55.000000
3.239717 0.041062 0.302955 56.000000
3.242818 0.031151 0.303203 50.000000
3.248878 0.021240 0.303697 47.000000
3.248927 0.011272 0.303697 68.000000
3.252933 0.001306 0.304027 48.000000
3.254915 -0.008679 0.304192 59.000000
3.254873 -0.018665 0.304192 40.000000
3.251811 -0.028624 0.303945 50.000000
3.248718 -0.038565 0.303697 53.000000
3.254563 -0.048622 0.304192 40.000000
3.249416 -0.058516 0.303780 28.000000
3.188493 0.643868 0.265378 34.000000
3.191432 0.634278 0.265449 33.000000
3.209025 0.627553 0.266579 29.000000
3.222689 0.619970 0.267426 28.000000
3.221636 0.609522 0.267215 31.000000
3.241141 0.602926 0.268486 31.000000
3.241013 0.592620 0.268345 31.000000
3.222200 0.578962 0.266861 38.000000
3.220032 0.568379 0.266579 53.000000
3.244365 0.562424 0.268203 31.000000
3.232309 0.550119 0.267215 30.000000
3.273334 0.546788 0.270040 26.000000
3.237592 0.530599 0.267356 49.000000
3.219509 0.517491 0.265943 34.000000
3.247684 0.511813 0.267850 48.000000
3.240367 0.500474 0.267215 39.000000
3.241887 0.490530 0.267215 33.000000
3.255217 0.482340 0.268062 32.000000
3.254707 0.472064 0.267921 47.000000
3.263053 0.463060 0.268415 44.000000
3.256555 0.451947 0.267850 46.000000
3.250019 0.440879 0.267285 44.000000
3.251356 0.430906 0.267285 38.000000
3.280360 0.424523 0.269263 31.000000
3.233157 0.408316 0.265802 49.000000
3.240335 0.399128 0.266226 39.000000
3.293042 0.395387 0.269898 23.000000
3.266500 0.382028 0.267921 34.000000
3.269638 0.372231 0.268062 31.000000
3.255894 0.360546 0.267003 38.000000
3.306571 0.355910 0.270534 28.000000
3.283838 0.343267 0.268839 34.000000
3.276937 0.332382 0.268274 36.000000
3.254117 0.319976 0.266579 57.000000
3.273950 0.311795 0.267921 41.000000
3.270918 0.301381 0.267638 30.000000
3.254937 0.289835 0.266438 53.000000
3.273700 0.281392 0.267709 34.000000
3.275542 0.271429 0.267780 34.000000
3.280336 0.261698 0.268062 34.000000
3.274162 0.251096 0.267568 35.000000
3.272927 0.240903 0.267426 33.000000
3.264696 0.230226 0.266791 33.000000
3.259415 0.219804 0.266367 38.000000
3.257088 0.209610 0.266155 40.000000
3.250747 0.199187 0.265661 35.000000
3.249351 0.189096 0.265520 33.000000
3.243940 0.178795 0.265096 44.000000
3.243477 0.168789 0.265025 32.000000
3.240991 0.158690 0.264813 32.000000
3.238473 0.148608 0.264601 43.000000
3.234927 0.138500 0.264319 33.000000
3.229357 0.128335 0.263895 38.000000
3.230732 0.118463 0.263966 39.000000
3.237062 0.108754 0.264389 61.000000
3.233392 0.098699 0.264107 39.000000
3.241657 0.089001 0.264672 35.000000
3.241915 0.079055 0.264672 34.000000
3.245134 0.069174 0.264884 43.000000
3.243336 0.059180 0.264743 26.000000
3.247492 0.049292 0.265025 25.000000
3.244635 0.039291 0.264813 37.000000
3.242746 0.029318 0.264672 39.000000
3.242821 0.019369 0.264672 42.000000
3.251842 0.009449 0.265308 39.000000
3.257841 -0.000526 0.265731 37.000000
3.261814 -0.010533 0.266014 35.000000
3.260769 -0.020534 0.265943 37.000000
3.263683 -0.030564 0.266155 39.000000
3.260581 -0.040541 0.265943 23.000000
3.263434 -0.050589 0.266155 26.000000
3.221375 -0.059838 0.263189 13.000000
3.602865 0.625953 0.248034 24.000000
3.596896 0.613555 0.247569 37.000000
3.585962 0.600375 0.246814 37.000000
3.580891 0.588239 0.246407 67.000000
3.591549 0.578678 0.246930 77.000000
3.552877 0.561274 0.244548 31.000000
3.551623 0.549914 0.244374 39.000000
3.546384 0.537967 0.243968 35.000000
3.544068 0.526498 0.243735 32.000000
3.538751 0.514618 0.243329 29.000000
3.525487 0.501651 0.242457 71.000000
3.525033 0.490557 0.242341 72.000000
3.529488 0.480144 0.242515 45.000000
3.525007 0.468525 0.242167 31.000000
3.523458 0.457323 0.241993 30.000000
3.528806 0.447012 0.242225 23.000000
3.532142 0.436428 0.242341 53.000000
3.538420 0.426186 0.242632 56.000000
3.528805 0.414050 0.241993 46.000000
3.533034 0.403561 0.242167 47.000000
3.540209 0.393381 0.242515 39.000000
3.536436 0.381983 0.242225 45.000000
3.535606 0.370923 0.242109 46.000000
3.528781 0.359266 0.241644 29.000000
3.527880 0.348242 0.241528 27.000000
3.546820 0.339126 0.242573 19.000000
3.524980 0.326130 0.241237 30.000000
3.528947 0.315580 0.241412 44.000000
3.528904 0.304666 0.241354 58.000000
3.534796 0.294252 0.241644 47.000000
3.511800 0.281494 0.240250 25.000000
