ply
format ascii 1.0
element vertex 1283
property float x
property float y
property float z
property float intensity
end_header
3.330533 0.610217 0.523036 36.000000
3.337259 0.600875 0.523750 38.000000
3.339087 0.590634 0.523750 58.000000
3.339908 0.580217 0.523608 44.000000
3.342648 0.570134 0.523750 44.000000
3.344382 0.559876 0.523750 47.000000
3.342177 0.548970 0.523179 44.000000
3.344823 0.538872 0.523322 32.000000
3.341573 0.527834 0.522607 57.000000
3.346110 0.518035 0.523036 50.000000
3.345727 0.507469 0.522750 36.000000
3.348247 0.497348 0.522893 55.000000
3.350736 0.487216 0.523036 32.000000
3.352215 0.476934 0.523036 49.000000
3.356604 0.467057 0.523465 34.000000
3.358021 0.456757 0.523465 45.000000
3.358425 0.446322 0.523322 47.000000
3.362723 0.436399 0.523750 43.000000
3.365028 0.426205 0.523893 47.000000
3.365337 0.415758 0.523750 38.000000
3.368562 0.405669 0.524036 35.000000
3.368808 0.395217 0.523893 48.000000
3.373938 0.385330 0.524465 53.000000
3.375104 0.374977 0.524465 63.000000
3.383126 0.365367 0.525466 33.000000
3.383247 0.354882 0.525323 43.000000
3.385305 0.344601 0.525466 40.000000
3.387331 0.334311 0.525609 40.000000
3.391296 0.324201 0.526038 41.000000
3.389318 0.313521 0.525609 41.000000
3.360691 0.300467 0.521320 15.000000
3.200693 1.112904 0.482022 34.000000
3.202217 1.102434 0.481759 32.000000
3.201831 1.091326 0.481235 29.000000
3.205164 1.081498 0.481235 41.000000
3.208467 1.071659 0.481235 59.000000
3.208915 1.060877 0.480842 37.000000
3.212155 1.051028 0.480842 50.000000
3.215364 1.041168 0.480842 51.000000
3.218544 1.031299 0.480842 55.000000
3.222638 1.021719 0.480973 59.000000
3.224811 1.011530 0.480842 50.000000
3.226005 1.001045 0.480580 40.000000
3.228114 0.990852 0.480449 45.000000
3.231138 0.980944 0.480449 51.000000
3.233183 0.970741 0.480318 51.000000
3.234245 0.960253 0.480056 58.000000
3.237176 0.950326 0.480056 51.000000
3.239124 0.940114 0.479925 52.000000
3.242946 0.930445 0.480056 40.000000
3.242924 0.919680 0.479663 49.000000
3.245730 0.909727 0.479663 59.000000
3.248506 0.899765 0.479663 51.000000
3.251251 0.889794 0.479663 48.000000
3.254923 0.880074 0.479794 45.000000
3.256649 0.869828 0.479663 55.000000
3.261220 0.860339 0.479925 54.000000
3.267682 0.851328 0.480449 48.000000
3.271238 0.841546 0.480580 48.000000
3.272844 0.831262 0.480449 44.000000
3.280187 0.822423 0.481104 49.000000
3.277883 0.811165 0.480449 41.000000
3.285172 0.802280 0.481104 59.000000
3.281835 0.790805 0.480318 45.000000
3.282316 0.780274 0.480056 52.000000
3.281799 0.769522 0.479663 58.000000
3.282213 0.759003 0.479401 41.000000
3.283559 0.748710 0.479270 60.000000
3.288742 0.739284 0.479663 43.000000
3.290027 0.728977 0.479532 38.000000
3.298060 0.720148 0.480318 47.000000
3.302192 0.710443 0.480580 45.000000
3.304356 0.700309 0.480580 50.000000
3.308430 0.690573 0.480842 56.000000
3.308591 0.680021 0.480580 61.000000
3.306775 0.669081 0.480056 49.000000
3.309784 0.659126 0.480187 44.000000
3.310818 0.648778 0.480056 59.000000
3.314740 0.638993 0.480318 47.000000
3.320581 0.629559 0.480842 70.000000
3.326395 0.620094 0.481366 47.000000
3.333158 0.610779 0.482022 69.000000
3.335016 0.600550 0.482022 58.000000
3.337819 0.590488 0.482153 42.000000
3.339615 0.580245 0.482153 58.000000
3.339425 0.569664 0.481890 50.000000
3.342134 0.559579 0.482022 72.000000
3.340900 0.548841 0.481628 52.000000
3.339632 0.538116 0.481235 60.000000
3.343226 0.528177 0.481497 51.000000
3.342871 0.517615 0.481235 55.000000
3.344444 0.507356 0.481235 59.000000
3.346965 0.497239 0.481366 49.000000
3.350437 0.487253 0.481628 45.000000
3.349953 0.476693 0.481366 44.000000
3.353364 0.466686 0.481628 48.000000
3.354779 0.456396 0.481628 49.000000
3.358130 0.446363 0.481890 69.000000
3.357517 0.435803 0.481628 44.000000
3.360805 0.425749 0.481890 62.000000
3.360127 0.415193 0.481628 42.000000
3.364338 0.405238 0.482022 42.000000
3.367535 0.395145 0.482284 48.000000
3.369716 0.384924 0.482415 47.000000
3.375808 0.375131 0.483070 65.000000
3.383843 0.365517 0.483987 60.000000
3.386920 0.355341 0.484249 52.000000
3.390953 0.345249 0.484642 37.000000
3.389037 0.334552 0.484249 42.000000
3.389060 0.324059 0.484118 44.000000
3.389051 0.313569 0.483987 41.000000
3.353462 0.299907 0.479139 18.000000
3.195081 1.111489 0.439474 30.000000
3.197537 1.101358 0.439355 40.000000
3.202780 1.092185 0.439593 31.000000
3.208938 1.083307 0.439950 40.000000
3.210363 1.072827 0.439712 54.000000
3.213639 1.062973 0.439712 43.000000
3.215942 1.052799 0.439593 57.000000
3.217268 1.042315 0.439355 48.000000
3.219505 1.032137 0.439236 47.000000
3.216978 1.020451 0.438523 47.000000
3.218199 1.009982 0.438285 54.000000
3.218438 0.999219 0.437928 58.000000
3.217692 0.988173 0.437452 47.000000
3.221659 0.978586 0.437571 48.000000
3.227499 0.969555 0.437928 67.000000
3.232361 0.960215 0.438166 59.000000
3.236244 0.950574 0.438285 49.000000
3.239146 0.940641 0.438285 51.000000
3.246788 0.932070 0.438879 60.000000
3.251542 0.922648 0.439117 46.000000
3.255313 0.912936 0.439236 69.000000
3.256185 0.902414 0.438998 53.000000
3.260854 0.892945 0.439236 55.000000
3.265494 0.883456 0.439474 46.000000
3.268190 0.873433 0.439474 61.000000
3.267974 0.862641 0.439117 50.000000
3.272527 0.853113 0.439355 50.000000
3.272244 0.842325 0.438998 49.000000
3.271926 0.831547 0.438641 57.000000
3.274462 0.821505 0.438641 60.000000
3.274076 0.810738 0.438285 42.000000
3.280406 0.801634 0.438760 61.000000
3.284780 0.792032 0.438998 81.000000
3.288160 0.782181 0.439117 69.000000
3.290544 0.772090 0.439117 60.000000
3.292897 0.761991 0.439117 62.000000
3.295220 0.751885 0.439117 58.000000
3.294605 0.741117 0.438760 55.000000
3.299771 0.731651 0.439117 49.000000
3.302001 0.721524 0.439117 51.000000
3.303228 0.711181 0.438998 51.000000
3.308308 0.701663 0.439355 52.000000
3.310445 0.691510 0.439355 54.000000
3.311578 0.681150 0.439236 60.000000
3.314626 0.671184 0.439355 48.000000
3.314722 0.660623 0.439117 48.000000
3.317707 0.650642 0.439236 52.000000
3.320663 0.640649 0.439355 56.000000
3.319686 0.629902 0.438998 50.000000
3.322579 0.619897 0.439117 67.000000
3.326418 0.610059 0.439355 47.000000
3.324366 0.599145 0.438879 60.000000
3.330099 0.589637 0.439355 51.000000
3.329936 0.579077 0.439117 56.000000
3.334633 0.569360 0.439474 44.000000
3.338322 0.559456 0.439712 56.000000
3.341003 0.549373 0.439831 44.000000
3.339732 0.538645 0.439474 50.000000
3.340388 0.528241 0.439355 64.000000
3.341012 0.517838 0.439236 47.000000
3.342585 0.507585 0.439236 62.000000
3.342162 0.497035 0.438998 75.000000
3.343671 0.486779 0.438998 56.000000
3.345149 0.476519 0.438998 48.000000
3.348562 0.466528 0.439236 71.000000
3.352929 0.456656 0.439593 46.000000
3.353330 0.446236 0.439474 60.000000
3.356652 0.436203 0.439712 56.000000
3.359945 0.426153 0.439950 54.000000
3.363207 0.416087 0.440187 58.000000
3.364468 0.405767 0.440187 46.000000
3.367669 0.395676 0.440425 47.000000
3.372813 0.385795 0.440901 53.000000
3.378915 0.375996 0.441496 60.000000
3.384001 0.366056 0.441971 60.000000
3.385108 0.355673 0.441971 33.000000
3.389146 0.345589 0.442328 35.000000
3.392167 0.335385 0.442566 46.000000
3.396144 0.325262 0.442923 43.000000
3.394161 0.314565 0.442566 47.000000
3.434666 0.307708 0.447323 10.000000
3.185120 1.130067 0.397453 24.000000
3.195138 1.122596 0.398201 33.000000
3.199507 1.113115 0.398308 48.000000
3.205727 1.104265 0.398628 63.000000
3.208158 1.094104 0.398521 42.000000
3.213384 1.084892 0.398735 50.000000
3.222356 1.076919 0.399375 75.000000
3.221869 1.065779 0.398948 64.000000
3.227013 1.056508 0.399162 61.000000
3.229294 1.046296 0.399055 57.000000
3.228701 1.035170 0.398628 50.000000
3.226175 1.023457 0.397987 44.000000
3.228351 1.013256 0.397880 48.000000
3.229545 1.002758 0.397667 43.000000
3.230705 0.992261 0.397453 50.000000
3.232783 0.982056 0.397347 56.000000
3.240542 0.973563 0.397880 47.000000
3.242561 0.963334 0.397774 48.000000
3.249317 0.954502 0.398201 52.000000
3.250320 0.943974 0.397987 70.000000
3.255112 0.934546 0.398201 61.000000
3.260834 0.925369 0.398521 53.000000
3.263657 0.915361 0.398521 65.000000
3.263576 0.904547 0.398201 60.000000
3.265377 0.894268 0.398094 46.000000
3.266185 0.883727 0.397880 54.000000
3.264078 0.872419 0.397347 61.000000
3.264816 0.861894 0.397133 60.000000
3.266483 0.851622 0.397026 44.000000
3.267155 0.841101 0.396813 61.000000
3.273575 0.832053 0.397240 56.000000
3.273219 0.821280 0.396919 60.000000
3.278618 0.811951 0.397240 62.000000
3.282060 0.802125 0.397347 53.000000
3.287405 0.792751 0.397667 37.000000
3.289822 0.782661 0.397667 40.000000
3.295111 0.773246 0.397987 57.000000
3.293593 0.762237 0.397560 51.000000
3.299794 0.753013 0.397987 61.000000
3.301118 0.742667 0.397880 58.000000
3.306293 0.733182 0.398201 68.000000
3.308527 0.723035 0.398201 61.000000
3.309758 0.712672 0.398094 52.000000
3.314847 0.703133 0.398414 52.000000
3.319908 0.693569 0.398735 61.000000
3.320073 0.682980 0.398521 64.000000
3.322152 0.672791 0.398521 46.000000
3.321275 0.662013 0.398201 44.000000
3.321339 0.651438 0.397987 59.000000
3.323323 0.641245 0.397987 55.000000
3.323320 0.630676 0.397774 48.000000
3.316443 0.618837 0.396813 30.000000
3.324194 0.609735 0.397453 39.000000
3.324092 0.599181 0.397240 49.000000
3.324935 0.588806 0.397133 48.000000
3.330644 0.579284 0.397560 68.000000
3.332406 0.569063 0.397560 57.000000
3.338058 0.559494 0.397987 77.000000
3.344665 0.550056 0.398521 56.000000
3.344373 0.539476 0.398308 54.000000
3.348959 0.529678 0.398628 51.000000
3.352533 0.519706 0.398842 62.000000
3.354112 0.509418 0.398842 51.000000
3.360577 0.499856 0.399375 60.000000
3.363078 0.489687 0.399482 48.000000
3.364565 0.479367 0.399482 35.000000
3.371928 0.469865 0.400123 54.000000
3.373354 0.459518 0.400123 37.000000
3.373762 0.449035 0.400016 50.000000
3.376110 0.438811 0.400123 69.000000
3.376454 0.428326 0.400016 54.000000
3.379726 0.418209 0.400230 43.000000
3.382967 0.408076 0.400443 64.000000
3.383216 0.397579 0.400337 53.000000
3.385408 0.387311 0.400443 57.000000
3.390532 0.377362 0.400870 48.000000
3.396617 0.367493 0.401404 55.000000
3.398717 0.357174 0.401511 63.000000
3.398808 0.346644 0.401404 52.000000
3.399856 0.336215 0.401404 47.000000
3.402850 0.325973 0.401618 45.000000
3.400864 0.315256 0.401298 44.000000
3.386961 0.303492 0.399696 10.000000
3.197823 1.144923 0.358741 31.000000
3.202259 1.135440 0.358836 42.000000
3.204788 1.125280 0.358741 40.000000
3.205405 1.114461 0.358456 47.000000
3.211632 1.105594 0.358741 57.000000
3.215951 1.096057 0.358836 79.000000
3.214583 1.084593 0.358361 48.000000
3.216007 1.074094 0.358171 52.000000
3.216452 1.063284 0.357886 57.000000
3.220645 1.053721 0.357981 58.000000
3.225757 1.044450 0.358171 62.000000
3.226102 1.033636 0.357886 53.000000
3.227360 1.023131 0.357696 47.000000
3.229534 1.012927 0.357601 52.000000
3.229775 1.002128 0.357316 55.000000
3.234737 0.992799 0.357506 50.000000
3.235863 0.982292 0.357316 52.000000
3.238861 0.972360 0.357316 69.000000
3.244692 0.963269 0.357601 61.000000
3.250497 0.954152 0.357886 59.000000
3.253409 0.944175 0.357886 59.000000
3.256290 0.934189 0.357886 53.000000
3.256268 0.923379 0.357601 46.000000
3.256210 0.912578 0.357316 55.000000
3.256117 0.901786 0.357031 42.000000
3.255988 0.891003 0.356746 66.000000
3.257745 0.880749 0.356651 65.000000
3.258509 0.870236 0.356461 48.000000
3.260201 0.859980 0.356366 52.000000
3.263787 0.850226 0.356461 47.000000
3.265416 0.839960 0.356366 57.000000
3.271837 0.830920 0.356746 63.000000
3.274371 0.820878 0.356746 67.000000
3.278806 0.811307 0.356936 69.000000
3.282247 0.801481 0.357031 77.000000
3.281787 0.790706 0.356746 61.000000
3.284198 0.780634 0.356746 53.000000
3.286577 0.770555 0.356746 61.000000
3.286016 0.759794 0.356461 78.000000
3.291243 0.750374 0.356746 84.000000
3.291588 0.739836 0.356556 61.000000
3.297729 0.730597 0.356936 61.000000
3.300928 0.720689 0.357031 70.000000
3.303123 0.710558 0.357031 65.000000
3.307235 0.700835 0.357221 81.000000
3.308395 0.690481 0.357126 67.000000
3.311473 0.680528 0.357221 52.000000
3.315497 0.670761 0.357411 50.000000
3.316563 0.660392 0.357316 58.000000
3.318573 0.650213 0.357316 47.000000
3.321530 0.640218 0.357411 55.000000
3.322500 0.629839 0.357316 60.000000
3.324417 0.619642 0.357316 63.000000
3.328261 0.609800 0.357506 49.000000
3.326197 0.598879 0.357126 40.000000
3.330960 0.589193 0.357411 48.000000
3.333732 0.579142 0.357506 60.000000
3.334512 0.568743 0.357411 49.000000
3.338205 0.558840 0.357601 62.000000
3.336957 0.548111 0.357316 47.000000
3.339605 0.538029 0.357411 78.000000
3.344190 0.528248 0.357696 61.000000
3.342844 0.517528 0.357411 67.000000
3.348353 0.507868 0.357791 49.000000
3.350879 0.497740 0.357886 58.000000
3.354361 0.487744 0.358076 46.000000
3.353870 0.477170 0.357886 51.000000
3.359262 0.467428 0.358266 70.000000
3.360680 0.457120 0.358266 59.000000
3.361080 0.446676 0.358171 49.000000
3.363422 0.436491 0.358266 54.000000
3.366720 0.426420 0.358456 62.000000
3.370977 0.416457 0.358741 55.000000
3.378168 0.406829 0.359310 65.000000
3.379400 0.396463 0.359310 73.000000
3.381590 0.386206 0.359405 57.000000
3.386716 0.376271 0.359785 59.000000
3.386865 0.365772 0.359690 52.000000
3.389951 0.355588 0.359880 46.000000
3.393007 0.345388 0.360070 56.000000
3.396032 0.335173 0.360260 56.000000
3.401999 0.325228 0.360735 64.000000
3.406945 0.315158 0.361115 71.000000
3.410871 0.304971 0.361400 63.000000
3.415757 0.294849 0.361780 70.000000
3.417638 0.284451 0.361875 49.000000
3.240395 1.149671 0.319365 21.000000
3.199713 1.124203 0.315489 58.000000
3.205971 1.115363 0.315737 49.000000
3.211263 1.106171 0.315901 55.000000
3.214641 1.096314 0.315901 38.000000
3.218934 1.086765 0.315984 36.000000
3.214691 1.074358 0.315324 48.000000
3.214187 1.063239 0.314994 45.000000
3.223117 1.055233 0.315489 53.000000
3.220650 1.043497 0.314994 68.000000
3.220990 1.032699 0.314747 53.000000
3.226043 1.023415 0.314912 56.000000
3.229167 1.013512 0.314912 69.000000
3.233213 1.003896 0.314994 56.000000
3.239136 0.994850 0.315242 65.000000
3.240266 0.984328 0.315077 39.000000
3.242316 0.974096 0.314994 48.000000
3.244334 0.963860 0.314912 53.000000
3.247276 0.953902 0.314912 53.000000
3.249230 0.943658 0.314829 75.000000
3.251152 0.933410 0.314747 57.000000
3.254000 0.923431 0.314747 58.000000
3.258737 0.913982 0.314912 64.000000
3.262486 0.904246 0.314994 59.000000
3.265245 0.894232 0.314994 81.000000
3.266049 0.883690 0.314829 59.000000
3.267782 0.873409 0.314747 57.000000
3.270446 0.863379 0.314747 65.000000
3.269222 0.852336 0.314417 59.000000
3.269891 0.841805 0.314252 69.000000
3.273424 0.832015 0.314335 59.000000
3.275962 0.821968 0.314335 61.000000
3.278468 0.811914 0.314335 59.000000
3.279975 0.801616 0.314252 61.000000
3.283388 0.791782 0.314335 65.000000
3.285802 0.781705 0.314335 70.000000
3.287214 0.771393 0.314252 53.000000
3.289566 0.761305 0.314252 66.000000
3.292857 0.751431 0.314335 76.000000
3.298064 0.741981 0.314582 81.000000
3.303244 0.732506 0.314829 72.000000
3.305475 0.722368 0.314829 72.000000
3.306702 0.712014 0.314747 74.000000
3.307896 0.701659 0.314665 59.000000
3.310033 0.691507 0.314665 65.000000
3.312139 0.681349 0.314665 48.000000
3.312260 0.670789 0.314500 55.000000
3.316257 0.661013 0.314665 63.000000
3.317292 0.650644 0.314582 65.000000
3.315358 0.639709 0.314252 36.000000
3.326117 0.631206 0.314994 59.000000
3.328038 0.620999 0.314994 50.000000
3.331888 0.611145 0.315159 51.000000
3.331786 0.600567 0.314994 50.000000
3.332631 0.590168 0.314912 47.000000
3.336390 0.580283 0.315077 54.000000
3.338154 0.570044 0.315077 38.000000
3.336939 0.559306 0.314829 49.000000
3.337656 0.548904 0.314747 42.000000
3.338340 0.538503 0.314665 54.000000
3.343914 0.528881 0.314994 49.000000
3.345521 0.518620 0.314994 50.000000
3.347096 0.508353 0.314994 63.000000
3.348640 0.498082 0.314994 56.000000
3.350152 0.487806 0.314994 49.000000
3.351633 0.477526 0.314994 53.000000
3.356044 0.467653 0.315242 52.000000
3.360425 0.457758 0.315489 55.000000
3.360826 0.447315 0.315407 69.000000
3.366135 0.437515 0.315737 48.000000
3.369439 0.427437 0.315901 63.000000
3.374691 0.417586 0.316231 54.000000
3.378925 0.407589 0.316479 50.000000
3.383128 0.397569 0.316726 45.000000
3.385323 0.387301 0.316809 59.000000
3.391447 0.377464 0.317221 50.000000
3.393580 0.367164 0.317303 45.000000
3.397664 0.357063 0.317551 50.000000
3.402709 0.347042 0.317881 47.000000
3.405742 0.336797 0.318045 49.000000
3.408743 0.326536 0.318210 63.000000
3.412706 0.316353 0.318458 72.000000
3.416638 0.306148 0.318705 48.000000
3.417561 0.295664 0.318705 38.000000
3.421432 0.285426 0.318953 22.000000
3.207566 1.113964 0.275478 26.000000
3.208139 1.103144 0.275266 46.000000
3.212452 1.093618 0.275337 33.000000
3.214847 1.083438 0.275266 39.000000
3.214371 1.072306 0.274984 44.000000
3.214805 1.061500 0.274772 43.000000
3.217098 1.051322 0.274701 47.000000
3.215564 1.039911 0.274348 51.000000
3.218739 1.030041 0.274348 55.000000
3.221884 1.020161 0.274348 70.000000
3.227854 1.011167 0.274560 50.000000
3.230941 1.001260 0.274560 55.000000
3.235905 0.991928 0.274701 58.000000
3.239887 0.982285 0.274772 61.000000
3.242886 0.972341 0.274772 59.000000
3.243941 0.961820 0.274630 49.000000
3.246876 0.951863 0.274630 51.000000
3.247865 0.941341 0.274489 51.000000
3.252656 0.931922 0.274630 56.000000
3.254540 0.921667 0.274560 51.000000
3.256392 0.911409 0.274489 54.000000
3.262057 0.902212 0.274701 73.000000
3.264809 0.892200 0.274701 81.000000
3.265605 0.881659 0.274560 70.000000
3.265404 0.870864 0.274348 62.000000
3.265167 0.860079 0.274136 73.000000
3.264894 0.849303 0.273924 79.000000
3.267484 0.839282 0.273924 61.000000
3.269077 0.829008 0.273854 67.000000
3.272572 0.819218 0.273924 75.000000
3.275070 0.809174 0.273924 82.000000
3.280444 0.799832 0.274136 73.000000
3.282883 0.789764 0.274136 83.000000
3.285290 0.779688 0.274136 71.000000
3.286696 0.769378 0.274065 69.000000
3.288069 0.759066 0.273995 81.000000
3.291355 0.749197 0.274065 75.000000
3.294611 0.739314 0.274136 73.000000
3.297837 0.729419 0.274207 70.000000
3.302009 0.719723 0.274348 68.000000
3.301276 0.708960 0.274136 80.000000
3.303435 0.698829 0.274136 82.000000
3.305564 0.688691 0.274136 66.000000
3.306684 0.678345 0.274065 60.000000
3.307772 0.667999 0.273995 60.000000
3.312740 0.658433 0.274207 51.000000
3.316703 0.648650 0.274348 43.000000
3.320636 0.638849 0.274489 60.000000
3.322581 0.628658 0.274489 38.000000
3.325474 0.618644 0.274560 41.000000
3.326375 0.608259 0.274489 45.000000
3.327244 0.597875 0.274419 38.000000
3.331027 0.588011 0.274560 54.000000
3.331833 0.577618 0.274489 52.000000
3.334572 0.567562 0.274560 50.000000
3.337282 0.557493 0.274630 49.000000
3.337008 0.546929 0.274489 61.000000
3.342609 0.537323 0.274772 48.000000
3.346213 0.527377 0.274913 47.000000
3.345844 0.516803 0.274772 47.000000
3.351358 0.507134 0.275054 45.000000
3.351912 0.496703 0.274984 51.000000
3.351445 0.486130 0.274842 45.000000
3.354896 0.476127 0.274984 45.000000
3.353377 0.465419 0.274772 57.000000
3.354789 0.455129 0.274772 54.000000
3.356170 0.444835 0.274772 51.000000
3.360486 0.434921 0.274984 35.000000
3.367743 0.425361 0.275407 52.000000
3.372992 0.415516 0.275690 40.000000
3.380193 0.405882 0.276114 47.000000
3.385385 0.395975 0.276396 50.000000
3.389556 0.385926 0.276608 37.000000
3.394690 0.375966 0.276890 61.000000
3.396820 0.365656 0.276961 53.000000
3.401894 0.355650 0.277244 52.000000
3.406938 0.345615 0.277526 28.000000
3.405004 0.334867 0.277314 30.000000
3.407009 0.324514 0.277385 42.000000
3.408982 0.314152 0.277455 50.000000
3.407942 0.303514 0.277314 16.000000
3.207892 1.115407 0.232873 52.000000
3.209411 1.104910 0.232757 47.000000
3.212786 1.095058 0.232757 51.000000
3.218968 1.086154 0.232931 44.000000
3.216604 1.074376 0.232583 50.000000
3.217989 1.063876 0.232466 51.000000
3.223135 1.054619 0.232583 54.000000
3.225406 1.044418 0.232524 44.000000
3.229546 1.034822 0.232583 59.000000
3.233657 1.025211 0.232641 57.000000
3.236787 1.015285 0.232641 49.000000
3.241794 1.005942 0.232757 53.000000
3.245819 0.996284 0.232815 61.000000
3.245039 0.985162 0.232583 57.000000
3.245178 0.974341 0.232408 65.000000
3.248152 0.964380 0.232408 65.000000
3.248221 0.953567 0.232234 56.000000
3.251132 0.943597 0.232234 71.000000
3.256890 0.934444 0.232408 76.000000
3.259742 0.924448 0.232408 63.000000
3.262563 0.914443 0.232408 63.000000
3.267277 0.904962 0.232524 86.000000
3.268112 0.894407 0.232408 74.000000
3.272768 0.884897 0.232524 63.000000
3.272574 0.874080 0.232350 78.000000
3.271379 0.863017 0.232118 89.000000
3.273045 0.852725 0.232060 88.000000
3.272745 0.841934 0.231886 89.000000
3.273377 0.831398 0.231769 90.000000
3.276881 0.821594 0.231827 83.000000
3.277448 0.811057 0.231711 83.000000
3.282830 0.801709 0.231886 82.000000
3.287216 0.792101 0.232002 90.000000
3.292544 0.782704 0.232176 89.000000
3.296874 0.773055 0.232292 86.000000
3.300203 0.763161 0.232350 96.000000
3.301555 0.752811 0.232292 112.000000
3.302875 0.742460 0.232234 86.000000
3.304163 0.732107 0.232176 92.000000
3.305418 0.721754 0.232118 88.000000
3.305665 0.711190 0.232002 81.000000
3.306854 0.700838 0.231944 79.000000
3.309966 0.690893 0.232002 113.000000
3.313048 0.680936 0.232060 97.000000
3.312186 0.670175 0.231886 66.000000
3.317164 0.660595 0.232060 52.000000
3.319175 0.650415 0.232060 52.000000
3.323115 0.640606 0.232176 62.000000
3.326046 0.630594 0.232234 53.000000
3.326984 0.620204 0.232176 58.000000
3.332799 0.610713 0.232408 54.000000
3.337604 0.601016 0.232583 49.000000
3.343365 0.591469 0.232815 57.000000
3.349098 0.581892 0.233047 53.000000
3.354804 0.572285 0.233280 66.000000
3.358513 0.562320 0.233396 48.000000
3.360223 0.552013 0.233396 50.000000
3.362885 0.541860 0.233454 55.000000
3.362560 0.531229 0.233338 58.000000
3.363187 0.520758 0.233280 63.000000
3.358847 0.509540 0.232931 51.000000
3.355457 0.498500 0.232641 48.000000
3.354995 0.487916 0.232524 51.000000
3.360430 0.478183 0.232757 54.000000
3.359903 0.467596 0.232641 67.000000
3.362311 0.457420 0.232699 55.000000
3.367657 0.447628 0.232931 47.000000
3.371984 0.437679 0.233105 47.000000
3.376283 0.427708 0.233280 54.000000
3.380551 0.417715 0.233454 49.000000
3.379835 0.407103 0.233338 40.000000
3.386026 0.397313 0.233628 68.000000
3.389212 0.387149 0.233744 59.000000
3.391376 0.376860 0.233802 71.000000
3.398472 0.367096 0.234151 49.000000
3.402560 0.356980 0.234325 58.000000
3.406619 0.346842 0.234499 33.000000
3.406674 0.336291 0.234441 48.000000
3.408683 0.325933 0.234499 44.000000
3.409667 0.315474 0.234499 44.000000
3.410619 0.305012 0.234499 24.000000
3.225539 1.119585 0.193480 32.000000
3.226125 1.108709 0.193341 38.000000
3.229511 1.098806 0.193341 36.000000
3.227188 1.086978 0.193063 36.000000
3.225770 1.075490 0.192832 48.000000
3.221466 1.063082 0.192462 58.000000
3.218066 1.051020 0.192139 56.000000
3.220325 1.040835 0.192093 50.000000
3.220649 1.030036 0.191954 55.000000
3.221890 1.019547 0.191861 67.000000
3.226909 1.010255 0.191954 57.000000
3.229993 1.000350 0.191954 62.000000
3.235912 0.991315 0.192093 51.000000
3.237982 0.981093 0.192046 59.000000
3.240977 0.971154 0.192046 58.000000
3.243941 0.961206 0.192046 71.000000
3.244958 0.950687 0.191954 58.000000
3.244981 0.939893 0.191815 57.000000
3.247849 0.929933 0.191815 73.000000
3.251648 0.920237 0.191861 58.000000
3.254456 0.910256 0.191861 61.000000
3.256270 0.900001 0.191815 80.000000
3.257089 0.889480 0.191723 89.000000
3.260767 0.879744 0.191769 80.000000
3.261521 0.869220 0.191676 75.000000
3.262240 0.858701 0.191584 106.000000
3.263892 0.848437 0.191538 106.000000
3.269382 0.839165 0.191676 140.000000
3.274846 0.829868 0.191815 137.000000
3.288036 0.822487 0.192324 189.000000
3.290544 0.812396 0.192324 210.000000
3.292050 0.802060 0.192277 233.000000
3.296438 0.792424 0.192370 181.000000
3.293994 0.781153 0.192139 151.000000
3.293457 0.770360 0.192000 158.000000
3.293858 0.759802 0.191908 154.000000
3.291304 0.748584 0.191676 146.000000
3.295535 0.738920 0.191769 125.000000
3.295835 0.728375 0.191676 141.000000
3.300982 0.718898 0.191815 111.000000
3.303172 0.708768 0.191815 87.000000
3.304354 0.698424 0.191769 101.000000
3.305503 0.688079 0.191723 89.000000
3.309556 0.678336 0.191815 94.000000
3.311621 0.668179 0.191815 108.000000
3.313656 0.658016 0.191815 68.000000
3.315659 0.647847 0.191815 56.000000
3.315669 0.637294 0.191723 51.000000
3.319572 0.627490 0.191815 58.000000
3.323445 0.617669 0.191908 57.000000
3.323359 0.607110 0.191815 42.000000
3.322257 0.596381 0.191676 34.000000
3.327022 0.586707 0.191815 58.000000
3.330775 0.576839 0.191908 46.000000
3.333513 0.566785 0.191954 46.000000
3.334251 0.556390 0.191908 46.000000
3.336928 0.546320 0.191954 45.000000
3.341547 0.536556 0.192093 47.000000
3.348112 0.527080 0.192324 46.000000
3.351687 0.517111 0.192416 46.000000
3.354245 0.506976 0.192462 33.000000
3.354797 0.496536 0.192416 59.000000
3.357293 0.486385 0.192462 53.000000
3.360748 0.476364 0.192555 53.000000
3.363183 0.466188 0.192601 57.000000
3.363607 0.455734 0.192555 36.000000
3.365980 0.445543 0.192601 52.000000
3.368322 0.435343 0.192647 43.000000
3.370632 0.425132 0.192694 40.000000
3.369938 0.414545 0.192601 58.000000
3.369210 0.403966 0.192509 64.000000
3.376387 0.394324 0.192786 35.000000
3.376588 0.383851 0.192740 55.000000
3.381721 0.373930 0.192925 53.000000
3.387818 0.364089 0.193156 43.000000
3.387926 0.353590 0.193110 59.000000
3.391976 0.343497 0.193248 50.000000
3.390032 0.332795 0.193110 47.000000
3.387059 0.322013 0.192925 42.000000
3.385047 0.311345 0.192786 31.000000
3.397926 0.302024 0.193341 20.000000
3.205045 1.113793 0.150576 37.000000
3.206556 1.103305 0.150508 43.000000
3.213711 1.094750 0.150643 37.000000
3.214213 1.083928 0.150542 39.000000
3.215627 1.073429 0.150474 59.000000
3.219854 1.063872 0.150508 50.000000
3.225003 1.054610 0.150576 44.000000
3.227272 1.044403 0.150542 63.000000
3.229510 1.034192 0.150508 51.000000
3.230762 1.023676 0.150440 56.000000
3.231026 1.012863 0.150339 50.000000
3.234118 1.002945 0.150339 82.000000
3.235269 0.992432 0.150271 56.000000
3.236386 0.981922 0.150203 70.000000
3.243212 0.973137 0.150339 64.000000
3.246182 0.963182 0.150339 62.000000
3.247204 0.952656 0.150271 71.000000
3.252991 0.943524 0.150372 58.000000
3.256831 0.933815 0.150406 57.000000
3.259681 0.923819 0.150406 67.000000
3.264424 0.914353 0.150474 91.000000
3.264324 0.903534 0.150372 99.000000
3.274793 0.895623 0.150643 149.000000
3.275596 0.885051 0.150576 144.000000
3.275399 0.874224 0.150474 211.000000
3.280965 0.864935 0.150576 257.000000
3.278767 0.853607 0.150406 227.000000
3.279434 0.843046 0.150339 225.000000
3.282006 0.832981 0.150339 216.000000
3.284546 0.822908 0.150339 230.000000
3.287055 0.812828 0.150339 206.000000
3.287591 0.802266 0.150271 162.000000
3.292952 0.792877 0.150372 173.000000
3.297314 0.783233 0.150440 159.000000
3.297755 0.772657 0.150372 220.000000
3.299136 0.762311 0.150339 225.000000
3.300485 0.751964 0.150305 260.000000
3.301801 0.741616 0.150271 286.000000
3.306013 0.731914 0.150339 260.000000
3.309219 0.721981 0.150372 230.000000
3.310441 0.711615 0.150339 197.000000
3.309676 0.700835 0.150237 138.000000
3.312789 0.690882 0.150271 136.000000
3.316851 0.681117 0.150339 104.000000
3.320884 0.671333 0.150406 104.000000
3.326849 0.661922 0.150542 115.000000
3.326902 0.651328 0.150474 101.000000
3.330848 0.641496 0.150542 105.000000
3.331818 0.631088 0.150508 74.000000
3.333739 0.620863 0.150508 72.000000
3.336611 0.610812 0.150542 62.000000
3.338469 0.600573 0.150542 56.000000
3.343249 0.590849 0.150643 47.000000
3.342092 0.580077 0.150542 42.000000
3.341885 0.569486 0.150474 54.000000
3.343616 0.559230 0.150474 66.000000
3.344330 0.548808 0.150440 45.000000
3.345011 0.538386 0.150406 58.000000
3.348622 0.528433 0.150474 60.000000
3.347264 0.517699 0.150372 44.000000
3.353777 0.508175 0.150542 44.000000
3.356309 0.498030 0.150576 70.000000
3.357821 0.487731 0.150576 59.000000
3.360291 0.477567 0.150609 49.000000
3.361741 0.467256 0.150609 51.000000
3.363158 0.456940 0.150609 62.000000
3.366526 0.446883 0.150677 59.000000
3.369863 0.436809 0.150745 49.000000
3.375154 0.426969 0.150880 43.000000
3.377440 0.416735 0.150914 51.000000
3.379695 0.406490 0.150948 49.000000
3.383904 0.396468 0.151050 52.000000
3.387090 0.386311 0.151117 64.000000
3.387266 0.375808 0.151083 45.000000
3.389397 0.365521 0.151117 62.000000
3.393484 0.355433 0.151219 53.000000
3.398536 0.345424 0.151354 50.000000
3.398585 0.334898 0.151320 40.000000
3.406561 0.325133 0.151557 63.000000
3.398586 0.313854 0.151253 32.000000
3.420438 0.305290 0.151964 22.000000
3.192896 1.109485 0.109004 45.000000
3.201011 1.101312 0.109112 27.000000
3.209106 1.093100 0.109221 38.000000
3.215286 1.084208 0.109285 42.000000
3.216701 1.073705 0.109242 50.000000
3.219980 1.063832 0.109242 53.000000
3.225129 1.054570 0.109285 43.000000
3.224545 1.043438 0.109199 45.000000
3.225827 1.032930 0.109156 46.000000
3.222310 1.020912 0.109004 76.000000
3.226380 1.011321 0.109026 63.000000
3.228513 1.001121 0.109004 61.000000
3.232525 0.991505 0.109026 50.000000
3.235552 0.981583 0.109026 53.000000
3.241421 0.972515 0.109091 65.000000
3.247264 0.963420 0.109156 61.000000
3.249245 0.953171 0.109134 48.000000
3.253114 0.943477 0.109156 69.000000
3.260798 0.934871 0.109264 73.000000
3.262689 0.924590 0.109242 82.000000
3.262623 0.913766 0.109177 96.000000
3.258667 0.901883 0.109026 133.000000
3.261418 0.891881 0.109026 142.000000
3.264139 0.881871 0.109026 127.000000
3.267795 0.872111 0.109047 140.000000
3.272389 0.862592 0.109091 115.000000
3.276955 0.853053 0.109134 147.000000
3.280524 0.843244 0.109156 150.000000
3.275344 0.831206 0.108982 229.000000
3.266243 0.818234 0.108723 337.000000
3.299792 0.815899 0.109415 511.000000
3.282856 0.801025 0.108982 745.000000
3.296961 0.793762 0.109242 420.000000
3.311052 0.786420 0.109502 523.000000
3.301769 0.773517 0.109242 308.000000
3.306075 0.763835 0.109285 183.000000
3.302555 0.752354 0.109156 144.000000
3.301921 0.741560 0.109091 151.000000
3.294420 0.729262 0.108874 108.000000
3.295665 0.718938 0.108853 121.000000
3.298832 0.709034 0.108874 109.000000
3.301970 0.699117 0.108896 105.000000
3.307036 0.689597 0.108961 113.000000
3.311094 0.679851 0.109004 93.000000
3.312184 0.669491 0.108982 62.000000
3.316184 0.659717 0.109026 74.000000
3.317211 0.649348 0.109004 76.000000
3.318206 0.638978 0.108982 62.000000
3.322115 0.629168 0.109026 53.000000
3.328944 0.619889 0.109134 39.000000
3.331813 0.609854 0.109156 56.000000
3.337604 0.600338 0.109242 46.000000
3.344353 0.590968 0.109350 50.000000
3.347135 0.580876 0.109372 52.000000
3.346931 0.570268 0.109329 46.000000
3.347678 0.559831 0.109307 56.000000
3.345434 0.548909 0.109221 55.000000
3.344141 0.538166 0.109156 52.000000
3.342814 0.527435 0.109091 48.000000
3.343429 0.517024 0.109069 47.000000
3.345987 0.506914 0.109091 48.000000
3.350493 0.497087 0.109156 57.000000
3.352003 0.486806 0.109156 57.000000
3.355460 0.476802 0.109199 50.000000
3.357897 0.466643 0.109221 66.000000
3.359313 0.456339 0.109221 41.000000
3.360697 0.446031 0.109221 47.000000
3.366015 0.436233 0.109307 42.000000
3.369322 0.426156 0.109350 44.000000
3.369621 0.415694 0.109329 42.000000
3.374851 0.405833 0.109415 34.000000
3.379059 0.395828 0.109480 50.000000
3.383237 0.385800 0.109545 43.000000
3.384405 0.375418 0.109545 37.000000
3.385540 0.365033 0.109545 36.000000
3.390622 0.355063 0.109632 45.000000
3.396668 0.345166 0.109740 47.000000
3.399701 0.334940 0.109783 29.000000
3.398722 0.324318 0.109740 43.000000
3.402688 0.314166 0.109805 37.000000
3.403636 0.303725 0.109805 26.000000
3.208821 1.114480 0.067456 46.000000
3.212224 1.104630 0.067456 46.000000
3.216545 1.095092 0.067466 46.000000
3.217047 1.084261 0.067438 47.000000
3.219409 1.074070 0.067429 45.000000
3.222689 1.064188 0.067429 63.000000
3.225939 1.054295 0.067429 43.000000
3.231061 1.045009 0.067447 34.000000
3.229490 1.033568 0.067401 49.000000
3.230739 1.023051 0.067382 33.000000
3.231954 1.012537 0.067364 61.000000
3.236001 1.002913 0.067373 63.000000
3.238106 0.992687 0.067364 60.000000
3.242094 0.983038 0.067373 44.000000
3.245094 0.973087 0.067373 49.000000
3.249982 0.963695 0.067392 44.000000
3.251004 0.953157 0.067373 61.000000
3.251031 0.942344 0.067345 35.000000
3.250062 0.931264 0.067308 32.000000
3.253866 0.921561 0.067318 48.000000
3.256678 0.911574 0.067318 49.000000
3.257531 0.901045 0.067299 36.000000
3.259316 0.890783 0.067290 32.000000
3.266860 0.882083 0.067336 39.000000
3.268585 0.871798 0.067327 54.000000
3.272212 0.862021 0.067336 41.000000
3.278712 0.852984 0.067373 60.000000
3.277439 0.841927 0.067336 47.000000
3.281945 0.832359 0.067355 58.000000
3.285454 0.822529 0.067364 38.000000
3.286020 0.811966 0.067345 52.000000
3.289467 0.802118 0.067355 50.000000
3.291913 0.792022 0.067355 51.000000
3.291408 0.781226 0.067327 33.000000
3.292816 0.770897 0.067318 50.000000
3.300037 0.761915 0.067364 43.000000
3.304309 0.752231 0.067382 40.000000
3.311480 0.743184 0.067429 50.000000
3.316674 0.733669 0.067456 46.000000
3.321840 0.724129 0.067484 51.000000
3.327956 0.714774 0.067521 45.000000
3.332090 0.704974 0.067540 54.000000
3.331301 0.694136 0.067512 54.000000
3.333415 0.683913 0.067512 58.000000
3.331576 0.672891 0.067475 57.000000
3.331664 0.662277 0.067456 40.000000
3.333680 0.652053 0.067456 44.000000
3.337629 0.642200 0.067475 37.000000
3.340566 0.632143 0.067484 40.000000
3.346422 0.622622 0.067521 45.000000
3.350283 0.612712 0.067540 42.000000
3.360021 0.603845 0.067614 45.000000
3.362843 0.593708 0.067623 44.000000
3.364648 0.583388 0.067623 47.000000
3.363465 0.572559 0.067595 42.000000
3.361260 0.561579 0.067558 56.000000
3.360994 0.550941 0.067540 53.000000
3.356745 0.539675 0.067484 42.000000
3.350482 0.528130 0.067410 43.000000
3.354063 0.518153 0.067429 42.000000
3.350693 0.507113 0.067382 41.000000
3.359158 0.497856 0.067447 52.000000
3.356711 0.486974 0.067410 42.000000
3.360169 0.476954 0.067429 42.000000
3.363598 0.466918 0.067447 48.000000
3.371951 0.457537 0.067512 55.000000
3.373338 0.447190 0.067512 46.000000
3.380645 0.437608 0.067567 50.000000
3.378995 0.426859 0.067540 43.000000
3.381281 0.416612 0.067549 47.000000
3.383536 0.406356 0.067558 41.000000
3.386753 0.396205 0.067577 40.000000
3.394908 0.386604 0.067641 55.000000
3.393096 0.375857 0.067614 44.000000
3.400199 0.366087 0.067669 56.000000
3.399317 0.355446 0.067651 48.000000
3.400391 0.345015 0.067651 40.000000
3.402429 0.334679 0.067660 52.000000
3.388508 0.322818 0.067521 36.000000
3.391474 0.312604 0.067540 47.000000
3.372496 0.300426 0.067355 22.000000
3.470114 0.892047 0.024351 27.000000
3.477680 0.882628 0.024334 33.000000
3.501710 0.877308 0.024261 48.000000
3.513122 0.868724 0.024231 44.000000
3.506056 0.855568 0.024265 50.000000
3.485333 0.839182 0.024344 46.000000
3.478163 0.826171 0.024377 41.000000
3.479708 0.815268 0.024381 55.000000
3.462708 0.800080 0.024447 42.000000
3.455397 0.787228 0.024480 55.000000
3.456820 0.776404 0.024483 40.000000
3.463091 0.766661 0.024470 40.000000
3.468357 0.756673 0.024460 53.000000
3.470662 0.746029 0.024460 63.000000
3.480761 0.737037 0.024434 52.000000
3.480069 0.725741 0.024444 48.000000
3.483259 0.715263 0.024440 45.000000
3.480536 0.703580 0.024457 46.000000
3.493466 0.695049 0.024420 44.000000
3.497545 0.684713 0.024414 56.000000
3.492756 0.672653 0.024437 33.000000
3.507575 0.664358 0.024394 48.000000
3.499766 0.651760 0.024427 33.000000
3.521421 0.644627 0.024361 35.000000
3.526335 0.634353 0.024351 29.000000
3.534172 0.624577 0.024331 37.000000
3.549865 0.616130 0.024284 30.000000
3.563567 0.607256 0.024245 45.000000
3.563441 0.595990 0.024251 45.000000
3.549465 0.582458 0.024304 31.000000
3.492988 0.562172 0.024500 20.000000
3.531430 0.896908 -0.020809 42.000000
3.538044 0.887042 -0.020872 39.000000
3.531043 0.873783 -0.020715 49.000000
3.529821 0.861997 -0.020652 59.000000
3.528561 0.850227 -0.020589 53.000000
3.525316 0.838011 -0.020495 45.000000
3.519109 0.825138 -0.020354 32.000000
3.518701 0.813662 -0.020307 44.000000
3.513382 0.801086 -0.020181 41.000000
3.511921 0.789426 -0.020118 55.000000
3.508469 0.777351 -0.020024 36.000000
3.507907 0.765944 -0.019977 38.000000
3.510240 0.755178 -0.019977 57.000000
3.509606 0.743784 -0.019930 62.000000
3.508935 0.732401 -0.019882 39.000000
3.511166 0.721632 -0.019882 54.000000
3.508463 0.709866 -0.019804 56.000000
3.518469 0.700660 -0.019930 54.000000
3.518639 0.689478 -0.019898 53.000000
3.524666 0.679436 -0.019961 49.000000
3.537540 0.670667 -0.020134 49.000000
3.546461 0.661092 -0.020244 57.000000
3.558308 0.652010 -0.020401 48.000000
3.572101 0.643215 -0.020589 26.000000
3.580950 0.633472 -0.020699 41.000000
3.593712 0.624364 -0.020872 34.000000
3.608425 0.615520 -0.021076 39.000000
3.618185 0.605767 -0.021202 50.000000
3.636800 0.597417 -0.021469 34.000000
3.636642 0.585939 -0.021437 25.000000
3.650274 0.576650 -0.021626 15.000000
3.538598 0.921260 -0.064881 16.000000
3.536567 0.909153 -0.064742 24.000000
3.532558 0.896575 -0.064548 29.000000
3.529474 0.884274 -0.064381 37.000000
3.525378 0.871759 -0.064187 44.000000
3.525123 0.860228 -0.064104 32.000000
3.519972 0.847534 -0.063882 45.000000
3.514776 0.834881 -0.063660 36.000000
3.508562 0.822038 -0.063410 55.000000
3.505224 0.809918 -0.063244 56.000000
3.502819 0.798049 -0.063105 50.000000
3.497449 0.785543 -0.062883 62.000000
3.494963 0.773728 -0.062744 54.000000
3.496344 0.762788 -0.062716 46.000000
3.500622 0.752479 -0.062772 59.000000
3.503892 0.741943 -0.062800 56.000000
3.503217 0.730577 -0.062716 35.000000
3.505441 0.719825 -0.062716 50.000000
3.509593 0.709464 -0.062772 51.000000
3.509792 0.698303 -0.062716 61.000000
3.510937 0.687339 -0.062689 51.000000
3.515974 0.677133 -0.062772 40.000000
3.516071 0.665970 -0.062716 44.000000
3.526941 0.656830 -0.062966 42.000000
3.542705 0.648531 -0.063354 45.000000
3.554515 0.639432 -0.063632 35.000000
3.573194 0.631486 -0.064104 38.000000
3.588902 0.622919 -0.064492 35.000000
3.601635 0.613756 -0.064797 33.000000
3.622232 0.605842 -0.065325 41.000000
3.642815 0.597808 -0.065852 16.000000
3.653514 0.588062 -0.066101 19.000000
3.655301 0.576850 -0.066101 27.000000
3.663968 0.566705 -0.066296 14.000000
3.527069 0.895801 -0.109978 31.000000
3.532708 0.885705 -0.110099 21.000000
3.529589 0.873423 -0.109857 24.000000
3.528369 0.861643 -0.109696 36.000000
3.526139 0.849644 -0.109494 40.000000
3.515120 0.835588 -0.108930 54.000000
3.508911 0.822748 -0.108567 44.000000
3.505577 0.810629 -0.108325 44.000000
3.500254 0.798094 -0.108003 49.000000
3.493912 0.785380 -0.107640 45.000000
3.489477 0.773145 -0.107358 35.000000
3.491832 0.762436 -0.107358 55.000000
3.494155 0.751720 -0.107358 37.000000
3.496445 0.740996 -0.107358 42.000000
3.495767 0.729654 -0.107237 48.000000
3.500925 0.719529 -0.107358 47.000000
3.508993 0.709973 -0.107600 40.000000
3.513114 0.699594 -0.107681 51.000000
3.515244 0.688813 -0.107681 27.000000
3.522247 0.678970 -0.107882 42.000000
3.528240 0.668905 -0.108043 44.000000
3.533222 0.658626 -0.108164 44.000000
3.536209 0.647963 -0.108205 41.000000
3.540147 0.637465 -0.108285 58.000000
3.550941 0.628167 -0.108648 48.000000
3.559743 0.618466 -0.108930 34.000000
3.566549 0.608382 -0.109132 51.000000
3.581210 0.599580 -0.109656 43.000000
3.585004 0.588914 -0.109736 45.000000
3.626254 0.584266 -0.111348 17.000000
3.516969 0.902805 -0.153286 23.000000
3.519723 0.892011 -0.153286 19.000000
3.524380 0.881694 -0.153391 43.000000
3.519313 0.868960 -0.152972 46.000000
3.519052 0.857448 -0.152815 37.000000
3.511957 0.844310 -0.152292 57.000000
3.498985 0.829840 -0.151455 69.000000
3.497626 0.818190 -0.151245 54.000000
3.496228 0.806556 -0.151036 49.000000
3.490896 0.794052 -0.150617 49.000000
3.493315 0.783338 -0.150617 55.000000
3.489852 0.771322 -0.150303 52.000000
3.490251 0.760186 -0.150198 46.000000
3.495496 0.750104 -0.150355 47.000000
3.497781 0.739377 -0.150355 44.000000
3.495144 0.727623 -0.150094 48.000000
3.498338 0.717097 -0.150146 42.000000
3.498564 0.705966 -0.150041 43.000000
3.499734 0.695034 -0.149989 57.000000
3.497930 0.683526 -0.149780 78.000000
3.505894 0.673925 -0.150094 52.000000
3.516776 0.664838 -0.150565 34.000000
3.525671 0.655325 -0.150931 37.000000
3.533559 0.645584 -0.151245 60.000000
3.543386 0.636155 -0.151664 47.000000
3.559088 0.627713 -0.152397 38.000000
3.573789 0.619011 -0.153077 54.000000
3.585515 0.609721 -0.153600 50.000000
3.595249 0.600036 -0.154019 32.000000
3.615796 0.592075 -0.155013 27.000000
3.622525 0.581772 -0.155275 15.000000
3.628239 0.571278 -0.155484 9.000000
3.516038 0.916002 -0.198394 16.000000
3.513999 0.903968 -0.198070 30.000000
3.508051 0.890973 -0.197488 35.000000
3.507864 0.879479 -0.197294 46.000000
3.502796 0.866796 -0.196776 44.000000
3.496714 0.853916 -0.196194 50.000000
3.494467 0.842016 -0.195870 43.000000
3.487324 0.828984 -0.195223 41.000000
3.485965 0.817370 -0.194964 62.000000
3.488456 0.806672 -0.194964 52.000000
3.484104 0.794413 -0.194511 45.000000
3.487498 0.783939 -0.194576 42.000000
3.486964 0.772589 -0.194382 39.000000
3.491268 0.762313 -0.194511 54.000000
3.497493 0.752437 -0.194770 51.000000
3.491975 0.740049 -0.194252 80.000000
3.501067 0.730759 -0.194705 45.000000
3.507202 0.720818 -0.194964 38.000000
3.509397 0.710055 -0.194964 36.000000
3.511559 0.699284 -0.194964 37.000000
3.510750 0.687933 -0.194770 44.000000
3.512844 0.677158 -0.194770 40.000000
3.521768 0.667678 -0.195223 64.000000
3.530667 0.658150 -0.195676 54.000000
3.536596 0.648034 -0.195935 53.000000
3.546424 0.638595 -0.196452 41.000000
3.555246 0.628928 -0.196905 38.000000
3.563058 0.619042 -0.197294 41.000000
3.570842 0.609113 -0.197682 37.000000
3.569742 0.597661 -0.197488 45.000000
3.571559 0.586707 -0.197488 28.000000
3.573342 0.575747 -0.197488 31.000000
3.569177 0.563847 -0.197099 22.000000
3.506776 0.911663 -0.240775 16.000000
3.502797 0.899162 -0.240239 20.000000
3.487177 0.883752 -0.238785 36.000000
3.487937 0.872565 -0.238631 27.000000
3.470271 0.856834 -0.237024 46.000000
3.468041 0.845001 -0.236641 50.000000
3.468678 0.833891 -0.236488 51.000000
3.473160 0.823706 -0.236641 52.000000
3.476642 0.813274 -0.236718 49.000000
3.485921 0.804175 -0.237254 47.000000
3.488372 0.793477 -0.237254 40.000000
3.487871 0.782116 -0.237024 49.000000
3.490254 0.771411 -0.237024 39.000000
3.484811 0.759000 -0.236412 44.000000
3.480300 0.746838 -0.235876 44.000000
3.482574 0.736157 -0.235876 48.000000
3.478960 0.724248 -0.235417 47.000000
3.477259 0.712769 -0.235110 59.000000
3.483339 0.702888 -0.235417 42.000000
3.484500 0.692003 -0.235340 34.000000
3.488564 0.681693 -0.235493 40.000000
3.497493 0.672307 -0.236029 33.000000
3.480926 0.658048 -0.234575 112.000000
3.514295 0.653207 -0.237024 43.000000
3.525110 0.644038 -0.237713 73.000000
3.525106 0.632867 -0.237560 44.000000
3.526049 0.621875 -0.237483 41.000000
3.532853 0.611907 -0.237866 38.000000
3.538645 0.601735 -0.238172 39.000000
3.549325 0.592356 -0.238861 31.000000
3.551126 0.581464 -0.238861 38.000000
3.583409 0.575478 -0.241234 18.000000
3.599931 0.566812 -0.242382 15.000000
3.615448 0.557898 -0.243454 8.000000
3.499269 0.910337 -0.284473 24.000000
3.498186 0.898606 -0.284118 24.000000
3.488375 0.884688 -0.282965 30.000000
3.480444 0.871322 -0.281989 39.000000
3.473431 0.858252 -0.281102 49.000000
3.472176 0.846648 -0.280747 50.000000
3.471852 0.835293 -0.280481 44.000000
3.477306 0.825327 -0.280747 42.000000
3.480792 0.814882 -0.280835 37.000000
3.486187 0.804871 -0.281102 44.000000
3.490582 0.794614 -0.281279 34.000000
3.495919 0.784555 -0.281545 43.000000
3.503173 0.774901 -0.281989 47.000000
3.510400 0.765210 -0.282432 50.000000
3.510783 0.754019 -0.282255 40.000000
3.510156 0.742626 -0.281989 82.000000
3.527045 0.734900 -0.283320 64.000000
3.522453 0.722675 -0.282699 24.000000
3.512937 0.709500 -0.281634 38.000000
3.508259 0.697360 -0.281013 37.000000
3.508426 0.686211 -0.280835 75.000000
3.522253 0.677702 -0.281900 90.000000
3.503763 0.663005 -0.280037 35.000000
3.503822 0.651889 -0.279859 41.000000
3.505805 0.641136 -0.279859 37.000000
3.510697 0.630906 -0.280126 44.000000
3.517520 0.620997 -0.280569 49.000000
3.527260 0.611563 -0.281279 23.000000
3.535012 0.601741 -0.281811 41.000000
3.545683 0.592369 -0.282610 43.000000
3.566160 0.584548 -0.284295 34.000000
3.579738 0.575500 -0.285360 26.000000
3.615924 0.569939 -0.288465 16.000000
3.486388 0.907002 -0.328774 28.000000
3.483373 0.894815 -0.328166 24.000000
3.482245 0.883144 -0.327761 40.000000
3.479148 0.871005 -0.327154 36.000000
3.480839 0.860088 -0.327053 37.000000
3.474762 0.847281 -0.326142 63.000000
3.471542 0.835219 -0.325534 43.000000
3.476992 0.825254 -0.325838 43.000000
3.482414 0.815265 -0.326142 46.000000
3.483929 0.804353 -0.326040 51.000000
3.490260 0.794545 -0.326445 30.000000
3.497535 0.784924 -0.326951 42.000000
3.506726 0.775697 -0.327660 37.000000
3.526584 0.768754 -0.329482 26.000000
3.526981 0.757513 -0.329280 41.000000
3.532208 0.747307 -0.329583 30.000000
3.542275 0.738093 -0.330393 33.000000
3.574732 0.733430 -0.333531 157.000000
3.547713 0.716541 -0.330494 58.000000
3.536234 0.702934 -0.329077 47.000000
3.532516 0.690934 -0.328470 26.000000
3.523874 0.678022 -0.327356 37.000000
3.521050 0.666281 -0.326850 39.000000
3.518187 0.654564 -0.326344 47.000000
3.514308 0.642691 -0.325737 47.000000
3.519200 0.632436 -0.326040 43.000000
3.526022 0.622502 -0.326546 35.000000
3.530856 0.612192 -0.326850 48.000000
3.539582 0.602528 -0.327559 44.000000
3.556132 0.594130 -0.329077 28.000000
3.563828 0.584184 -0.329685 39.000000
3.577391 0.575147 -0.330899 22.000000
3.592896 0.566342 -0.332317 16.000000
3.477863 0.894032 -0.370523 25.000000
3.484442 0.884335 -0.370975 34.000000
3.486175 0.873400 -0.370862 34.000000
3.489803 0.862939 -0.370975 34.000000
3.493399 0.852463 -0.371088 39.000000
3.493100 0.841044 -0.370749 64.000000
3.494697 0.830094 -0.370636 47.000000
3.497227 0.819369 -0.370636 50.000000
3.499724 0.808636 -0.370636 42.000000
3.503157 0.798115 -0.370749 35.000000
3.510437 0.788452 -0.371314 38.000000
3.522541 0.779825 -0.372445 39.000000
3.539478 0.772190 -0.374140 51.000000
3.545716 0.762162 -0.374592 42.000000
3.556786 0.753132 -0.375610 42.000000
3.560053 0.742419 -0.375723 44.000000
3.602220 0.739683 -0.380357 167.000000
3.573307 0.722332 -0.376740 71.000000
3.550169 0.706327 -0.373801 42.000000
3.542568 0.693525 -0.372671 42.000000
3.541752 0.682089 -0.372332 35.000000
3.539922 0.670481 -0.371880 45.000000
3.539032 0.659072 -0.371540 44.000000
3.537129 0.647496 -0.371088 42.000000
3.540076 0.636817 -0.371201 53.000000
3.543970 0.626299 -0.371427 50.000000
3.546854 0.615593 -0.371540 44.000000
3.551664 0.605209 -0.371880 42.000000
3.562324 0.595784 -0.372897 38.000000
3.568057 0.585495 -0.373349 38.000000
3.572780 0.575019 -0.373688 28.000000
3.601027 0.568234 -0.376740 11.000000
3.485323 0.895317 -0.416423 19.000000
3.488054 0.884620 -0.416423 14.000000
3.493638 0.874638 -0.416799 23.000000
3.497268 0.864154 -0.416924 41.000000
3.502794 0.854126 -0.417300 48.000000
3.507327 0.843841 -0.417551 36.000000
3.509900 0.833076 -0.417551 40.000000
3.508575 0.821398 -0.417049 38.000000
3.513979 0.811301 -0.417425 36.000000
3.517419 0.800737 -0.417551 40.000000
3.525666 0.791247 -0.418303 35.000000
3.530983 0.781071 -0.418679 27.000000
3.544994 0.772773 -0.420183 36.000000
3.554138 0.763354 -0.421060 32.000000
3.575874 0.756560 -0.423567 57.000000
3.583035 0.746600 -0.424193 47.000000
3.577534 0.734006 -0.423191 147.000000
3.576852 0.722436 -0.422815 28.000000
3.567375 0.709134 -0.421311 23.000000
3.554930 0.695325 -0.419431 28.000000
3.554124 0.683852 -0.419055 21.000000
3.546458 0.671097 -0.417801 30.000000
3.541672 0.658941 -0.416924 41.000000
3.540750 0.647536 -0.416548 42.000000
3.538814 0.635967 -0.416047 34.000000
3.545634 0.625971 -0.416673 50.000000
3.549492 0.615430 -0.416924 50.000000
