ply
format ascii 1.0
element vertex 1282
property float x
property float y
property float z
property float intensity
end_header
3.293540 0.750899 0.521892 40.000000
3.300657 0.741878 0.522607 49.000000
3.303883 0.731962 0.522750 56.000000
3.305146 0.721611 0.522607 49.000000
3.307345 0.711468 0.522607 46.000000
3.303703 0.700085 0.521749 25.000000
3.310679 0.690958 0.522464 41.000000
3.311814 0.680599 0.522321 37.000000
3.311947 0.670042 0.522035 39.000000
3.314957 0.660071 0.522178 58.000000
3.315995 0.649707 0.522035 32.000000
3.317001 0.639343 0.521892 36.000000
3.321864 0.629718 0.522321 45.000000
3.331564 0.620977 0.523465 51.000000
3.339294 0.611825 0.524322 45.000000
3.342129 0.601753 0.524465 41.000000
3.345909 0.591843 0.524751 49.000000
3.353559 0.582593 0.525609 40.000000
3.353379 0.571968 0.525323 52.000000
3.355119 0.561678 0.525323 40.000000
3.355850 0.551221 0.525180 41.000000
3.357525 0.540923 0.525180 35.000000
3.362101 0.531084 0.525609 44.000000
3.365671 0.521070 0.525895 52.000000
3.365297 0.510444 0.525609 45.000000
3.377615 0.501720 0.527182 43.000000
3.380118 0.491498 0.527325 49.000000
3.383569 0.481406 0.527611 47.000000
3.388952 0.471570 0.528183 49.000000
3.393324 0.461571 0.528612 45.000000
3.399629 0.451812 0.529326 35.000000
3.403944 0.441763 0.529755 30.000000
3.397429 0.430321 0.528612 37.000000
3.386946 0.418435 0.526896 21.000000
3.404918 0.410060 0.529326 32.000000
3.382569 0.396836 0.525895 17.000000
3.188844 1.119763 0.480842 34.000000
3.193202 1.110300 0.480973 35.000000
3.195655 1.100176 0.480842 39.000000
3.191508 1.087809 0.479794 28.000000
3.199528 1.079596 0.480449 48.000000
3.203765 1.070089 0.480580 56.000000
3.206092 1.059944 0.480449 19.000000
3.203675 1.048254 0.479663 49.000000
3.203103 1.037199 0.479139 48.000000
3.206270 1.027367 0.479139 46.000000
3.208462 1.017226 0.479007 53.000000
3.213459 1.007971 0.479270 46.000000
3.217484 0.998401 0.479401 45.000000
3.223375 0.989398 0.479794 40.000000
3.231138 0.980944 0.480449 36.000000
3.235082 0.971311 0.480580 47.000000
3.235195 0.960535 0.480187 53.000000
3.237176 0.950326 0.480056 60.000000
3.237220 0.939561 0.479663 53.000000
3.239134 0.929352 0.479532 43.000000
3.242924 0.919680 0.479663 53.000000
3.242867 0.908925 0.479270 39.000000
3.242774 0.898178 0.478876 58.000000
3.248383 0.889010 0.479270 62.000000
3.251095 0.879040 0.479270 42.000000
3.255692 0.869573 0.479532 60.000000
3.257386 0.859327 0.479401 50.000000
3.265763 0.850829 0.480187 30.000000
3.264517 0.839818 0.479663 41.000000
3.266118 0.829555 0.479532 35.000000
3.270571 0.820013 0.479794 53.000000
3.274996 0.810451 0.480056 55.000000
3.280356 0.801105 0.480449 48.000000
3.285690 0.791733 0.480842 47.000000
3.288104 0.781649 0.480842 41.000000
3.289521 0.771332 0.480711 50.000000
3.289940 0.760789 0.480449 53.000000
3.289359 0.750032 0.480056 41.000000
3.291644 0.739936 0.480056 60.000000
3.296803 0.730477 0.480449 53.000000
3.304840 0.721628 0.481235 57.000000
3.309946 0.712110 0.481628 61.000000
3.315024 0.702569 0.482022 53.000000
3.319106 0.692800 0.482284 45.000000
3.319273 0.682215 0.482022 41.000000
3.321350 0.672028 0.482022 35.000000
3.320479 0.661255 0.481628 52.000000
3.322493 0.651065 0.481628 67.000000
3.326421 0.641243 0.481890 58.000000
3.329347 0.631220 0.482022 47.000000
3.338090 0.622273 0.482939 59.000000
3.341934 0.612386 0.483201 52.000000
3.344773 0.602306 0.483332 44.000000
3.349534 0.592559 0.483725 59.000000
3.352313 0.582450 0.483856 71.000000
3.352129 0.571829 0.483594 74.000000
3.363646 0.563178 0.484904 38.000000
3.361444 0.552214 0.484380 47.000000
3.366059 0.542371 0.484773 48.000000
3.371624 0.532660 0.485298 62.000000
3.372262 0.522162 0.485167 62.000000
3.370908 0.511368 0.484773 53.000000
3.375403 0.501460 0.485167 49.000000
3.376925 0.491103 0.485167 55.000000
3.381361 0.481159 0.485560 60.000000
3.387731 0.471465 0.486215 63.000000
3.393091 0.461604 0.486739 53.000000
3.413163 0.453671 0.489229 31.000000
3.412573 0.442943 0.488967 47.000000
3.410965 0.432098 0.488574 44.000000
3.411290 0.421509 0.488443 35.000000
3.415520 0.411397 0.488836 54.000000
3.418736 0.401147 0.489098 42.000000
3.421921 0.390882 0.489360 43.000000
3.418177 0.379835 0.488705 33.000000
3.433125 0.370835 0.490539 24.000000
3.184927 1.086089 0.437333 41.000000
3.181659 1.074088 0.436501 40.000000
3.187764 1.065267 0.436858 49.000000
3.187247 1.054233 0.436382 39.000000
3.188580 1.043831 0.436144 45.000000
3.190823 1.033738 0.436025 45.000000
3.194924 1.024247 0.436144 52.000000
3.199944 1.015041 0.436382 46.000000
3.207779 1.006707 0.436977 50.000000
3.209905 0.996567 0.436858 43.000000
3.217692 0.988173 0.437452 58.000000
3.218809 0.977719 0.437214 48.000000
3.218941 0.966981 0.436858 34.000000
3.221893 0.957101 0.436858 52.000000
3.223861 0.946932 0.436739 52.000000
3.226751 0.937037 0.436739 52.000000
3.230565 0.927407 0.436858 52.000000
3.233395 0.917492 0.436858 45.000000
3.238106 0.908104 0.437095 32.000000
3.240877 0.898165 0.437095 45.000000
3.244575 0.888481 0.437214 51.000000
3.246327 0.878263 0.437095 53.000000
3.244211 0.867016 0.436501 64.000000
3.246855 0.857059 0.436501 46.000000
3.250430 0.847344 0.436620 63.000000
3.253976 0.837616 0.436739 55.000000
3.260380 0.828608 0.437214 46.000000
3.264832 0.819086 0.437452 55.000000
3.269257 0.809543 0.437690 54.000000
3.278477 0.801162 0.438523 45.000000
3.281884 0.791333 0.438641 48.000000
3.286228 0.781721 0.438879 47.000000
3.289578 0.771862 0.438998 48.000000
3.291930 0.761766 0.438998 45.000000
3.293284 0.751442 0.438879 51.000000
3.295574 0.741335 0.438879 55.000000
3.295894 0.730790 0.438641 54.000000
3.299091 0.720887 0.438760 77.000000
3.304199 0.711391 0.439117 41.000000
3.308308 0.701663 0.439355 48.000000
3.313360 0.692120 0.439712 47.000000
3.315468 0.681951 0.439712 45.000000
3.319491 0.672171 0.439950 49.000000
3.323485 0.662373 0.440187 49.000000
3.327450 0.652556 0.440425 50.000000
3.326512 0.641779 0.440069 42.000000
3.327490 0.631385 0.439950 37.000000
3.329411 0.621174 0.439950 45.000000
3.332278 0.611136 0.440069 50.000000
3.335114 0.601086 0.440187 36.000000
3.335965 0.590678 0.440069 50.000000
3.338739 0.580611 0.440187 54.000000
3.348335 0.571705 0.441139 36.000000
3.350073 0.561429 0.441139 46.000000
3.352759 0.551310 0.441258 40.000000
3.356395 0.541338 0.441496 60.000000
3.360001 0.531349 0.441733 53.000000
3.365541 0.521648 0.442209 50.000000
3.367125 0.511321 0.442209 54.000000
3.369660 0.501134 0.442328 49.000000
3.373146 0.491081 0.442566 50.000000
3.375620 0.480870 0.442685 44.000000
3.378063 0.470649 0.442804 50.000000
3.381458 0.460552 0.443042 45.000000
3.384824 0.450438 0.443279 41.000000
3.388159 0.440308 0.443517 45.000000
3.388509 0.429786 0.443398 59.000000
3.391782 0.419633 0.443636 43.000000
3.396996 0.409702 0.444112 38.000000
3.402182 0.399743 0.444588 47.000000
3.400433 0.388964 0.444231 39.000000
3.405557 0.378970 0.444707 43.000000
3.409665 0.368841 0.445063 42.000000
3.414731 0.358795 0.445539 40.000000
3.417791 0.348520 0.445777 48.000000
3.416868 0.337836 0.445539 46.000000
3.419865 0.327542 0.445777 22.000000
3.204334 1.049086 0.396599 42.000000
3.204700 1.038331 0.396279 40.000000
3.207870 1.028494 0.396279 36.000000
3.208167 1.017746 0.395958 40.000000
3.211275 1.007899 0.395958 42.000000
3.210553 0.996863 0.395531 38.000000
3.211695 0.986425 0.395318 44.000000
3.211853 0.975700 0.394997 53.000000
3.214831 0.965842 0.394997 38.000000
3.216826 0.955691 0.394890 47.000000
3.217835 0.945257 0.394677 43.000000
3.220719 0.935381 0.394677 47.000000
3.226441 0.926318 0.394997 66.000000
3.229268 0.916415 0.394997 37.000000
3.233021 0.906772 0.395104 37.000000
3.237705 0.897380 0.395318 55.000000
3.238524 0.886918 0.395104 42.000000
3.245070 0.878016 0.395531 49.000000
3.245827 0.867543 0.395318 71.000000
3.247512 0.857327 0.395211 49.000000
3.248202 0.846858 0.394997 56.000000
3.243082 0.834907 0.394143 26.000000
3.259120 0.828381 0.395638 57.000000
3.261646 0.818378 0.395638 47.000000
3.268002 0.809323 0.396065 46.000000
3.272401 0.799765 0.396279 62.000000
3.276772 0.790188 0.396492 52.000000
3.280149 0.780361 0.396599 50.000000
3.284463 0.770748 0.396813 62.000000
3.286812 0.760668 0.396813 63.000000
3.292039 0.751244 0.397133 38.000000
3.293358 0.740922 0.397026 49.000000
3.294645 0.730600 0.396919 43.000000
3.295900 0.720277 0.396813 36.000000
3.301010 0.710789 0.397133 59.000000
3.303175 0.700658 0.397133 39.000000
3.306282 0.690724 0.397240 49.000000
3.310334 0.680978 0.397453 36.000000
3.311433 0.670622 0.397347 56.000000
3.314450 0.660653 0.397453 39.000000
3.317436 0.650673 0.397560 58.000000
3.315512 0.639739 0.397133 46.000000
3.316482 0.629379 0.397026 47.000000
3.318398 0.619201 0.397026 49.000000
3.319304 0.608838 0.396919 45.000000
3.328006 0.599886 0.397667 43.000000
3.331789 0.590019 0.397880 51.000000
3.336522 0.580305 0.398201 42.000000
3.343187 0.570903 0.398735 59.000000
3.345904 0.560808 0.398842 59.000000
3.349571 0.550862 0.399055 58.000000
3.352226 0.540742 0.399162 53.000000
3.353870 0.530455 0.399162 41.000000
3.358429 0.520619 0.399482 45.000000
3.360010 0.510313 0.399482 56.000000
3.363527 0.500295 0.399696 51.000000
3.368982 0.490546 0.400123 53.000000
3.376377 0.481048 0.400764 42.000000
3.377837 0.470688 0.400764 52.000000
3.380250 0.460456 0.400870 48.000000
3.383618 0.450346 0.401084 43.000000
3.387942 0.440347 0.401404 46.000000
3.390263 0.430076 0.401511 58.000000
3.393541 0.419917 0.401725 58.000000
3.392839 0.409266 0.401511 45.000000
3.399016 0.399434 0.402045 56.000000
3.398250 0.388779 0.401832 61.000000
3.400414 0.378461 0.401938 57.000000
3.402548 0.368134 0.402045 52.000000
3.403661 0.357693 0.402045 50.000000
3.407710 0.347551 0.402365 58.000000
3.412719 0.337486 0.402793 47.000000
3.412748 0.326920 0.402686 42.000000
3.415715 0.316631 0.402899 50.000000
3.417661 0.306239 0.403006 47.000000
3.423537 0.296180 0.403540 31.000000
3.455146 0.288235 0.406850 13.000000
3.206486 1.016506 0.355606 40.000000
3.207690 1.006067 0.355416 41.000000
3.207910 0.995335 0.355131 56.000000
3.210948 0.985489 0.355131 44.000000
3.210146 0.974475 0.354751 35.000000
3.215028 0.965195 0.354941 55.000000
3.216065 0.954760 0.354751 40.000000
3.217069 0.944327 0.354562 46.000000
3.218995 0.934175 0.354467 65.000000
3.222803 0.924570 0.354562 42.000000
3.224667 0.914406 0.354467 54.000000
3.227457 0.904509 0.354467 51.000000
3.230217 0.894603 0.354467 62.000000
3.231986 0.884425 0.354372 41.000000
3.232762 0.873985 0.354182 47.000000
3.237352 0.864578 0.354372 61.000000
3.240952 0.854896 0.354467 42.000000
3.249339 0.846456 0.355036 44.000000
3.255776 0.837477 0.355416 52.000000
3.258330 0.827484 0.355416 64.000000
3.262784 0.817969 0.355606 61.000000
3.271076 0.809392 0.356176 51.000000
3.267742 0.797933 0.355606 51.000000
3.271142 0.788138 0.355701 45.000000
3.272577 0.777868 0.355606 54.000000
3.274948 0.767824 0.355606 55.000000
3.278258 0.757998 0.355701 65.000000
3.284450 0.748823 0.356081 59.000000
3.286732 0.738743 0.356081 60.000000
3.295786 0.730165 0.356746 60.000000
3.298010 0.720051 0.356746 46.000000
3.302150 0.710349 0.356936 49.000000
3.304314 0.700214 0.356936 57.000000
3.305472 0.689870 0.356841 51.000000
3.308548 0.679926 0.356936 65.000000
3.311594 0.669970 0.357031 48.000000
3.315587 0.660197 0.357221 62.000000
3.321504 0.650789 0.357601 56.000000
3.323485 0.640595 0.357601 52.000000
3.328368 0.630953 0.357886 50.000000
3.329310 0.620556 0.357791 44.000000
3.325323 0.609261 0.357221 54.000000
3.329136 0.599409 0.357411 51.000000
3.328019 0.588672 0.357126 57.000000
3.330790 0.578629 0.357221 48.000000
3.331568 0.568240 0.357126 49.000000
3.331332 0.557687 0.356936 50.000000
3.335974 0.547949 0.357221 44.000000
3.337640 0.537712 0.357221 55.000000
3.340257 0.527625 0.357316 49.000000
3.344811 0.517833 0.357601 50.000000
3.348353 0.507868 0.357791 48.000000
3.355803 0.498473 0.358361 56.000000
3.364212 0.489180 0.359025 57.000000
3.368653 0.479278 0.359310 56.000000
3.373065 0.469354 0.359595 51.000000
3.374489 0.459003 0.359595 59.000000
3.374895 0.448517 0.359500 58.000000
3.377242 0.438289 0.359595 61.000000
3.377583 0.427800 0.359500 44.000000
3.376904 0.417191 0.359310 47.000000
3.380145 0.407068 0.359500 56.000000
3.384344 0.397045 0.359785 74.000000
3.386535 0.386773 0.359880 63.000000
3.390674 0.376712 0.360165 51.000000
3.395772 0.366737 0.360545 70.000000
3.400841 0.356734 0.360925 72.000000
3.402910 0.346400 0.361020 51.000000
3.408910 0.336449 0.361495 64.000000
3.412899 0.326274 0.361780 71.000000
3.419831 0.316354 0.362350 81.000000
3.424752 0.306217 0.362730 72.000000
3.425675 0.295708 0.362730 47.000000
3.429542 0.285446 0.363015 59.000000
3.428417 0.274763 0.362825 52.000000
3.428252 0.264167 0.362730 34.000000
3.430039 0.253721 0.362825 36.000000
3.194493 0.970429 0.311119 39.000000
3.202228 0.962057 0.311531 29.000000
3.207075 0.952796 0.311696 38.000000
3.209983 0.942952 0.311696 49.000000
3.214775 0.933655 0.311861 30.000000
3.213793 0.922688 0.311531 36.000000
3.218526 0.913368 0.311696 50.000000
3.223232 0.904028 0.311861 50.000000
3.222149 0.893070 0.311531 41.000000
3.225834 0.883444 0.311614 38.000000
3.231416 0.874324 0.311861 41.000000
3.236009 0.864920 0.312026 44.000000
3.240574 0.855497 0.312191 50.000000
3.247041 0.846556 0.312521 53.000000
3.252519 0.837335 0.312768 56.000000
3.257004 0.827843 0.312933 57.000000
3.262428 0.818574 0.313180 39.000000
3.265892 0.808801 0.313263 63.000000
3.268358 0.798778 0.313263 49.000000
3.272731 0.789214 0.313428 58.000000
3.275137 0.779169 0.313428 51.000000
3.275571 0.768663 0.313263 45.000000
3.278885 0.758834 0.313345 61.000000
3.279254 0.748328 0.313180 51.000000
3.280562 0.738045 0.313098 52.000000
3.284757 0.728409 0.313263 39.000000
3.285029 0.717902 0.313098 44.000000
3.289165 0.708240 0.313263 44.000000
3.295222 0.698972 0.313593 42.000000
3.299302 0.689267 0.313757 50.000000
3.304329 0.679743 0.314005 48.000000
3.306400 0.669603 0.314005 43.000000
3.314302 0.660624 0.314500 40.000000
3.319248 0.651028 0.314747 65.000000
3.323186 0.641219 0.314912 54.000000
3.325138 0.631020 0.314912 49.000000
3.327058 0.620816 0.314912 48.000000
3.328947 0.610606 0.314912 53.000000
3.332767 0.600743 0.315077 51.000000
3.334594 0.590516 0.315077 49.000000
3.340317 0.580965 0.315407 47.000000
3.340119 0.570379 0.315242 62.000000
3.339888 0.559800 0.315077 58.000000
3.343556 0.549874 0.315242 48.000000
3.339324 0.538662 0.314747 45.000000
3.341946 0.528570 0.314829 61.000000
3.344536 0.518467 0.314912 51.000000
3.345126 0.508054 0.314829 51.000000
3.351597 0.498522 0.315242 45.000000
3.359028 0.489098 0.315737 54.000000
3.360513 0.478790 0.315737 58.000000
3.366902 0.469165 0.316149 51.000000
3.369313 0.458968 0.316231 45.000000
3.369717 0.448497 0.316149 45.000000
3.373054 0.438414 0.316314 56.000000
3.374382 0.428063 0.316314 35.000000
3.379636 0.418198 0.316644 52.000000
3.380903 0.407827 0.316644 32.000000
3.386098 0.397918 0.316973 46.000000
3.388293 0.387641 0.317056 63.000000
3.390457 0.377354 0.317138 63.000000
3.392589 0.367057 0.317221 59.000000
3.393699 0.356647 0.317221 52.000000
3.398743 0.346638 0.317551 47.000000
3.402766 0.336503 0.317798 49.000000
3.408743 0.326536 0.318210 46.000000
3.412706 0.316353 0.318458 54.000000
3.419616 0.306414 0.318953 58.000000
3.427490 0.296522 0.319530 60.000000
3.430370 0.286171 0.319695 59.000000
3.431232 0.275645 0.319695 57.000000
3.434049 0.265270 0.319860 42.000000
3.432859 0.254586 0.319695 39.000000
3.427659 0.243630 0.319200 46.000000
3.425407 0.232910 0.318953 44.000000
3.417156 0.221820 0.318210 47.000000
3.420804 0.211520 0.318458 21.000000
3.415468 0.200674 0.317963 12.000000
3.199966 0.927440 0.270958 34.000000
3.197044 0.915968 0.270534 47.000000
3.198879 0.905883 0.270463 39.000000
3.210288 0.898488 0.271099 37.000000
3.208223 0.887303 0.270746 44.000000
3.210930 0.877456 0.270746 45.000000
3.219384 0.869163 0.271170 39.000000
3.222036 0.859282 0.271170 61.000000
3.225621 0.849648 0.271240 60.000000
3.229178 0.839999 0.271311 46.000000
3.236570 0.831330 0.271664 44.000000
3.243940 0.822625 0.272017 40.000000
3.250319 0.813639 0.272300 57.000000
3.253768 0.803903 0.272370 41.000000
3.260095 0.794863 0.272653 65.000000
3.263488 0.785091 0.272723 39.000000
3.266851 0.775306 0.272794 45.000000
3.267272 0.764824 0.272653 49.000000
3.269603 0.754797 0.272653 45.000000
3.272876 0.744984 0.272723 42.000000
3.275146 0.734939 0.272723 64.000000
3.276412 0.724672 0.272653 52.000000
3.280569 0.715042 0.272794 46.000000
3.280797 0.704555 0.272653 74.000000
3.286846 0.695313 0.272935 48.000000
3.291893 0.685837 0.273147 46.000000
3.295936 0.676136 0.273288 49.000000
3.297995 0.666021 0.273288 45.000000
3.300023 0.655900 0.273288 47.000000
3.304956 0.646348 0.273500 54.000000
3.308882 0.636583 0.273642 50.000000
3.305920 0.625500 0.273288 48.000000
3.304881 0.614806 0.273077 39.000000
3.306752 0.604664 0.273077 57.000000
3.312518 0.595223 0.273359 53.000000
3.322187 0.586448 0.273924 38.000000
3.321022 0.575740 0.273712 45.000000
3.323756 0.565717 0.273783 39.000000
3.331379 0.556505 0.274207 34.000000
3.336024 0.546767 0.274419 46.000000
3.337685 0.536530 0.274419 49.000000
3.341286 0.526598 0.274560 44.000000
3.339929 0.515887 0.274348 42.000000
3.347413 0.506535 0.274772 53.000000
3.352898 0.496850 0.275054 62.000000
3.359342 0.487278 0.275407 60.000000
3.359834 0.476829 0.275337 56.000000
3.361281 0.466519 0.275337 59.000000
3.365662 0.456608 0.275549 49.000000
3.367047 0.446280 0.275549 49.000000
3.372357 0.436462 0.275831 48.000000
3.373680 0.426113 0.275831 67.000000
3.371012 0.415272 0.275549 41.000000
3.376231 0.405405 0.275831 36.000000
3.382413 0.395626 0.276184 58.000000
3.384601 0.385360 0.276255 45.000000
3.388742 0.375305 0.276467 54.000000
3.392853 0.365228 0.276679 55.000000
3.393957 0.354817 0.276679 49.000000
3.398999 0.344807 0.276961 58.000000
3.404012 0.334769 0.277244 51.000000
3.403037 0.324134 0.277102 62.000000
3.401035 0.313417 0.276890 36.000000
3.404962 0.303248 0.277102 35.000000
3.411839 0.293315 0.277526 61.000000
3.415705 0.283094 0.277738 55.000000
3.416557 0.272614 0.277738 52.000000
3.417378 0.262130 0.277738 57.000000
3.423140 0.252013 0.278091 44.000000
3.424892 0.241580 0.278162 76.000000
3.430593 0.231409 0.278515 44.000000
3.432282 0.220947 0.278585 57.000000
3.438918 0.210784 0.279009 35.000000
3.444527 0.200524 0.279362 36.000000
3.450106 0.190232 0.279716 45.000000
3.458642 0.180064 0.280281 33.000000
3.471134 0.170042 0.281128 15.000000
3.219171 0.891643 0.229620 45.000000
3.224780 0.882553 0.229794 40.000000
3.233255 0.874218 0.230143 31.000000
3.233028 0.863522 0.229969 44.000000
3.236627 0.853854 0.230027 60.000000
3.242130 0.844675 0.230201 47.000000
3.249541 0.835967 0.230491 56.000000
3.256928 0.827222 0.230782 47.000000
3.258482 0.816983 0.230724 39.000000
3.259035 0.806503 0.230608 46.000000
3.265373 0.797448 0.230840 55.000000
3.266834 0.787192 0.230782 46.000000
3.266320 0.776474 0.230608 53.000000
3.269659 0.766677 0.230666 43.000000
3.269078 0.755967 0.230491 53.000000
3.269434 0.745491 0.230375 57.000000
3.273654 0.735895 0.230491 61.000000
3.278821 0.726495 0.230666 45.000000
3.286886 0.717710 0.231014 46.000000
3.290049 0.707832 0.231072 59.000000
3.292205 0.697735 0.231072 64.000000
3.295307 0.687835 0.231130 53.000000
3.297402 0.677722 0.231130 47.000000
3.297509 0.667207 0.231014 40.000000
3.294645 0.656113 0.230724 53.000000
3.295662 0.645810 0.230666 36.000000
3.297628 0.635696 0.230666 53.000000
3.296620 0.625019 0.230491 39.000000
3.302448 0.615633 0.230724 47.000000
3.309231 0.606398 0.231014 47.000000
3.314024 0.596773 0.231188 52.000000
3.324687 0.588167 0.231711 52.000000
3.326475 0.577964 0.231711 58.000000
3.329217 0.567924 0.231769 47.000000
3.333898 0.558201 0.231944 44.000000
3.333624 0.547647 0.231827 32.000000
3.339231 0.538052 0.232060 38.000000
3.342838 0.528116 0.232176 45.000000
3.343456 0.517705 0.232118 56.000000
3.349964 0.508193 0.232408 47.000000
3.353482 0.498206 0.232524 51.000000
3.355983 0.488059 0.232583 52.000000
3.357464 0.477761 0.232583 37.000000
3.358914 0.467458 0.232583 54.000000
3.359343 0.457016 0.232524 47.000000
3.359740 0.446577 0.232466 62.000000
3.363074 0.436524 0.232583 71.000000
3.363408 0.426079 0.232524 53.000000
3.362717 0.415513 0.232408 46.000000
3.366950 0.405552 0.232583 48.000000
3.367187 0.395105 0.232524 56.000000
3.368383 0.384772 0.232524 46.000000
3.376493 0.375207 0.232931 47.000000
3.378621 0.364954 0.232989 55.000000
3.381710 0.354795 0.233105 35.000000
3.385762 0.344721 0.233280 54.000000
3.387798 0.334430 0.233338 45.000000
3.392783 0.324415 0.233570 43.000000
3.396744 0.314280 0.233744 54.000000
3.397692 0.303857 0.233744 57.000000
3.401593 0.293689 0.233919 42.000000
3.407452 0.283665 0.234209 41.000000
3.414277 0.273688 0.234558 70.000000
3.420078 0.263595 0.234848 57.000000
3.423857 0.253322 0.235022 39.000000
3.428601 0.243098 0.235255 48.000000
3.432319 0.232781 0.235429 41.000000
3.435009 0.222378 0.235545 45.000000
3.436672 0.211900 0.235603 43.000000
3.439299 0.201472 0.235719 40.000000
3.442891 0.191085 0.235894 42.000000
3.446452 0.180678 0.236068 28.000000
3.465935 0.171036 0.237171 11.000000
3.224845 0.859432 0.189919 32.000000
3.224568 0.848771 0.189781 50.000000
3.231024 0.839881 0.189966 43.000000
3.242293 0.832202 0.190382 46.000000
3.246767 0.822743 0.190474 41.000000
3.250245 0.813020 0.190521 41.000000
3.255633 0.803764 0.190659 47.000000
3.249350 0.791641 0.190243 51.000000
3.251763 0.781669 0.190243 51.000000
3.249287 0.770534 0.190012 57.000000
3.246773 0.759423 0.189781 50.000000
3.254927 0.750808 0.190058 47.000000
3.256241 0.740596 0.190012 46.000000
3.261422 0.731259 0.190151 54.000000
3.273403 0.723409 0.190613 37.000000
3.277559 0.713789 0.190705 49.000000
3.285593 0.704989 0.190983 43.000000
3.287741 0.694906 0.190983 50.000000
3.285945 0.684000 0.190798 32.000000
3.290964 0.674519 0.190937 55.000000
3.294976 0.664815 0.191029 45.000000
3.292101 0.653728 0.190798 43.000000
3.292131 0.643242 0.190705 53.000000
3.290166 0.632383 0.190521 63.000000
3.287183 0.621356 0.190289 45.000000
3.293002 0.612000 0.190474 42.000000
3.293881 0.601715 0.190428 52.000000
3.292762 0.591076 0.190289 46.000000
3.300462 0.582014 0.190567 42.000000
3.307153 0.572739 0.190798 40.000000
3.315788 0.563765 0.191122 43.000000
3.323414 0.554578 0.191399 43.000000
3.327071 0.544703 0.191491 47.000000
3.329713 0.534652 0.191538 48.000000
3.336271 0.525212 0.191769 45.000000
3.337867 0.514974 0.191769 55.000000
3.340418 0.504881 0.191815 42.000000
3.342939 0.494777 0.191861 51.000000
3.348396 0.485093 0.192046 51.000000
3.349869 0.474818 0.192046 41.000000
3.352299 0.464676 0.192093 50.000000
3.355689 0.454658 0.192185 35.000000
3.357068 0.444361 0.192185 44.000000
3.362378 0.434573 0.192370 48.000000
3.365677 0.424506 0.192462 45.000000
3.364981 0.413933 0.192370 54.000000
3.369210 0.403966 0.192509 38.000000
3.368449 0.393395 0.192416 53.000000
3.368648 0.382945 0.192370 46.000000
3.377750 0.373490 0.192740 40.000000
3.376894 0.362911 0.192647 46.000000
3.377991 0.352549 0.192647 40.000000
3.382038 0.342487 0.192786 34.000000
3.382079 0.332011 0.192740 51.000000
3.388053 0.322108 0.192971 57.000000
3.395989 0.312355 0.193295 45.000000
3.395936 0.301846 0.193248 55.000000
3.402817 0.291941 0.193526 57.000000
3.408675 0.281913 0.193757 55.000000
3.413507 0.271772 0.193942 43.000000
3.419304 0.261681 0.194173 39.000000
3.411125 0.250528 0.193757 23.000000
3.422838 0.240837 0.194266 37.000000
3.427548 0.230604 0.194450 32.000000
3.408302 0.218801 0.193526 10.000000
3.316218 0.852498 0.151625 29.000000
3.282006 0.832981 0.150339 33.000000
3.275820 0.820723 0.150034 33.000000
3.271531 0.808991 0.149797 49.000000
3.260404 0.795635 0.149323 36.000000
3.271575 0.787733 0.149628 23.000000
3.245777 0.770997 0.148646 45.000000
3.246181 0.760580 0.148578 50.000000
3.252394 0.751516 0.148714 46.000000
3.254684 0.741535 0.148714 45.000000
3.263770 0.733078 0.148951 61.000000
3.267956 0.723494 0.149018 43.000000
3.269183 0.713251 0.148984 51.000000
3.281127 0.705318 0.149323 42.000000
3.285232 0.695662 0.149391 53.000000
3.285394 0.685172 0.149323 44.000000
3.290417 0.675692 0.149425 57.000000
3.291495 0.665396 0.149391 60.000000
3.294501 0.655489 0.149425 47.000000
3.302382 0.646530 0.149628 52.000000
3.303368 0.636207 0.149594 40.000000
3.306286 0.626255 0.149628 46.000000
3.309175 0.616292 0.149662 57.000000
3.310067 0.605956 0.149628 43.000000
3.308959 0.595268 0.149526 40.000000
3.310770 0.585113 0.149526 42.000000
3.314519 0.575295 0.149594 71.000000
3.312328 0.564452 0.149458 46.000000
3.313058 0.554123 0.149425 41.000000
3.317701 0.544441 0.149526 47.000000
3.320343 0.534419 0.149560 55.000000
3.323941 0.524541 0.149628 63.000000
3.326522 0.514493 0.149662 63.000000
3.332038 0.504884 0.149797 55.000000
3.333571 0.494659 0.149797 56.000000
3.339029 0.485003 0.149932 54.000000
3.342480 0.475038 0.150000 51.000000
3.344912 0.464919 0.150034 36.000000
3.347313 0.454789 0.150068 40.000000
3.353646 0.445174 0.150237 63.000000
3.355987 0.435012 0.150271 48.000000
3.362264 0.425340 0.150440 30.000000
3.361569 0.414779 0.150372 45.000000
3.362826 0.404463 0.150372 38.000000
3.369014 0.394725 0.150542 43.000000
3.373188 0.384727 0.150643 59.000000
3.377332 0.374707 0.150745 49.000000
3.382441 0.364772 0.150880 60.000000
3.382550 0.354289 0.150846 55.000000
3.385610 0.344111 0.150914 61.000000
3.390628 0.334114 0.151050 52.000000
3.394622 0.323995 0.151151 40.000000
3.398586 0.313854 0.151253 41.000000
3.397542 0.303249 0.151185 40.000000
3.401443 0.293081 0.151286 26.000000
3.407306 0.283057 0.151456 49.000000
3.417125 0.273318 0.151760 38.000000
3.411969 0.262375 0.151557 15.000000
3.521607 0.905302 0.114544 24.000000
3.494330 0.886860 0.113873 28.000000
3.488307 0.873946 0.113678 27.000000
3.445360 0.851945 0.112661 28.000000
3.335300 0.813841 0.110151 29.000000
3.311540 0.797277 0.109567 35.000000
3.283819 0.779941 0.108896 38.000000
3.268676 0.765752 0.108506 42.000000
3.268088 0.755044 0.108441 42.000000
3.265515 0.743902 0.108333 38.000000
3.264856 0.733222 0.108268 45.000000
3.266114 0.722986 0.108247 59.000000
3.265387 0.712322 0.108182 45.000000
3.264624 0.701669 0.108117 46.000000
3.265784 0.691443 0.108095 45.000000
3.264954 0.680807 0.108030 47.000000
3.268007 0.670988 0.108052 39.000000
3.271029 0.661158 0.108074 36.000000
3.275984 0.651705 0.108139 55.000000
3.279930 0.642036 0.108182 47.000000
3.287774 0.633107 0.108312 52.000000
3.289701 0.623017 0.108312 48.000000
3.296511 0.613839 0.108420 59.000000
3.297395 0.603542 0.108398 29.000000
3.298248 0.593245 0.108377 45.000000
3.303006 0.583647 0.108441 42.000000
3.305765 0.573682 0.108463 43.000000
3.309481 0.563874 0.108506 50.000000
3.314153 0.554213 0.108571 36.000000
3.317811 0.544367 0.108615 47.000000
3.321440 0.534504 0.108658 37.000000
3.325039 0.524624 0.108701 52.000000
3.326633 0.514421 0.108701 48.000000
3.336103 0.505413 0.108874 37.000000
3.332694 0.494440 0.108766 53.000000
3.332216 0.483925 0.108723 56.000000
3.335665 0.473982 0.108766 37.000000
3.337103 0.463746 0.108766 43.000000
3.336529 0.453236 0.108723 52.000000
3.339886 0.443261 0.108766 60.000000
3.340238 0.432884 0.108744 43.000000
3.343534 0.422885 0.108788 49.000000
3.347792 0.412994 0.108853 36.000000
3.352021 0.403080 0.108918 51.000000
3.355228 0.393028 0.108961 43.000000
3.358405 0.382959 0.109004 46.000000
3.362545 0.372986 0.109069 38.000000
3.369637 0.363313 0.109199 40.000000
3.368747 0.352765 0.109156 41.000000
3.378765 0.343340 0.109350 29.000000
3.378808 0.332875 0.109329 37.000000
3.381804 0.322698 0.109372 44.000000
3.389746 0.312967 0.109523 33.000000
3.424547 0.305598 0.110259 9.000000
3.545725 0.910812 0.069898 23.000000
3.538810 0.897473 0.069806 36.000000
3.529906 0.883699 0.069695 40.000000
3.520951 0.869988 0.069584 35.000000
3.500287 0.853499 0.069362 40.000000
3.475666 0.836210 0.069103 36.000000
3.446108 0.817926 0.068798 32.000000
3.402839 0.796642 0.068363 33.000000
3.330242 0.768885 0.067651 33.000000
3.291633 0.749347 0.067262 39.000000
3.277330 0.735524 0.067105 52.000000
3.258091 0.720717 0.066901 39.000000
3.262241 0.711144 0.066920 34.000000
3.257563 0.699663 0.066855 48.000000
3.259694 0.689666 0.066855 42.000000
3.264732 0.680273 0.066883 52.000000
3.268763 0.670656 0.066901 46.000000
3.271785 0.660822 0.066911 55.000000
3.275759 0.651171 0.066929 53.000000
3.277741 0.641118 0.066929 52.000000
3.282638 0.631626 0.066957 56.000000
3.283578 0.621366 0.066948 46.000000
3.287435 0.611655 0.066966 57.000000
3.288312 0.601386 0.066957 58.000000
3.293095 0.591825 0.066985 46.000000
3.298834 0.582414 0.067022 57.000000
3.305532 0.573145 0.067068 46.000000
3.313189 0.564007 0.067123 50.000000
3.314904 0.553839 0.067123 51.000000
3.316587 0.543667 0.067123 48.000000
3.319227 0.533648 0.067133 45.000000
3.316898 0.522840 0.067096 53.000000
3.318486 0.512661 0.067096 45.000000
3.317077 0.502029 0.067068 59.000000
3.316623 0.491557 0.067049 48.000000
3.321085 0.481810 0.067077 49.000000
3.322547 0.471619 0.067077 54.000000
3.325960 0.461698 0.067096 47.000000
3.331324 0.452029 0.067133 49.000000
3.332695 0.441807 0.067133 47.000000
3.338001 0.432093 0.067170 45.000000
3.340304 0.421975 0.067179 49.000000
3.341583 0.411725 0.067179 42.000000
3.347794 0.402067 0.067225 52.000000
3.351991 0.392143 0.067253 56.000000
3.360134 0.382648 0.067318 67.000000
3.369243 0.373218 0.067392 44.000000
3.377332 0.363628 0.067456 57.000000
3.387382 0.354199 0.067540 45.000000
3.395417 0.344511 0.067604 42.000000
3.398448 0.334288 0.067623 61.000000
3.404435 0.324334 0.067669 51.000000
3.406410 0.313979 0.067678 12.000000
3.556385 0.925897 0.024046 23.000000
3.565020 0.916477 0.024026 17.000000
3.537770 0.897900 0.024129 26.000000
3.536628 0.886069 0.024142 30.000000
3.516034 0.869445 0.024221 41.000000
3.505085 0.855331 0.024268 41.000000
3.498943 0.842464 0.024298 54.000000
3.490810 0.829180 0.024334 60.000000
3.480681 0.815497 0.024377 52.000000
3.479270 0.803912 0.024391 80.000000
3.486595 0.794347 0.024374 89.000000
3.409990 0.765870 0.024643 48.000000
3.341055 0.739602 0.024885 31.000000
3.318885 0.724012 0.024968 40.000000
3.300561 0.709406 0.025037 24.000000
3.285114 0.695542 0.025097 37.000000
3.275486 0.683007 0.025137 30.000000
3.274627 0.672350 0.025147 34.000000
3.265893 0.660118 0.025183 34.000000
3.268884 0.650290 0.025180 49.000000
3.270864 0.640258 0.025180 44.000000
3.274776 0.630599 0.025173 61.000000
3.275713 0.620363 0.025176 33.000000
3.284482 0.611594 0.025153 48.000000
3.285359 0.601334 0.025157 50.000000
3.290141 0.591784 0.025147 55.000000
3.297849 0.582734 0.025127 39.000000
3.299622 0.572613 0.025127 43.000000
3.306292 0.563329 0.025110 44.000000
3.313922 0.554174 0.025090 32.000000
3.309686 0.543031 0.025110 40.000000
3.315285 0.533512 0.025097 54.000000
3.316906 0.523338 0.025097 49.000000
3.318497 0.513159 0.025097 58.000000
3.318078 0.502676 0.025104 43.000000
3.316637 0.492052 0.025113 41.000000
3.323079 0.482595 0.025097 44.000000
3.323554 0.472257 0.025100 58.000000
3.323006 0.461782 0.025107 57.000000
3.328371 0.452125 0.025094 40.000000
3.328751 0.441779 0.025097 45.000000
3.333066 0.431951 0.025087 28.000000
3.337351 0.422101 0.025077 33.000000
3.334661 0.411369 0.025090 34.000000
3.342857 0.401975 0.025067 39.000000
3.354006 0.392884 0.025034 30.000000
3.351222 0.382138 0.025047 50.000000
3.361323 0.372850 0.025017 47.000000
3.392277 0.365762 0.024918 17.000000
3.552953 0.925615 -0.021249 27.000000
3.553839 0.914213 -0.021218 25.000000
3.535306 0.897893 -0.020872 41.000000
3.530285 0.885098 -0.020746 46.000000
3.520366 0.871142 -0.020542 49.000000
3.517194 0.858915 -0.020448 47.000000
3.513980 0.846715 -0.020354 48.000000
3.510724 0.834544 -0.020259 35.000000
3.505480 0.821944 -0.020134 49.000000
3.497269 0.808709 -0.019961 55.000000
3.464638 0.789977 -0.019396 95.000000
3.483630 0.783070 -0.019663 57.000000
3.471372 0.769136 -0.019427 64.000000
3.453201 0.754005 -0.019097 43.000000
3.446701 0.741516 -0.018956 69.000000
3.412766 0.723272 -0.018375 75.000000
3.339602 0.697076 -0.017165 40.000000
3.301568 0.678578 -0.016521 52.000000
3.296774 0.667058 -0.016411 48.000000
3.284095 0.654013 -0.016176 36.000000
3.278236 0.642398 -0.016050 42.000000
3.279210 0.632148 -0.016034 44.000000
3.281134 0.622084 -0.016034 41.000000
3.284993 0.612381 -0.016066 50.000000
3.288824 0.602660 -0.016097 41.000000
3.287704 0.592036 -0.016050 54.000000
3.291475 0.582295 -0.016081 56.000000
3.296201 0.572707 -0.016128 52.000000
3.300900 0.563096 -0.016176 55.000000
3.302611 0.552967 -0.016176 48.000000
3.307253 0.543318 -0.016223 57.000000
3.308904 0.533169 -0.016223 60.000000
3.310524 0.523014 -0.016223 43.000000
3.315077 0.513314 -0.016270 56.000000
3.317626 0.503291 -0.016285 39.000000
3.323110 0.493698 -0.016348 48.000000
3.327577 0.483932 -0.016395 44.000000
3.331026 0.474002 -0.016427 32.000000
3.334445 0.464056 -0.016458 34.000000
3.334863 0.453689 -0.016443 42.000000
3.334257 0.443192 -0.016411 37.000000
3.335601 0.432961 -0.016411 10.000000
3.514415 0.914956 -0.064187 21.000000
3.513334 0.903172 -0.064076 28.000000
3.508337 0.890420 -0.063854 43.000000
3.508144 0.878922 -0.063771 30.000000
3.502091 0.865993 -0.063521 38.000000
3.498905 0.853821 -0.063354 62.000000
3.496649 0.841911 -0.063216 52.000000
3.488519 0.828635 -0.062911 54.000000
3.483259 0.816101 -0.062689 34.000000
3.479903 0.804059 -0.062522 39.000000
3.470659 0.790711 -0.062189 48.000000
3.469167 0.779181 -0.062078 52.000000
3.469589 0.768102 -0.062023 109.000000
3.467047 0.756387 -0.061884 68.000000
3.469351 0.745746 -0.061884 54.000000
3.465755 0.733855 -0.061717 45.000000
3.459184 0.721379 -0.061468 43.000000
3.446694 0.707742 -0.061051 42.000000
3.431214 0.693593 -0.060552 54.000000
3.397054 0.675834 -0.059525 44.000000
3.350065 0.655791 -0.058138 36.000000
3.320652 0.639450 -0.057250 40.000000
3.306885 0.626278 -0.056806 42.000000
3.288155 0.612280 -0.056223 27.000000
3.286085 0.601467 -0.056112 30.000000
3.279061 0.589787 -0.055863 35.000000
3.279871 0.579550 -0.055835 27.000000
3.283603 0.569828 -0.055891 44.000000
3.282379 0.559246 -0.055807 60.000000
3.286052 0.549504 -0.055863 51.000000
3.290681 0.539906 -0.055946 54.000000
3.297256 0.530604 -0.056085 36.000000
3.301831 0.520954 -0.056168 50.000000
3.304401 0.510975 -0.056196 27.000000
3.312871 0.501885 -0.056390 36.000000
3.323294 0.493042 -0.056640 38.000000
3.318856 0.481980 -0.056473 20.000000
3.509788 0.902886 -0.109373 22.000000
3.501889 0.889409 -0.108930 30.000000
3.500724 0.877690 -0.108769 31.000000
3.496610 0.865266 -0.108487 40.000000
3.494395 0.853350 -0.108285 32.000000
3.486311 0.840052 -0.107842 28.000000
3.490816 0.829814 -0.107922 24.000000
3.474862 0.814768 -0.107157 38.000000
3.473451 0.803204 -0.106995 43.000000
3.470054 0.791211 -0.106754 47.000000
3.472465 0.780562 -0.106754 43.000000
3.468990 0.768609 -0.106512 50.000000
3.468403 0.757323 -0.106391 46.000000
3.476571 0.747939 -0.106633 44.000000
3.472985 0.736027 -0.106391 64.000000
3.475226 0.725369 -0.106391 62.000000
3.481350 0.715508 -0.106552 49.000000
3.482550 0.704625 -0.106512 44.000000
3.482735 0.693548 -0.106431 30.000000
3.477002 0.681323 -0.106109 37.000000
3.474170 0.669708 -0.105907 52.000000
3.432031 0.650676 -0.104093 26.000000
3.399631 0.633738 -0.102683 22.000000
3.342589 0.612506 -0.100264 48.000000
3.328718 0.599417 -0.099619 30.000000
3.315783 0.586593 -0.099015 27.000000
3.300831 0.573511 -0.098330 42.000000
3.292725 0.561703 -0.097927 33.000000
3.292462 0.551268 -0.097846 25.000000
3.295123 0.541326 -0.097886 33.000000
3.298742 0.531532 -0.097967 42.000000
3.305292 0.522188 -0.098168 20.000000
3.492922 0.908056 -0.152135 19.000000
3.483118 0.894104 -0.151455 31.000000
3.482941 0.882677 -0.151298 48.000000
3.483695 0.871502 -0.151193 41.000000
3.481505 0.859611 -0.150931 56.000000
3.479275 0.847743 -0.150670 55.000000
3.476034 0.835662 -0.150355 51.000000
3.472752 0.823609 -0.150041 45.000000
3.463595 0.810218 -0.149413 51.000000
3.441740 0.793968 -0.148105 78.000000
3.471422 0.789616 -0.149570 29.000000
3.468956 0.777868 -0.149309 29.000000
3.472302 0.767437 -0.149361 39.000000
3.463907 0.754439 -0.148785 51.000000
3.467182 0.744019 -0.148838 43.000000
3.472379 0.733999 -0.148995 45.000000
3.468749 0.722119 -0.148681 48.000000
3.472904 0.711875 -0.148785 47.000000
3.477030 0.701613 -0.148890 45.000000
3.483084 0.691722 -0.149099 42.000000
3.491070 0.682183 -0.149413 35.000000
3.502952 0.673358 -0.149937 39.000000
3.504020 0.662422 -0.149884 33.000000
3.506036 0.651669 -0.149884 38.000000
3.503108 0.640010 -0.149623 41.000000
3.491295 0.626785 -0.148890 33.000000
3.486317 0.614855 -0.148524 37.000000
3.451782 0.597838 -0.146587 29.000000
3.448678 0.586407 -0.146326 18.000000
3.513498 0.586365 -0.149675 16.000000
3.509367 0.574613 -0.149361 19.000000
3.479563 0.558766 -0.147686 7.000000
3.482333 0.918643 -0.196323 15.000000
3.473547 0.904937 -0.195546 31.000000
3.474374 0.893779 -0.195417 38.000000
3.471297 0.881643 -0.195029 41.000000
3.467209 0.869291 -0.194576 50.000000
3.466954 0.857931 -0.194382 42.000000
3.466661 0.846580 -0.194188 57.000000
3.464391 0.834772 -0.193864 51.000000
3.463052 0.823217 -0.193605 49.000000
3.456817 0.810539 -0.193023 53.000000
3.460260 0.800155 -0.193088 56.000000
3.456861 0.788205 -0.192699 63.000000
3.457316 0.777158 -0.192570 43.000000
3.461632 0.766979 -0.192699 43.000000
3.456169 0.754653 -0.192182 87.000000
3.463346 0.745095 -0.192505 54.000000
3.468545 0.735087 -0.192699 41.000000
3.462969 0.722812 -0.192182 44.000000
3.470057 0.713188 -0.192505 33.000000
3.472229 0.702539 -0.192505 43.000000
3.476326 0.692272 -0.192635 43.000000
3.486268 0.683138 -0.193152 55.000000
3.497166 0.674138 -0.193735 80.000000
3.499218 0.663406 -0.193735 48.000000
3.509084 0.654129 -0.194252 52.000000
3.515001 0.644079 -0.194511 53.000000
3.517943 0.633469 -0.194576 50.000000
3.523800 0.623368 -0.194835 38.000000
3.528646 0.613067 -0.195029 50.000000
3.535429 0.603077 -0.195352 41.000000
3.545136 0.593545 -0.195870 33.000000
3.566635 0.585898 -0.197164 18.000000
3.588120 0.578126 -0.198458 16.000000
3.491429 0.919113 -0.239780 17.000000
3.468180 0.901616 -0.237713 21.000000
3.467067 0.889978 -0.237407 33.000000
3.458184 0.876394 -0.236488 36.000000
3.452152 0.863600 -0.235799 39.000000
3.452849 0.852526 -0.235646 67.000000
3.449636 0.840511 -0.235187 40.000000
3.450260 0.829457 -0.235034 53.000000
3.452789 0.818868 -0.235034 43.000000
3.452372 0.807589 -0.234804 44.000000
3.456777 0.797442 -0.234957 53.000000
3.457263 0.786390 -0.234804 41.000000
3.464523 0.776872 -0.235187 73.000000
3.461049 0.764946 -0.234728 69.000000
3.463379 0.754324 -0.234728 40.000000
3.458854 0.742229 -0.234192 36.000000
3.460139 0.731407 -0.234115 50.000000
3.460415 0.720381 -0.233962 49.000000
3.459679 0.709160 -0.233733 56.000000
3.466724 0.699530 -0.234115 30.000000
3.470810 0.689280 -0.234268 28.000000
3.485629 0.681118 -0.235263 118.000000
3.486723 0.670233 -0.235187 47.000000
3.492682 0.660275 -0.235493 53.000000
3.500572 0.650651 -0.235952 56.000000
3.506475 0.640627 -0.236259 33.000000
3.510386 0.630219 -0.236412 41.000000
3.521140 0.621008 -0.237101 32.000000
3.524011 0.610373 -0.237177 39.000000
3.534713 0.601065 -0.237866 23.000000
3.533591 0.589725 -0.237636 37.000000
3.542270 0.580011 -0.238172 18.000000
3.544033 0.569141 -0.238172 24.000000
3.482975 0.917518 -0.283231 16.000000
3.470349 0.902817 -0.281811 28.000000
3.468279 0.890927 -0.281368 39.000000
3.462306 0.878080 -0.280569 49.000000
3.461118 0.866486 -0.280214 41.000000
3.456991 0.854192 -0.279593 48.000000
3.458628 0.843346 -0.279505 39.000000
3.458294 0.832032 -0.279238 43.000000
3.461799 0.821649 -0.279327 48.000000
3.469153 0.812159 -0.279771 30.000000
3.465805 0.800168 -0.279238 33.000000
3.473100 0.790636 -0.279682 48.000000
3.481341 0.781285 -0.280214 52.000000
3.487612 0.771461 -0.280569 43.000000
3.495801 0.762030 -0.281102 53.000000
3.508835 0.753601 -0.282077 88.000000
3.490666 0.738505 -0.280214 29.000000
3.504617 0.730229 -0.281279 49.000000
3.504889 0.719073 -0.281102 42.000000
3.503174 0.707529 -0.280747 54.000000
3.499466 0.695613 -0.280214 74.000000
3.489853 0.682581 -0.279150 36.000000
3.495843 0.672623 -0.279505 54.000000
3.490061 0.660414 -0.278795 38.000000
3.490112 0.649340 -0.278617 52.000000
3.492088 0.638629 -0.278617 46.000000
3.495991 0.628265 -0.278795 41.000000
3.502807 0.618401 -0.279238 35.000000
3.509594 0.608502 -0.279682 32.000000
3.522246 0.599570 -0.280658 45.000000
3.527016 0.589253 -0.280924 27.000000
3.538637 0.580039 -0.281811 19.000000
3.543350 0.569654 -0.282077 22.000000
3.474931 0.915411 -0.327862 27.000000
3.475798 0.904244 -0.327660 28.000000
3.468921 0.891097 -0.326648 35.000000
3.472603 0.880696 -0.326749 27.000000
3.456953 0.865441 -0.324826 50.000000
3.459592 0.854831 -0.324826 52.000000
3.467997 0.845629 -0.325433 39.000000
3.469608 0.834753 -0.325332 48.000000
3.476992 0.825254 -0.325838 57.000000
3.482414 0.815265 -0.326142 28.000000
3.485868 0.804801 -0.326243 40.000000
3.496080 0.795872 -0.327053 35.000000
3.499476 0.785360 -0.327154 43.000000
3.503812 0.775051 -0.327356 38.000000
3.512005 0.765571 -0.327964 47.000000
3.516282 0.755211 -0.328166 31.000000
3.527342 0.746276 -0.329077 70.000000
3.560779 0.741955 -0.332317 152.000000
3.514313 0.721014 -0.327255 49.000000
3.496032 0.706086 -0.325129 32.000000
3.488424 0.693414 -0.324117 39.000000
3.489559 0.682517 -0.324016 49.000000
3.482845 0.670114 -0.323105 45.000000
3.478042 0.658128 -0.322396 55.000000
3.477111 0.646908 -0.322092 38.000000
3.477122 0.635879 -0.321890 38.000000
3.484931 0.626266 -0.322497 44.000000
3.494673 0.616957 -0.323307 25.000000
3.494589 0.605892 -0.323105 36.000000
3.505258 0.596674 -0.324016 28.000000
3.509034 0.586245 -0.324218 38.000000
3.520633 0.577090 -0.325230 20.000000
3.543014 0.569609 -0.327356 12.000000
3.486643 0.907701 -0.371880 40.000000
3.479788 0.894527 -0.370749 38.000000
3.478663 0.882869 -0.370297 38.000000
3.475573 0.870745 -0.369619 40.000000
3.475334 0.859363 -0.369280 46.000000
3.477954 0.848696 -0.369280 41.000000
3.477643 0.837325 -0.368941 33.000000
3.481163 0.826881 -0.369054 46.000000
3.488520 0.817330 -0.369619 41.000000
3.493916 0.807294 -0.369958 46.000000
3.504126 0.798336 -0.370862 38.000000
3.511406 0.788670 -0.371427 35.000000
3.524481 0.780255 -0.372671 45.000000
3.531712 0.770496 -0.373236 49.000000
3.543773 0.761745 -0.374366 60.000000
3.545122 0.750663 -0.374253 41.000000
3.554217 0.741203 -0.375044 162.000000
3.537982 0.726499 -0.372897 51.000000
3.517794 0.711116 -0.370297 32.000000
3.508265 0.697995 -0.368941 31.000000
3.507464 0.686656 -0.368602 37.000000
3.501749 0.674390 -0.367697 30.000000
3.496967 0.662350 -0.366906 52.000000
3.494099 0.650709 -0.366341 52.000000
3.499011 0.640523 -0.366680 45.000000
3.505849 0.630664 -0.367245 43.000000
3.511681 0.620596 -0.367697 35.000000
3.516506 0.610329 -0.368037 36.000000
3.518362 0.599538 -0.368037 40.000000
3.522144 0.589069 -0.368263 34.000000
3.532759 0.579707 -0.369280 17.000000
3.535503 0.569024 -0.369393 8.000000
3.473920 0.903754 -0.415295 9.000000
3.468989 0.891115 -0.414292 27.000000
3.472668 0.880712 -0.414417 38.000000
3.480166 0.871260 -0.415044 31.000000
3.479933 0.859864 -0.414668 46.000000
3.484482 0.849655 -0.414919 34.000000
3.482250 0.837799 -0.414292 32.000000
3.484804 0.827111 -0.414292 38.000000
3.496018 0.818454 -0.415420 29.000000
3.495613 0.807054 -0.415044 37.000000
3.502909 0.797429 -0.415671 33.000000
3.517923 0.789507 -0.417300 38.000000
3.528077 0.780427 -0.418303 49.000000
3.540148 0.771715 -0.419556 41.000000
3.547348 0.761894 -0.420183 51.000000
3.552581 0.751624 -0.420559 44.000000
3.548072 0.739303 -0.419681 135.000000
3.543520 0.727016 -0.418804 24.000000
3.536010 0.714174 -0.417551 28.000000
3.525536 0.700804 -0.415921 27.000000
3.525722 0.689602 -0.415671 25.000000
3.521976 0.677656 -0.414919 35.000000
3.514291 0.665000 -0.413665 38.000000
3.513388 0.653669 -0.413289 39.000000
3.510498 0.641994 -0.412663 39.000000
3.512451 0.631220 -0.412663 51.000000
3.520233 0.621478 -0.413415 29.000000
3.524078 0.611015 -0.413665 38.000000
3.525936 0.600200 -0.413665 25.000000
3.537545 0.591018 -0.414919 23.000000
3.544237 0.580966 -0.415545 15.000000
3.482160 0.896427 -0.460571 26.000000
3.492574 0.887690 -0.461671 43.000000
3.490477 0.875767 -0.460984 26.000000
3.495071 0.865530 -0.461258 47.000000
3.500596 0.855508 -0.461671 33.000000
3.497427 0.843372 -0.460846 34.000000
3.503852 0.833554 -0.461396 36.000000
3.515072 0.824836 -0.462633 35.000000
3.521446 0.814941 -0.463183 46.000000
3.529724 0.805456 -0.464007 41.000000
3.542809 0.797013 -0.465519 36.000000
3.551040 0.787426 -0.466344 28.000000
3.562148 0.778430 -0.467581 49.000000
3.571298 0.768957 -0.468543 40.000000
3.594958 0.762516 -0.471567 13.000000
3.569162 0.745612 -0.467581 56.000000
3.570462 0.734459 -0.467443 30.000000
3.560078 0.720947 -0.465657 27.000000
3.552559 0.708086 -0.464282 42.000000
3.546938 0.695660 -0.463183 38.000000
3.542248 0.683462 -0.462221 30.000000
3.532650 0.670376 -0.460571 47.000000
3.532743 0.659172 -0.460296 39.000000
3.530851 0.647616 -0.459747 38.000000
3.542570 0.638537 -0.461121 49.000000
3.549389 0.628528 -0.461808 38.000000
3.551300 0.617636 -0.461808 35.000000
3.563919 0.608570 -0.463320 49.000000
3.569677 0.598288 -0.463870 20.000000
3.581269 0.588940 -0.465244 7.000000
3.501688 0.898878 -0.506901 22.000000
3.505388 0.888373 -0.507050 19.000000
3.510975 0.878336 -0.507498 33.000000
3.505014 0.865424 -0.506155 47.000000
3.511495 0.855604 -0.506752 39.000000
3.508335 0.843439 -0.505857 41.000000
3.513792 0.833357 -0.506305 47.000000
3.521146 0.823700 -0.507050 28.000000
3.526547 0.813561 -0.507498 37.000000
3.531919 0.803397 -0.507946 39.000000
3.538226 0.793424 -0.508542 30.000000
3.553194 0.785344 -0.510482 31.000000
3.569112 0.777389 -0.512571 26.000000
3.564713 0.764981 -0.511526 34.000000
3.604770 0.762029 -0.517345 10.000000
3.574509 0.732737 -0.511974 18.000000
3.572863 0.720983 -0.511377 33.000000
3.565360 0.708089 -0.509885 41.000000
3.554901 0.694678 -0.507946 31.000000
3.547306 0.681899 -0.506454 20.000000
3.539665 0.669173 -0.504962 32.000000
3.534897 0.657043 -0.503917 41.000000
3.536896 0.646195 -0.503917 40.000000
3.547621 0.636916 -0.505260 38.000000
3.564164 0.628610 -0.507498 20.000000
3.563153 0.617165 -0.507050 29.000000
3.576727 0.608224 -0.508841 38.000000
3.592230 0.599531 -0.510929 45.000000
3.511613 0.880418 -0.552141 16.000000
3.521962 0.871537 -0.553430 46.000000
3.521743 0.860025 -0.552947 50.000000
3.521486 0.848523 -0.552463 59.000000
3.525033 0.837944 -0.552625 43.000000
3.530470 0.827801 -0.553108 35.000000
3.536839 0.817854 -0.553752 43.000000
3.542219 0.807658 -0.554235 47.000000
3.547569 0.797435 -0.554719 40.000000
3.548071 0.786121 -0.554397 48.000000
3.563966 0.778178 -0.556652 45.000000
3.571161 0.768278 -0.557457 37.000000
3.590649 0.737959 -0.559551 25.000000
3.581287 0.724592 -0.557618 31.000000
3.579622 0.712831 -0.556974 41.000000
3.573075 0.700138 -0.555524 38.000000
3.565515 0.687306 -0.553913 33.000000
3.560819 0.675078 -0.552786 32.000000
3.558022 0.663246 -0.551980 32.000000
3.561981 0.652683 -0.552302 48.000000
3.566881 0.642276 -0.552786 44.000000
3.580497 0.633392 -0.554719 29.000000
3.580479 0.622066 -0.554397 21.000000
3.589181 0.612240 -0.555524 27.000000
3.583255 0.599922 -0.554235 15.000000
3.543119 0.886388 -0.602424 17.000000
3.548690 0.876223 -0.602943 23.000000
3.549448 0.864865 -0.602597 32.000000
3.550170 0.853510 -0.602251 49.000000
3.547980 0.841476 -0.601386 40.000000
3.550545 0.830587 -0.601386 47.000000
3.555956 0.820356 -0.601905 46.000000
3.562297 0.810317 -0.602597 40.000000
3.569571 0.800464 -0.603462 57.000000
3.576818 0.790573 -0.604327 40.000000
3.588850 0.781695 -0.606056 39.000000
