ply
format ascii 1.0
element vertex 1264
property float x
property float y
property float z
property float intensity
end_header
3.528173 0.152389 0.544053 48.000000
3.531591 0.141684 0.544482 37.000000
3.529042 0.130738 0.544053 61.000000
3.532394 0.120012 0.544482 54.000000
3.536703 0.109298 0.545054 59.000000
3.535043 0.098391 0.544768 54.000000
3.536317 0.087570 0.544911 51.000000
3.542506 0.076851 0.545769 70.000000
3.543715 0.066001 0.545912 48.000000
3.544890 0.055145 0.546055 62.000000
3.545043 0.044269 0.546055 43.000000
3.544172 0.033383 0.545912 56.000000
3.547227 0.022529 0.546340 33.000000
3.554207 0.011671 0.547341 28.000000
3.549278 0.000764 0.546626 45.000000
3.553222 -0.010135 0.547198 63.000000
3.549216 -0.021014 0.546626 36.000000
3.551114 -0.031919 0.546912 44.000000
3.551989 -0.042826 0.547055 43.000000
3.553820 -0.053752 0.547341 42.000000
3.554628 -0.064672 0.547484 45.000000
3.556392 -0.075619 0.547770 52.000000
3.558122 -0.086577 0.548056 55.000000
3.570702 -0.097841 0.549915 27.000000
3.571374 -0.108825 0.550058 39.000000
3.573001 -0.119847 0.550344 37.000000
3.573606 -0.130844 0.550487 51.000000
3.577144 -0.141963 0.551059 54.000000
3.580647 -0.153105 0.551630 41.000000
3.584115 -0.164269 0.552202 41.000000
3.584583 -0.175312 0.552345 37.000000
3.585016 -0.186360 0.552488 37.000000
3.588381 -0.197574 0.553060 33.000000
3.587757 -0.208582 0.553060 36.000000
3.581173 -0.219227 0.552202 22.000000
3.573570 -0.229771 0.551202 30.000000
3.528410 -0.237754 0.544768 8.000000
3.472544 0.450720 0.496961 38.000000
3.476862 0.440438 0.497354 40.000000
3.478196 0.429769 0.497354 35.000000
3.480483 0.419214 0.497485 42.000000
3.483722 0.408765 0.497747 43.000000
3.487915 0.398413 0.498140 37.000000
3.489120 0.387710 0.498140 58.000000
3.491279 0.377110 0.498271 40.000000
3.487490 0.365881 0.497616 43.000000
3.486623 0.354979 0.497354 47.000000
3.493615 0.344864 0.498140 48.000000
3.493670 0.334050 0.498009 43.000000
3.493692 0.323239 0.497878 53.000000
3.494667 0.312519 0.497878 49.000000
3.491658 0.301455 0.497354 55.000000
3.489603 0.290495 0.496961 64.000000
3.489489 0.279708 0.496830 55.000000
3.485389 0.268621 0.496174 51.000000
3.492129 0.258365 0.496961 38.000000
3.495872 0.247860 0.497354 51.000000
3.499583 0.237335 0.497747 62.000000
3.507219 0.227045 0.498664 54.000000
3.514826 0.216710 0.499582 48.000000
3.520423 0.206215 0.500237 53.000000
3.523018 0.195523 0.500499 57.000000
3.525582 0.184817 0.500761 56.000000
3.528113 0.174098 0.501023 48.000000
3.527640 0.163227 0.500892 60.000000
3.532086 0.152574 0.501416 44.000000
3.531547 0.141698 0.501285 46.000000
3.529984 0.130789 0.501023 53.000000
3.535322 0.120126 0.501678 53.000000
3.533692 0.109219 0.501416 51.000000
3.535002 0.098404 0.501547 59.000000
3.539252 0.087656 0.502071 43.000000
3.537522 0.076755 0.501809 56.000000
3.546661 0.066067 0.502989 40.000000
3.549821 0.055231 0.503382 48.000000
3.549974 0.044340 0.503382 44.000000
3.551084 0.033458 0.503513 63.000000
3.548196 0.022545 0.503120 40.000000
3.551223 0.011669 0.503513 46.000000
3.551242 0.000774 0.503513 48.000000
3.550236 -0.010119 0.503382 53.000000
3.549197 -0.021005 0.503251 42.000000
3.550107 -0.031902 0.503382 37.000000
3.556931 -0.042878 0.504299 42.000000
3.559757 -0.053836 0.504692 54.000000
3.557593 -0.064720 0.504430 46.000000
3.558368 -0.075656 0.504561 48.000000
3.560102 -0.086621 0.504823 38.000000
3.561801 -0.097597 0.505085 60.000000
3.561485 -0.108524 0.505085 41.000000
3.561136 -0.119450 0.505085 44.000000
3.562734 -0.130448 0.505348 45.000000
3.565289 -0.141496 0.505741 45.000000
3.564838 -0.152433 0.505741 42.000000
3.565344 -0.163415 0.505872 40.000000
3.567796 -0.174498 0.506265 49.000000
3.570214 -0.185598 0.506658 57.000000
3.571608 -0.196659 0.506920 37.000000
3.575936 -0.207904 0.507575 50.000000
3.583197 -0.219359 0.508624 29.000000
3.584486 -0.230479 0.508886 38.000000
3.588708 -0.241809 0.509541 44.000000
3.578060 -0.252120 0.508231 25.000000
3.576281 -0.263023 0.508100 28.000000
3.534930 -0.270883 0.502727 9.000000
3.470925 0.418644 0.453031 33.000000
3.472193 0.407993 0.453031 40.000000
3.469483 0.396886 0.452556 52.000000
3.473645 0.386570 0.452912 39.000000
3.476789 0.376126 0.453150 42.000000
3.472989 0.364937 0.452556 66.000000
3.471129 0.353977 0.452199 53.000000
3.478127 0.343914 0.452912 76.000000
3.475212 0.332862 0.452437 73.000000
3.477206 0.322291 0.452556 53.000000
3.478178 0.311621 0.452556 72.000000
3.482085 0.301206 0.452912 63.000000
3.486951 0.290854 0.453388 55.000000
3.489806 0.280314 0.453626 73.000000
3.490650 0.269606 0.453626 75.000000
3.493441 0.259043 0.453864 63.000000
3.495209 0.248395 0.453983 46.000000
3.500908 0.238009 0.454577 75.000000
3.503603 0.227397 0.454815 57.000000
3.505275 0.216708 0.454934 66.000000
3.510880 0.206246 0.455529 51.000000
3.513479 0.195585 0.455766 70.000000
3.514062 0.184805 0.455766 68.000000
3.515604 0.174072 0.455885 58.000000
3.514138 0.163193 0.455648 72.000000
3.512638 0.152324 0.455410 69.000000
3.513089 0.141547 0.455410 48.000000
3.509538 0.130619 0.454934 65.000000
3.508930 0.119817 0.454815 62.000000
3.508289 0.109020 0.454696 67.000000
3.508607 0.098256 0.454696 70.000000
3.511869 0.087567 0.455053 52.000000
3.509143 0.076726 0.454696 47.000000
3.509362 0.065960 0.454696 49.000000
3.514512 0.055273 0.455291 59.000000
3.515658 0.044503 0.455410 47.000000
3.517764 0.033737 0.455648 63.000000
3.524801 0.022992 0.456480 69.000000
3.527833 0.012189 0.456837 57.000000
3.530833 0.001368 0.457194 49.000000
3.533799 -0.009472 0.457550 50.000000
3.537725 -0.020335 0.458026 66.000000
3.540625 -0.031213 0.458383 39.000000
3.548455 -0.042167 0.459334 42.000000
3.553273 -0.053126 0.459929 42.000000
3.552100 -0.064010 0.459810 42.000000
3.555858 -0.074990 0.460286 63.000000
3.556604 -0.085922 0.460405 44.000000
3.555331 -0.096807 0.460286 63.000000
3.560972 -0.107892 0.460999 40.000000
3.562609 -0.118882 0.461237 47.000000
3.563219 -0.129847 0.461356 46.000000
3.565781 -0.140895 0.461713 55.000000
3.566324 -0.151876 0.461832 51.000000
3.566833 -0.162862 0.461951 49.000000
3.564333 -0.173708 0.461713 49.000000
3.560808 -0.184489 0.461356 41.000000
3.563200 -0.195575 0.461713 39.000000
3.562583 -0.206506 0.461713 42.000000
3.565897 -0.217675 0.462188 46.000000
3.570167 -0.228930 0.462783 63.000000
3.568457 -0.239816 0.462664 47.000000
3.572657 -0.251109 0.463259 43.000000
3.573851 -0.262213 0.463497 40.000000
3.568079 -0.272800 0.462902 33.000000
3.572175 -0.284137 0.463497 34.000000
3.557432 -0.293955 0.461832 27.000000
3.539695 -0.303432 0.459810 16.000000
3.501164 -0.310964 0.455291 6.000000
3.478482 0.387141 0.410374 26.000000
3.476688 0.376147 0.410054 34.000000
3.473870 0.365063 0.409627 36.000000
3.472006 0.354102 0.409306 38.000000
3.476044 0.343741 0.409627 45.000000
3.478072 0.333170 0.409734 41.000000
3.480068 0.322589 0.409840 60.000000
3.481042 0.311911 0.409840 39.000000
3.487926 0.301744 0.410481 56.000000
3.497753 0.291784 0.411442 34.000000
3.499622 0.281132 0.411549 62.000000
3.498486 0.270241 0.411335 64.000000
3.502273 0.259726 0.411656 65.000000
3.502061 0.248910 0.411549 43.000000
3.500825 0.238030 0.411335 57.000000
3.498562 0.227096 0.411015 53.000000
3.495273 0.216116 0.410588 72.000000
3.502867 0.205799 0.411335 48.000000
3.503482 0.195051 0.411335 70.000000
3.510022 0.184615 0.411976 46.000000
3.511564 0.173894 0.412083 50.000000
3.514068 0.163212 0.412296 44.000000
3.513559 0.152387 0.412190 47.000000
3.513016 0.141567 0.412083 58.000000
3.512440 0.130752 0.411976 58.000000
3.511832 0.119942 0.411869 61.000000
3.507214 0.109013 0.411335 59.000000
3.508526 0.098280 0.411442 47.000000
3.513781 0.087639 0.411976 57.000000
3.516021 0.076902 0.412190 63.000000
3.517234 0.066133 0.412296 55.000000
3.519409 0.055373 0.412510 51.000000
3.523539 0.044625 0.412937 54.000000
3.527636 0.033853 0.413364 48.000000
3.529712 0.023043 0.413578 45.000000
3.530761 0.012217 0.413685 57.000000
3.528793 0.001384 0.413471 45.000000
3.530769 -0.009447 0.413685 56.000000
3.534701 -0.020303 0.414112 48.000000
3.537604 -0.031174 0.414432 53.000000
3.541469 -0.042075 0.414859 62.000000
3.546294 -0.053014 0.415393 47.000000
3.547109 -0.063912 0.415500 48.000000
3.550872 -0.074878 0.415927 53.000000
3.549632 -0.085748 0.415820 58.000000
3.548358 -0.096610 0.415714 46.000000
3.549039 -0.107526 0.415820 56.000000
3.547698 -0.118381 0.415714 40.000000
3.548312 -0.129301 0.415820 62.000000
3.550879 -0.140304 0.416141 45.000000
3.552419 -0.151282 0.416354 41.000000
3.555911 -0.162362 0.416781 41.000000
3.560362 -0.173513 0.417315 44.000000
3.556834 -0.184281 0.416995 45.000000
3.559230 -0.195356 0.417315 50.000000
3.564569 -0.206620 0.417956 49.000000
3.567889 -0.217798 0.418383 55.000000
3.572165 -0.229062 0.418917 41.000000
3.571445 -0.240020 0.418917 43.000000
3.575651 -0.251325 0.419451 41.000000
3.576847 -0.262440 0.419665 38.000000
3.578007 -0.273564 0.419878 34.000000
3.575169 -0.284382 0.419665 37.000000
3.574280 -0.295349 0.419665 36.000000
3.575338 -0.306483 0.419878 44.000000
3.583294 -0.318243 0.420839 25.000000
3.579330 -0.328962 0.420519 35.000000
3.590182 -0.341071 0.421800 15.000000
3.462330 0.352469 0.366719 52.000000
3.463395 0.341845 0.366719 68.000000
3.463436 0.331123 0.366624 55.000000
3.462453 0.320311 0.366434 67.000000
3.463420 0.309687 0.366434 57.000000
3.467329 0.299318 0.366719 67.000000
3.473191 0.289094 0.367194 63.000000
3.474062 0.278437 0.367194 63.000000
3.477877 0.268007 0.367478 65.000000
3.484640 0.257779 0.368048 61.000000
3.485414 0.247087 0.368048 59.000000
3.487149 0.236460 0.368143 58.000000
3.484878 0.225567 0.367858 71.000000
3.485553 0.214874 0.367858 71.000000
3.486196 0.204180 0.367858 65.000000
3.486806 0.193483 0.367858 81.000000
3.485395 0.182680 0.367668 83.000000
3.489916 0.172184 0.368048 58.000000
3.490428 0.161476 0.368048 70.000000
3.488918 0.150680 0.367858 58.000000
3.491353 0.140056 0.368048 77.000000
3.490772 0.129307 0.367953 56.000000
3.491152 0.118597 0.367953 57.000000
3.490504 0.107855 0.367858 66.000000
3.489824 0.097117 0.367763 59.000000
3.497071 0.086585 0.368428 60.000000
3.501302 0.075943 0.368808 74.000000
3.506495 0.065296 0.369283 49.000000
3.509664 0.054585 0.369568 56.000000
3.515788 0.043894 0.370138 62.000000
3.520883 0.033156 0.370613 45.000000
3.524950 0.022380 0.370993 54.000000
3.525002 0.011566 0.370993 52.000000
3.521039 0.000749 0.370613 48.000000
3.522020 -0.010056 0.370708 55.000000
3.521973 -0.020861 0.370708 55.000000
3.521892 -0.031666 0.370708 62.000000
3.520783 -0.042460 0.370613 59.000000
3.521632 -0.053276 0.370708 62.000000
3.524437 -0.064133 0.370993 63.000000
3.527210 -0.075008 0.371278 52.000000
3.527958 -0.085853 0.371372 64.000000
3.531659 -0.096784 0.371752 59.000000
3.530350 -0.107588 0.371657 67.000000
3.528014 -0.118353 0.371467 53.000000
3.530618 -0.129284 0.371752 63.000000
3.529211 -0.140076 0.371657 72.000000
3.530753 -0.150988 0.371847 49.000000
3.538229 -0.162181 0.372607 62.000000
3.537715 -0.173035 0.372607 35.000000
3.541144 -0.184094 0.372987 48.000000
3.547520 -0.195338 0.373652 63.000000
3.548892 -0.206335 0.373842 46.000000
3.554204 -0.217585 0.374412 64.000000
3.555507 -0.228615 0.374602 48.000000
3.557768 -0.239722 0.374887 65.000000
3.560988 -0.250915 0.375267 51.000000
3.565166 -0.262202 0.375741 47.000000
3.569308 -0.273517 0.376216 42.000000
3.568452 -0.284466 0.376216 60.000000
3.568555 -0.295495 0.376311 61.000000
3.569615 -0.306611 0.376501 54.000000
3.572623 -0.317913 0.376881 42.000000
3.574606 -0.329145 0.377166 35.000000
3.572588 -0.340016 0.377071 44.000000
3.572518 -0.351072 0.377166 43.000000
3.574396 -0.362331 0.377451 31.000000
3.574258 -0.373398 0.377546 22.000000
3.578045 -0.384893 0.378021 7.000000
3.448402 0.308990 0.321344 29.000000
3.461249 0.299439 0.322333 49.000000
3.463144 0.288901 0.322416 35.000000
3.472955 0.278992 0.323158 52.000000
3.473794 0.268336 0.323158 46.000000
3.483546 0.258340 0.323900 49.000000
3.484323 0.247651 0.323900 60.000000
3.487055 0.237095 0.324065 64.000000
3.489755 0.226525 0.324230 54.000000
3.494412 0.216063 0.324560 43.000000
3.494064 0.205283 0.324477 73.000000
3.496667 0.194673 0.324642 63.000000
3.492272 0.183683 0.324230 58.000000
3.497796 0.173214 0.324642 53.000000
3.497315 0.162436 0.324560 49.000000
3.496801 0.151663 0.324477 59.000000
3.500237 0.141054 0.324725 49.000000
3.498662 0.130241 0.324560 68.000000
3.500041 0.119540 0.324642 66.000000
3.501387 0.108833 0.324725 71.000000
3.497720 0.097979 0.324395 65.000000
3.498004 0.087247 0.324395 54.000000
3.500248 0.076559 0.324560 46.000000
3.494488 0.065708 0.324065 42.000000
3.494673 0.054987 0.324065 53.000000
3.493829 0.044252 0.323983 50.000000
3.496938 0.033562 0.324230 60.000000
3.502007 0.022865 0.324642 62.000000
3.505050 0.012131 0.324890 61.000000
3.508061 0.001378 0.325137 68.000000
3.517018 -0.009409 0.325879 61.000000
3.519963 -0.020217 0.326127 62.000000
3.525863 -0.031069 0.326621 57.000000
3.529737 -0.041934 0.326951 46.000000
3.528595 -0.052748 0.326869 68.000000
3.531406 -0.063627 0.327116 41.000000
3.532191 -0.074482 0.327199 56.000000
3.530949 -0.085294 0.327116 48.000000
3.533660 -0.096208 0.327363 47.000000
3.530360 -0.106958 0.327116 40.000000
3.529019 -0.117755 0.327034 46.000000
3.532624 -0.128727 0.327363 47.000000
3.534205 -0.139644 0.327528 38.000000
3.538738 -0.150698 0.327941 53.000000
3.543237 -0.161782 0.328353 39.000000
3.546705 -0.172846 0.328683 41.000000
3.550140 -0.183933 0.329013 37.000000
3.554534 -0.195098 0.329425 41.000000
3.556903 -0.206175 0.329672 46.000000
3.558244 -0.217208 0.329837 45.000000
3.554577 -0.227932 0.329590 46.000000
3.553861 -0.238836 0.329590 40.000000
3.550129 -0.249529 0.329342 36.000000
3.553323 -0.260711 0.329672 36.000000
3.551512 -0.271535 0.329590 38.000000
3.553643 -0.282667 0.329837 40.000000
3.556731 -0.293897 0.330167 39.000000
3.559785 -0.305148 0.330497 41.000000
3.563796 -0.316510 0.330909 36.000000
3.569754 -0.328081 0.331486 42.000000
3.571708 -0.339314 0.331734 38.000000
3.573625 -0.350563 0.331981 59.000000
3.573524 -0.361625 0.332064 38.000000
3.577354 -0.373104 0.332476 34.000000
3.579165 -0.384397 0.332723 35.000000
3.591837 -0.396910 0.333878 25.000000
3.596544 -0.408604 0.334373 17.000000
3.587354 -0.418711 0.333713 7.000000
3.440557 0.285162 0.279504 17.000000
3.449370 0.275243 0.280069 43.000000
3.452187 0.264812 0.280210 60.000000
3.451988 0.254146 0.280139 51.000000
3.450762 0.243414 0.279998 41.000000
3.455473 0.233096 0.280281 48.000000
3.456172 0.222493 0.280281 51.000000
3.459826 0.212073 0.280492 51.000000
3.464443 0.201691 0.280775 50.000000
3.467037 0.191171 0.280916 55.000000
3.472588 0.180795 0.281269 60.000000
3.478108 0.170386 0.281622 50.000000
3.489575 0.160221 0.282399 38.000000
3.487061 0.149386 0.282187 61.000000
3.490493 0.138807 0.282399 60.000000
3.490902 0.128097 0.282399 58.000000
3.489285 0.117319 0.282258 53.000000
3.489628 0.106613 0.282258 51.000000
3.482959 0.095713 0.281764 46.000000
3.480245 0.084953 0.281552 57.000000
3.485476 0.074383 0.281905 42.000000
3.484690 0.063671 0.281834 55.000000
3.485866 0.052995 0.281905 53.000000
3.487010 0.042313 0.281976 53.000000
3.485128 0.031596 0.281834 38.000000
3.486206 0.020910 0.281905 36.000000
3.489246 0.010224 0.282117 38.000000
3.491256 -0.000480 0.282258 45.000000
3.491238 -0.011191 0.282258 29.000000
3.502160 -0.021967 0.283035 48.000000
3.504071 -0.032730 0.283176 49.000000
3.506947 -0.043516 0.283388 49.000000
3.509789 -0.054320 0.283600 51.000000
3.510603 -0.065106 0.283671 46.000000
3.516370 -0.076004 0.284094 44.000000
3.517118 -0.086816 0.284165 59.000000
3.518829 -0.097660 0.284306 53.000000
3.521504 -0.108547 0.284518 54.000000
3.524145 -0.119450 0.284730 47.000000
3.526752 -0.130371 0.284942 43.000000
3.529326 -0.141309 0.285154 52.000000
3.531866 -0.152264 0.285366 46.000000
3.531382 -0.163099 0.285366 52.000000
3.532858 -0.174030 0.285507 49.000000
3.540276 -0.185282 0.286072 38.000000
3.540688 -0.196198 0.286143 48.000000
3.547039 -0.207465 0.286637 46.000000
3.544395 -0.218224 0.286496 57.000000
3.542713 -0.229033 0.286425 37.000000
3.542989 -0.239968 0.286496 52.000000
3.546216 -0.251117 0.286778 36.000000
3.543440 -0.261849 0.286637 43.000000
3.541625 -0.272643 0.286566 42.000000
3.547732 -0.284062 0.287061 42.000000
3.550821 -0.295275 0.287343 37.000000
3.556855 -0.306765 0.287838 41.000000
3.560865 -0.318118 0.288191 39.000000
3.559872 -0.329041 0.288191 55.000000
3.567783 -0.340811 0.288826 45.000000
3.573670 -0.352439 0.289321 46.000000
3.572572 -0.363401 0.289321 50.000000
3.576400 -0.374878 0.289674 47.000000
3.583168 -0.386702 0.290239 43.000000
3.587913 -0.398352 0.290663 24.000000
3.588657 -0.409583 0.290804 32.000000
3.583420 -0.420128 0.290522 27.000000
3.582114 -0.431120 0.290522 26.000000
3.581765 -0.442229 0.290592 22.000000
3.539816 -0.448093 0.287696 6.000000
3.382042 0.250233 0.232583 12.000000
3.465446 0.245706 0.237404 43.000000
3.461204 0.234736 0.237113 36.000000
3.467885 0.224503 0.237462 47.000000
3.466564 0.213740 0.237346 62.000000
3.466207 0.203045 0.237288 43.000000
3.466814 0.192410 0.237288 57.000000
3.469382 0.181877 0.237404 46.000000
3.471918 0.171331 0.237520 60.000000
3.474422 0.160770 0.237636 47.000000
3.476893 0.150196 0.237752 43.000000
3.482325 0.139728 0.238043 51.000000
3.483735 0.129081 0.238101 54.000000
3.486110 0.118460 0.238217 49.000000
3.489451 0.107856 0.238391 56.000000
3.488767 0.097122 0.238333 59.000000
3.487053 0.086369 0.238217 46.000000
3.492292 0.075778 0.238507 59.000000
3.493506 0.065082 0.238566 52.000000
3.495686 0.054395 0.238682 57.000000
3.494838 0.043658 0.238624 54.000000
3.495954 0.032945 0.238682 62.000000
3.497037 0.022225 0.238740 50.000000
3.500083 0.011506 0.238914 65.000000
3.499104 0.000768 0.238856 58.000000
3.499090 -0.009967 0.238856 63.000000
3.500041 -0.020708 0.238914 54.000000
3.497964 -0.031428 0.238798 36.000000
3.500846 -0.042196 0.238972 51.000000
3.499702 -0.052921 0.238914 47.000000
3.502518 -0.063712 0.239088 67.000000
3.504302 -0.074500 0.239204 44.000000
3.507051 -0.085324 0.239379 55.000000
3.509767 -0.096166 0.239553 43.000000
3.514444 -0.107086 0.239843 49.000000
3.519088 -0.118035 0.240134 42.000000
3.523697 -0.129014 0.240424 53.000000
3.526278 -0.139943 0.240599 42.000000
3.532813 -0.151060 0.241005 42.000000
3.534328 -0.161990 0.241121 45.000000
3.532817 -0.172783 0.241063 67.000000
3.545231 -0.184296 0.241818 31.000000
3.535678 -0.194677 0.241296 49.000000
3.538053 -0.205697 0.241470 65.000000
3.540395 -0.216734 0.241644 53.000000
3.539713 -0.227595 0.241644 38.000000
3.541987 -0.238655 0.241818 50.000000
3.546217 -0.249872 0.242109 49.000000
3.549416 -0.261044 0.242341 47.000000
3.549594 -0.272009 0.242399 50.000000
3.544762 -0.282580 0.242167 44.000000
3.549848 -0.293949 0.242515 40.000000
3.547935 -0.304752 0.242457 51.000000
3.544994 -0.315459 0.242341 46.000000
3.545004 -0.326425 0.242399 51.000000
3.545973 -0.337489 0.242515 48.000000
3.551876 -0.349050 0.242922 47.000000
3.560720 -0.360953 0.243503 50.000000
3.565554 -0.372499 0.243851 43.000000
3.573327 -0.384398 0.244374 44.000000
3.580069 -0.396238 0.244839 40.000000
3.581812 -0.407559 0.245013 34.000000
3.580545 -0.418546 0.245013 24.000000
3.578253 -0.429410 0.244955 29.000000
3.576919 -0.440386 0.244955 43.000000
3.574560 -0.451232 0.244897 40.000000
3.567219 -0.461428 0.244548 42.000000
3.562818 -0.471976 0.244374 43.000000
3.473310 -0.470956 0.239204 11.000000
3.676712 0.247453 0.206009 20.000000
3.572783 0.229416 0.201155 29.000000
3.481742 0.212816 0.196901 35.000000
3.486368 0.202367 0.197086 44.000000
3.488967 0.191780 0.197178 31.000000
3.470585 0.180085 0.196300 45.000000
3.468127 0.169290 0.196161 36.000000
3.463641 0.158419 0.195930 51.000000
3.466107 0.147878 0.196022 55.000000
3.467543 0.137283 0.196069 55.000000
3.471941 0.126791 0.196254 46.000000
3.472313 0.116139 0.196254 48.000000
3.473652 0.105516 0.196300 56.000000
3.478952 0.094996 0.196531 61.000000
3.477230 0.084274 0.196439 46.000000
3.477472 0.073605 0.196439 64.000000
3.479679 0.062973 0.196531 56.000000
3.479856 0.052297 0.196531 52.000000
3.478002 0.041596 0.196439 52.000000
3.480111 0.030944 0.196531 60.000000
3.478192 0.020255 0.196439 51.000000
3.481234 0.009593 0.196577 35.000000
3.487241 -0.001087 0.196855 38.000000
3.486222 -0.011783 0.196808 46.000000
3.489166 -0.022497 0.196947 42.000000
3.492078 -0.033229 0.197086 41.000000
3.494956 -0.043979 0.197225 43.000000
3.497801 -0.054747 0.197363 49.000000
3.500612 -0.065533 0.197502 45.000000
3.500395 -0.076272 0.197502 49.000000
3.503141 -0.087084 0.197641 59.000000
3.502857 -0.097831 0.197641 41.000000
3.506534 -0.108700 0.197826 47.000000
3.511176 -0.119626 0.198057 53.000000
3.514786 -0.130544 0.198242 54.000000
3.515367 -0.141367 0.198288 50.000000
3.518909 -0.152323 0.198473 54.000000
3.520420 -0.163210 0.198565 56.000000
3.520901 -0.174058 0.198612 37.000000
3.521348 -0.184911 0.198658 47.000000
3.515777 -0.195438 0.198427 36.000000
3.515160 -0.206224 0.198427 52.000000
3.518499 -0.217252 0.198612 51.000000
3.517816 -0.228046 0.198612 40.000000
3.521087 -0.239106 0.198797 53.000000
3.522330 -0.250049 0.198889 52.000000
3.527523 -0.261295 0.199166 31.000000
3.527701 -0.272192 0.199213 53.000000
3.531828 -0.283412 0.199444 44.000000
3.530942 -0.294246 0.199444 51.000000
3.534004 -0.305420 0.199629 36.000000
3.533050 -0.316261 0.199629 30.000000
3.533058 -0.327190 0.199675 36.000000
3.533032 -0.338123 0.199721 44.000000
3.533966 -0.349156 0.199814 45.000000
3.539835 -0.360703 0.200137 44.000000
3.546660 -0.372393 0.200507 29.000000
3.549473 -0.383701 0.200692 25.000000
3.554236 -0.395249 0.200970 29.000000
3.554992 -0.406378 0.201062 15.000000
3.563650 -0.418444 0.201524 17.000000
3.560366 -0.429137 0.201432 32.000000
3.541187 -0.437857 0.200600 5.000000
3.778967 0.243947 0.163914 24.000000
3.744783 0.230209 0.162729 36.000000
3.723522 0.217440 0.161984 43.000000
3.669286 0.202985 0.160122 42.000000
3.531160 0.184494 0.155417 37.000000
3.491781 0.171700 0.154062 43.000000
3.482307 0.160528 0.153724 47.000000
3.466807 0.149158 0.153182 47.000000
3.465251 0.138442 0.153115 50.000000
3.466658 0.127847 0.153148 55.000000
3.466035 0.117177 0.153115 57.000000
3.465379 0.106512 0.153081 48.000000
3.465690 0.095880 0.153081 51.000000
3.464969 0.085222 0.153047 59.000000
3.462216 0.074527 0.152945 47.000000
3.462429 0.063905 0.152945 51.000000
3.461609 0.053267 0.152911 68.000000
3.461756 0.042647 0.152911 59.000000
3.467867 0.032081 0.153115 62.000000
3.474945 0.021484 0.153352 48.000000
3.478992 0.010835 0.153487 67.000000
3.485006 0.000161 0.153690 59.000000
3.490986 -0.010550 0.153893 41.000000
3.488939 -0.021248 0.153825 55.000000
3.493854 -0.031998 0.153995 45.000000
3.493739 -0.042717 0.153995 51.000000
3.494591 -0.053450 0.154029 52.000000
3.493411 -0.064153 0.153995 50.000000
3.494197 -0.074892 0.154029 54.000000
3.495950 -0.085661 0.154096 54.000000
3.497668 -0.096441 0.154164 59.000000
3.495358 -0.107110 0.154096 54.000000
3.497011 -0.117900 0.154164 53.000000
3.497631 -0.128665 0.154198 67.000000
3.505209 -0.139715 0.154469 52.000000
3.505762 -0.150511 0.154503 46.000000
3.506283 -0.161312 0.154536 52.000000
3.505771 -0.172068 0.154536 48.000000
3.510217 -0.183084 0.154706 42.000000
3.511635 -0.193962 0.154773 58.000000
3.509028 -0.204619 0.154706 44.000000
3.508384 -0.215383 0.154706 48.000000
3.510698 -0.226339 0.154807 59.000000
3.514973 -0.237446 0.154976 49.000000
3.516222 -0.248370 0.155044 45.000000
3.520427 -0.259524 0.155213 42.000000
3.524597 -0.270706 0.155383 56.000000
3.528731 -0.281917 0.155552 51.000000
3.531833 -0.293073 0.155687 56.000000
3.535896 -0.304336 0.155857 52.000000
3.536937 -0.315360 0.155924 35.000000
3.542919 -0.326853 0.156161 34.000000
3.546874 -0.338196 0.156331 38.000000
3.545820 -0.349076 0.156331 32.000000
3.553681 -0.360863 0.156635 32.000000
3.552557 -0.371764 0.156635 20.000000
3.780199 0.244122 0.117833 37.000000
3.777937 0.232338 0.117768 40.000000
3.770647 0.220278 0.117595 41.000000
3.757330 0.207931 0.117292 33.000000
3.737983 0.195353 0.116860 50.000000
3.697624 0.181857 0.115972 44.000000
3.628257 0.167267 0.114458 29.000000
3.538858 0.152238 0.112510 34.000000
3.493356 0.139529 0.111514 36.000000
3.475785 0.128142 0.111125 46.000000
3.460174 0.116932 0.110779 51.000000
3.453522 0.106099 0.110627 44.000000
3.445836 0.095279 0.110454 30.000000
3.453109 0.084882 0.110606 49.000000
3.455352 0.074331 0.110649 53.000000
3.456563 0.063748 0.110670 39.000000
3.457742 0.053159 0.110692 47.000000
3.458889 0.042563 0.110714 52.000000
3.462002 0.031980 0.110779 38.000000
3.466083 0.021385 0.110865 51.000000
3.465132 0.010747 0.110844 35.000000
3.469148 0.000118 0.110930 41.000000
3.471132 -0.010531 0.110973 36.000000
3.475082 -0.021203 0.111060 46.000000
3.479999 -0.031908 0.111168 42.000000
3.481884 -0.042608 0.111211 50.000000
3.492733 -0.053455 0.111449 27.000000
3.480558 -0.063954 0.111190 37.000000
3.480345 -0.074632 0.111190 45.000000
3.477101 -0.085237 0.111125 62.000000
3.483819 -0.096094 0.111276 46.000000
3.483508 -0.106782 0.111276 46.000000
3.483164 -0.117469 0.111276 39.000000
3.484785 -0.128227 0.111320 45.000000
3.489371 -0.139115 0.111428 43.000000
3.490925 -0.149905 0.111471 45.000000
3.493445 -0.160751 0.111536 45.000000
3.494932 -0.171566 0.111579 43.000000
3.499382 -0.182546 0.111688 37.000000
3.501800 -0.193445 0.111752 55.000000
3.499194 -0.204072 0.111709 41.000000
3.494560 -0.214563 0.111623 53.000000
3.493885 -0.225283 0.111623 34.000000
3.487192 -0.235599 0.111493 32.000000
3.488448 -0.246436 0.111536 38.000000
3.489669 -0.257284 0.111579 31.000000
3.490858 -0.268141 0.111623 34.000000
3.498988 -0.279564 0.111817 45.000000
3.504092 -0.290791 0.111947 39.000000
3.503183 -0.301540 0.111947 22.000000
3.519171 -0.313790 0.112315 24.000000
3.542085 -0.326782 0.112834 7.000000
3.809945 0.245279 0.071351 24.000000
3.788722 0.232245 0.071147 35.000000
3.783427 0.220272 0.071092 42.000000
3.785084 0.208719 0.071101 37.000000
3.766732 0.196119 0.070925 48.000000
3.748339 0.183635 0.070749 76.000000
3.739895 0.171722 0.070666 51.000000
3.713430 0.159095 0.070416 53.000000
3.680928 0.146393 0.070111 68.000000
3.657377 0.134222 0.069889 62.000000
3.553835 0.119517 0.068927 41.000000
3.495214 0.106818 0.068381 41.000000
3.493527 0.096039 0.068363 39.000000
3.473811 0.084835 0.068178 42.000000
3.469057 0.074071 0.068132 35.000000
3.467268 0.063391 0.068113 44.000000
3.459448 0.052633 0.068039 46.000000
3.454593 0.041959 0.067993 35.000000
3.461705 0.031423 0.068058 57.000000
3.458786 0.020785 0.068030 56.000000
3.458833 0.010173 0.068030 64.000000
3.459848 -0.000439 0.068039 61.000000
3.459830 -0.011053 0.068039 66.000000
3.460780 -0.021674 0.068048 63.000000
3.465697 -0.032339 0.068095 67.000000
3.468581 -0.043009 0.068122 77.000000
3.468433 -0.053650 0.068122 52.000000
3.470251 -0.064328 0.068141 53.000000
3.465039 -0.074866 0.068095 54.000000
3.467792 -0.085570 0.068122 66.000000
3.469512 -0.096265 0.068141 68.000000
3.469201 -0.106909 0.068141 46.000000
3.471854 -0.117653 0.068169 54.000000
3.475474 -0.128453 0.068206 52.000000
3.481059 -0.139355 0.068261 57.000000
3.482612 -0.150121 0.068280 53.000000
3.485132 -0.160943 0.068307 48.000000
3.485621 -0.171684 0.068317 62.000000
3.489072 -0.182586 0.068354 39.000000
3.493488 -0.193567 0.068400 52.000000
3.494874 -0.204401 0.068418 43.000000
3.501217 -0.215553 0.068483 59.000000
3.506526 -0.226681 0.068539 57.000000
3.508807 -0.237641 0.068566 82.000000
3.511054 -0.248617 0.068594 82.000000
3.506286 -0.259092 0.068557 68.000000
3.503480 -0.269695 0.068539 46.000000
3.484695 -0.279003 0.068372 29.000000
3.500763 -0.291104 0.068529 51.000000
3.429120 -0.295734 0.067873 12.000000
3.798024 0.245279 0.023611 35.000000
3.784786 0.232762 0.023658 48.000000
3.779492 0.220797 0.023678 50.000000
3.774161 0.208867 0.023697 49.000000
3.759805 0.196500 0.023747 57.000000
3.759391 0.184915 0.023751 39.000000
3.739962 0.172453 0.023817 65.000000
3.731483 0.160588 0.023847 84.000000
3.714972 0.148455 0.023903 42.000000
3.707415 0.136760 0.023930 57.000000
3.695824 0.124976 0.023969 69.000000
3.658209 0.112457 0.024095 49.000000
3.597561 0.099526 0.024298 45.000000
3.503879 0.086147 0.024609 37.000000
3.492130 0.075134 0.024649 39.000000
3.475347 0.064101 0.024706 43.000000
3.466528 0.053297 0.024735 42.000000
3.462676 0.042611 0.024749 26.000000
3.456791 0.031930 0.024769 33.000000
3.459872 0.021344 0.024759 41.000000
3.457922 0.010723 0.024765 38.000000
3.459938 0.000115 0.024759 38.000000
3.458922 -0.010498 0.024762 46.000000
3.457874 -0.021104 0.024765 46.000000
3.459792 -0.031730 0.024759 33.000000
3.463679 -0.042392 0.024745 34.000000
3.464532 -0.053033 0.024742 56.000000
3.462353 -0.063626 0.024749 39.000000
3.470140 -0.074417 0.024722 52.000000
3.464897 -0.084942 0.024739 40.000000
3.470618 -0.095735 0.024719 54.000000
3.472307 -0.106443 0.024712 57.000000
3.469965 -0.117028 0.024719 49.000000
3.476585 -0.127928 0.024696 44.000000
3.478174 -0.138673 0.024689 34.000000
3.478732 -0.149386 0.024686 35.000000
3.478257 -0.160058 0.024686 41.000000
3.479747 -0.170825 0.024679 38.000000
3.479207 -0.181500 0.024679 48.000000
3.482628 -0.192393 0.024666 42.000000
3.546912 -0.206839 0.024450 18.000000
3.542268 -0.217476 0.024464 13.000000
3.535596 -0.227959 0.024483 14.000000
3.534880 -0.238805 0.024483 15.000000
3.778623 0.244584 -0.023055 44.000000
3.780353 0.233052 -0.023071 37.000000
3.766078 0.220577 -0.022835 55.000000
3.758750 0.208580 -0.022710 60.000000
3.743396 0.196212 -0.022458 78.000000
3.738987 0.184480 -0.022380 64.000000
3.734542 0.172778 -0.022301 44.000000
3.728061 0.161018 -0.022191 76.000000
3.722543 0.149340 -0.022097 93.000000
3.716989 0.137697 -0.022003 57.000000
3.715395 0.126225 -0.021972 63.000000
3.707770 0.114580 -0.021846 62.000000
3.700108 0.102982 -0.021720 62.000000
3.703405 0.091704 -0.021767 72.000000
3.700670 0.080277 -0.021720 82.000000
3.645915 0.067905 -0.020856 57.000000
3.512139 0.054649 -0.018752 36.000000
3.495293 0.043663 -0.018485 46.000000
3.483413 0.032828 -0.018296 49.000000
3.474498 0.022085 -0.018155 42.000000
3.471550 0.011415 -0.018108 43.000000
3.463570 0.000764 -0.017982 52.000000
3.466555 -0.009871 -0.018029 58.000000
3.465509 -0.020500 -0.018013 69.000000
3.464430 -0.031123 -0.017998 72.000000
3.465318 -0.041764 -0.018013 72.000000
3.468173 -0.052441 -0.018060 64.000000
3.471994 -0.063154 -0.018123 47.000000
3.472784 -0.073827 -0.018139 41.000000
3.474540 -0.084530 -0.018170 34.000000
3.473265 -0.095161 -0.018155 42.000000
3.472957 -0.105817 -0.018155 39.000000
3.475614 -0.116572 -0.018202 51.000000
3.487230 -0.127675 -0.018390 30.000000
3.478830 -0.138055 -0.018265 37.000000
3.557307 -0.152110 -0.019505 19.000000
3.777636 0.243956 -0.068460 29.000000
3.769387 0.231810 -0.068210 32.000000
3.745133 0.218779 -0.067517 45.000000
3.739798 0.206955 -0.067350 52.000000
3.731432 0.195008 -0.067100 52.000000
3.726022 0.183263 -0.066934 57.000000
3.715583 0.171321 -0.066629 63.000000
3.707103 0.159531 -0.066379 54.000000
3.703579 0.147996 -0.066268 65.000000
3.697024 0.136373 -0.066074 62.000000
3.694427 0.124928 -0.065990 87.000000
3.686800 0.113345 -0.065768 49.000000
3.685132 0.101977 -0.065713 50.000000
3.687426 0.090721 -0.065768 44.000000
3.683690 0.079320 -0.065658 61.000000
3.674921 0.067849 -0.065408 56.000000
3.667116 0.056449 -0.065186 67.000000
3.643283 0.044895 -0.064520 50.000000
3.603421 0.033334 -0.063410 43.000000
3.535534 0.021837 -0.061523 41.000000
3.499598 0.010866 -0.060524 37.000000
3.472625 0.000119 -0.059775 28.000000
3.464612 -0.010513 -0.059553 38.000000
3.457567 -0.021102 -0.059359 33.000000
3.448490 -0.031630 -0.059109 28.000000
3.449376 -0.042222 -0.059137 22.000000
3.467221 -0.053073 -0.059636 30.000000
3.482034 -0.063981 -0.060053 28.000000
3.484819 -0.074726 -0.060136 43.000000
3.505560 -0.085925 -0.060719 26.000000
3.520268 -0.097088 -0.061135 11.000000
3.571910 -0.109462 -0.062578 7.000000
3.819645 0.235470 -0.117556 23.000000
3.737558 0.218910 -0.114210 47.000000
3.729233 0.206945 -0.113847 61.000000
3.726857 0.195346 -0.113727 53.000000
3.718457 0.183469 -0.113364 62.000000
3.715009 0.171876 -0.113203 46.000000
3.704539 0.160005 -0.112759 53.000000
3.704014 0.148599 -0.112719 48.000000
3.696464 0.136939 -0.112396 57.000000
3.693871 0.125496 -0.112276 64.000000
3.686249 0.113917 -0.111953 54.000000
3.683585 0.102524 -0.111832 57.000000
3.684881 0.091247 -0.111872 58.000000
3.683146 0.079899 -0.111792 58.000000
3.679377 0.068525 -0.111631 55.000000
3.678571 0.057221 -0.111590 46.000000
3.677730 0.045922 -0.111550 57.000000
3.673857 0.034602 -0.111389 55.000000
3.678942 0.023361 -0.111590 77.000000
3.633034 0.011929 -0.109736 35.000000
3.627058 0.000782 -0.109494 54.000000
3.585078 -0.010222 -0.107802 34.000000
3.551058 -0.021016 -0.106431 45.000000
3.578953 -0.032165 -0.107560 34.000000
3.609810 -0.043521 -0.108809 24.000000
3.683591 -0.055722 -0.111792 32.000000
3.704382 -0.067407 -0.112638 49.000000
3.744116 -0.079625 -0.114251 34.000000
3.760835 -0.091527 -0.114936 26.000000
3.808479 -0.104383 -0.116870 13.000000
3.736386 0.251488 -0.159253 25.000000
3.738136 0.240088 -0.159305 27.000000
3.725898 0.227822 -0.158625 33.000000
3.729570 0.216564 -0.158782 48.000000
3.719248 0.204515 -0.158206 76.000000
3.709886 0.192582 -0.157683 44.000000
3.704474 0.180906 -0.157369 74.000000
3.700024 0.169310 -0.157107 64.000000
3.696536 0.157786 -0.156897 55.000000
3.698998 0.146524 -0.157002 48.000000
3.694440 0.134991 -0.156740 84.000000
3.697831 0.123757 -0.156897 34.000000
3.710171 0.112780 -0.157526 19.000000
3.695526 0.100983 -0.156740 28.000000
3.689828 0.089497 -0.156426 46.000000
3.688089 0.078134 -0.156322 31.000000
3.684318 0.066745 -0.156112 36.000000
3.684505 0.055441 -0.156112 44.000000
3.685656 0.044149 -0.156165 46.000000
3.684776 0.032832 -0.156112 56.000000
3.687855 0.021546 -0.156269 70.000000
3.687903 0.010232 -0.156269 41.000000
3.691912 -0.001083 -0.156479 42.000000
3.698882 -0.012430 -0.156845 50.000000
3.703819 -0.023809 -0.157107 49.000000
3.713715 -0.035264 -0.157630 56.000000
3.718582 -0.046718 -0.157892 39.000000
3.721416 -0.058172 -0.158049 29.000000
3.726213 -0.069681 -0.158311 51.000000
3.733968 -0.081284 -0.158729 34.000000
3.728710 -0.092617 -0.158468 24.000000
3.758356 -0.104882 -0.160038 11.000000
3.739569 0.253584 -0.205835 20.000000
3.715434 0.240501 -0.204217 48.000000
3.711174 0.228794 -0.203894 44.000000
3.706877 0.217116 -0.203570 60.000000
3.703541 0.205522 -0.203311 53.000000
3.698174 0.193846 -0.202923 57.000000
3.692772 0.182205 -0.202535 80.000000
3.690323 0.170737 -0.202341 59.000000
3.688835 0.159328 -0.202211 53.000000
3.687312 0.147930 -0.202082 100.000000
3.687749 0.136617 -0.202082 69.000000
3.687154 0.125269 -0.202017 75.000000
3.686523 0.113925 -0.201952 54.000000
3.686855 0.102615 -0.201952 60.000000
3.692140 0.091426 -0.202276 109.000000
3.681429 0.079862 -0.201564 58.000000
3.677666 0.068493 -0.201305 46.000000
3.675863 0.057179 -0.201176 40.000000
3.676021 0.045901 -0.201176 35.000000
3.674149 0.034604 -0.201046 66.000000
3.676234 0.023345 -0.201176 53.000000
3.681278 0.012082 -0.201499 74.000000
3.684291 0.000788 -0.201694 86.000000
3.691261 -0.010536 -0.202147 58.000000
3.696201 -0.021891 -0.202470 66.000000
3.700108 -0.033266 -0.202729 46.000000
3.709967 -0.044739 -0.203376 47.000000
3.713804 -0.056182 -0.203635 53.000000
3.720598 -0.067703 -0.204088 59.000000
3.724363 -0.079203 -0.204347 37.000000
3.729091 -0.090751 -0.204670 38.000000
3.721812 -0.101999 -0.204217 20.000000
3.745687 0.263663 -0.250879 18.000000
3.717629 0.250219 -0.248659 39.000000
3.711414 0.238363 -0.248123 35.000000
3.705161 0.226547 -0.247587 38.000000
3.687922 0.214133 -0.246209 64.000000
3.683584 0.202542 -0.245827 52.000000
3.680205 0.191032 -0.245520 50.000000
3.678782 0.179643 -0.245367 63.000000
3.675332 0.168172 -0.245061 44.000000
3.673839 0.156810 -0.244908 53.000000
3.677291 0.145657 -0.245138 47.000000
3.674731 0.134265 -0.244908 39.000000
3.677119 0.123058 -0.245061 45.000000
3.677480 0.111776 -0.245061 57.000000
3.677805 0.100493 -0.245061 43.000000
3.673112 0.089087 -0.244678 36.000000
3.672372 0.077796 -0.244602 46.000000
3.670599 0.066492 -0.244449 50.000000
3.666798 0.055169 -0.244143 40.000000
3.660968 0.043846 -0.243683 48.000000
3.658094 0.032586 -0.243454 33.000000
3.655186 0.021345 -0.243224 32.000000
3.705087 0.010285 -0.247051 137.000000
3.673195 -0.001083 -0.244602 66.000000
3.678160 -0.012367 -0.244985 57.000000
3.685084 -0.023694 -0.245520 63.000000
3.693967 -0.035082 -0.246209 35.000000
3.696833 -0.046452 -0.246439 40.000000
3.701658 -0.057870 -0.246822 41.000000
3.710435 -0.069391 -0.247511 46.000000
3.712198 -0.080817 -0.247664 36.000000
3.719907 -0.092401 -0.248276 34.000000
3.726583 -0.104005 -0.248812 26.000000
3.672430 -0.113788 -0.244678 11.000000
3.718061 0.262290 -0.294410 29.000000
3.717854 0.250815 -0.294321 40.000000
3.709660 0.238833 -0.293522 47.000000
3.704411 0.227086 -0.292990 60.000000
3.697134 0.215257 -0.292280 71.000000
3.693799 0.203695 -0.291925 72.000000
3.691423 0.192206 -0.291659 75.000000
3.689011 0.180734 -0.291393 88.000000
3.692533 0.169552 -0.291659 55.000000
3.690050 0.158095 -0.291393 55.000000
3.689523 0.146734 -0.291304 77.000000
3.689955 0.135414 -0.291304 70.000000
3.691349 0.124126 -0.291393 74.000000
3.697686 0.112983 -0.291925 63.000000
3.701002 0.101720 -0.292192 78.000000
3.708267 0.090534 -0.292813 92.000000
3.711515 0.079220 -0.293079 72.000000
3.700786 0.067634 -0.292103 42.000000
3.700976 0.056280 -0.292103 51.000000
3.690175 0.044794 -0.291127 64.000000
3.686311 0.033436 -0.290772 62.000000
3.695361 0.022180 -0.291571 85.000000
3.680471 0.010800 -0.290240 54.000000
3.679490 -0.000491 -0.290151 61.000000
3.677480 -0.011773 -0.289974 55.000000
3.678422 -0.023062 -0.290062 66.000000
3.681322 -0.034375 -0.290328 56.000000
3.690163 -0.045781 -0.291127 49.000000
3.695981 -0.057196 -0.291659 51.000000
3.704751 -0.068702 -0.292458 46.000000
3.718464 -0.080370 -0.293700 44.000000
3.722183 -0.091876 -0.294055 30.000000
3.731840 -0.103573 -0.294942 28.000000
3.727523 -0.114898 -0.294587 18.000000
3.704650 0.261409 -0.340111 30.000000
3.711391 0.250445 -0.340719 49.000000
3.705192 0.238608 -0.340010 40.000000
3.702928 0.227056 -0.339706 62.000000
3.700628 0.215520 -0.339403 60.000000
3.695311 0.203835 -0.338795 57.000000
3.694926 0.192445 -0.338694 54.000000
3.696492 0.181157 -0.338795 65.000000
3.696037 0.169770 -0.338694 60.000000
3.693559 0.158301 -0.338390 52.000000
3.692039 0.146889 -0.338188 58.000000
3.698437 0.135782 -0.338795 41.000000
3.708779 0.124772 -0.339808 40.000000
3.717100 0.113639 -0.340617 45.000000
3.720415 0.102318 -0.340921 51.000000
3.734634 0.091248 -0.342338 58.000000
3.740865 0.079919 -0.342946 49.000000
3.743082 0.068479 -0.343148 102.000000
3.742279 0.056979 -0.343047 55.000000
3.727515 0.045312 -0.341529 52.000000
3.715698 0.033764 -0.340314 39.000000
3.713795 0.022351 -0.340111 38.000000
3.703897 0.010925 -0.339099 48.000000
3.698939 -0.000440 -0.338593 42.000000
3.695936 -0.011779 -0.338289 46.000000
3.694887 -0.023112 -0.338188 31.000000
3.697784 -0.034475 -0.338492 45.000000
3.701640 -0.045867 -0.338897 44.000000
3.704466 -0.057269 -0.339200 28.000000
3.718198 -0.068887 -0.340617 47.000000
3.725927 -0.080463 -0.341427 37.000000
3.734613 -0.092112 -0.342338 43.000000
3.738291 -0.103678 -0.342743 31.000000
3.744916 -0.115359 -0.343452 23.000000
3.765155 0.254659 -0.391321 19.000000
3.708410 0.239400 -0.384765 60.000000
3.704168 0.227717 -0.384200 78.000000
3.697906 0.215947 -0.383409 79.000000
3.693591 0.204327 -0.382843 82.000000
3.691223 0.192839 -0.382504 80.000000
3.689813 0.181416 -0.382278 77.000000
3.693330 0.170232 -0.382617 83.000000
3.691849 0.158815 -0.382391 83.000000
3.698276 0.147725 -0.383069 64.000000
3.700698 0.136451 -0.383296 57.000000
3.712022 0.125465 -0.384539 48.000000
3.726294 0.114502 -0.386121 54.000000
3.736559 0.103343 -0.387252 45.000000
3.754738 0.092317 -0.389286 44.000000
3.769904 0.081116 -0.390982 34.000000
3.767155 0.069495 -0.390642 67.000000
3.759403 0.057816 -0.389738 39.000000
3.747640 0.046136 -0.388382 54.000000
3.743790 0.034602 -0.387930 39.000000
3.734936 0.023062 -0.386912 43.000000
3.722073 0.011565 -0.385443 47.000000
3.717123 0.000146 -0.384878 67.000000
3.715118 -0.011252 -0.384652 55.000000
3.712086 -0.022631 -0.384313 61.000000
3.715973 -0.034057 -0.384765 53.000000
3.717838 -0.045481 -0.384991 51.000000
3.719668 -0.056918 -0.385217 46.000000
3.722456 -0.068385 -0.385556 52.000000
3.732163 -0.080019 -0.386686 44.000000
3.735873 -0.091566 -0.387139 43.000000
3.737561 -0.103082 -0.387365 31.000000
3.739213 -0.114609 -0.387591 19.000000
3.720978 0.251096 -0.432967 30.000000
3.702920 0.238461 -0.430585 52.000000
3.698684 0.226795 -0.429959 59.000000
3.707285 0.215910 -0.430961 45.000000
3.699015 0.204041 -0.429833 57.000000
3.691698 0.192276 -0.428831 68.000000
3.694252 0.181047 -0.429081 55.000000
3.692808 0.169620 -0.428831 52.000000
3.697276 0.158461 -0.429332 61.000000
3.702701 0.147316 -0.429959 62.000000
3.709084 0.136176 -0.430711 47.000000
3.736256 0.125705 -0.434095 40.000000
3.738607 0.114303 -0.434345 43.000000
3.736957 0.102778 -0.434095 50.000000
3.751140 0.091656 -0.435849 30.000000
3.755950 0.045666 -0.436351 26.000000
3.753097 0.034115 -0.435975 35.000000
3.747231 0.022563 -0.435223 34.000000
3.741330 0.011047 -0.434471 41.000000
3.734401 -0.000433 -0.433593 40.000000
3.730414 -0.011878 -0.433092 31.000000
3.717463 -0.023246 -0.431463 52.000000
3.715390 -0.034633 -0.431212 48.000000
3.714274 -0.046020 -0.431087 40.000000
3.715107 -0.057430 -0.431212 58.000000
3.721857 -0.068954 -0.432089 45.000000
3.726588 -0.080478 -0.432716 41.000000
3.740209 -0.092248 -0.434471 30.000000
3.755776 -0.104158 -0.436476 20.000000
3.774280 -0.116254 -0.438857 12.000000
3.774189 0.256587 -0.486548 20.000000
3.731467 0.242188 -0.480501 63.000000
3.725272 0.230312 -0.479539 75.000000
3.718051 0.218418 -0.478439 54.000000
3.708814 0.206461 -0.477065 74.000000
3.706462 0.194925 -0.476652 86.000000
3.703086 0.183358 -0.476102 85.000000
3.705610 0.172088 -0.476377 74.000000
3.708099 0.160804 -0.476652 91.000000
3.719462 0.149864 -0.478164 78.000000
3.735742 0.139040 -0.480363 66.000000
3.742090 0.127781 -0.481188 68.000000
3.767215 0.117066 -0.484624 45.000000
3.776468 0.105756 -0.485861 40.000000
3.779745 0.094244 -0.486273 30.000000
3.811321 0.048239 -0.490534 15.000000
3.776784 0.036217 -0.485724 35.000000
3.771925 0.024598 -0.485036 35.000000
3.759106 0.012982 -0.483250 46.000000
3.746252 0.001446 -0.481463 62.000000
3.745248 -0.010045 -0.481325 44.000000
3.735295 -0.021477 -0.479951 45.000000
3.731250 -0.032901 -0.479401 53.000000
3.726179 -0.044289 -0.478714 64.000000
3.735929 -0.055870 -0.480088 44.000000
3.746634 -0.067529 -0.481600 25.000000
3.742448 -0.078939 -0.481050 43.000000
3.749120 -0.090588 -0.482013 56.000000
3.746844 -0.102036 -0.481738 29.000000
3.769615 0.242119 -0.531368 23.000000
3.734810 0.228370 -0.525998 56.000000
3.730557 0.216622 -0.525252 62.000000
3.723306 0.204739 -0.524058 66.000000
3.717992 0.193006 -0.523163 68.000000
3.718567 0.181598 -0.523163 73.000000
3.723058 0.170371 -0.523760 60.000000
3.731466 0.159288 -0.524953 84.000000
3.742805 0.148273 -0.526594 68.000000
3.750159 0.137045 -0.527639 62.000000
3.764398 0.126006 -0.529727 49.000000
3.765755 0.114487 -0.529877 52.000000
3.788822 0.103561 -0.533308 24.000000
3.767345 0.033594 -0.529877 26.000000
3.752598 0.021945 -0.527639 25.000000
3.760558 0.010456 -0.528832 32.000000
3.756617 -0.001081 -0.528235 37.000000
3.744731 -0.012570 -0.526445 43.000000
3.741709 -0.024041 -0.525998 31.000000
3.739639 -0.035502 -0.525699 36.000000
3.743468 -0.047023 -0.526296 54.000000
3.753193 -0.058659 -0.527788 51.000000
3.760905 -0.070319 -0.528981 34.000000
3.769568 -0.082048 -0.530324 45.000000
3.773253 -0.093709 -0.530921 48.000000
3.773936 -0.105312 -0.531070 36.000000
3.781886 0.233146 -0.579687 27.000000
3.758937 0.220160 -0.575821 53.000000
3.754667 0.208354 -0.575016 56.000000
3.744447 0.196267 -0.573244 98.000000
3.744046 0.184729 -0.573083 103.000000
3.747553 0.173378 -0.573566 104.000000
3.752997 0.162093 -0.574371 73.000000
3.758408 0.150775 -0.575177 75.000000
3.772660 0.139754 -0.577432 51.000000
3.773071 0.128179 -0.577432 48.000000
3.780352 0.116815 -0.578560 51.000000
3.823115 0.106393 -0.585486 29.000000
3.794910 0.024086 -0.580654 37.000000
3.792993 0.012437 -0.580332 53.000000
3.786104 0.000799 -0.579204 41.000000
3.779181 -0.010796 -0.578076 48.000000
3.771234 -0.022343 -0.576788 57.000000
3.764240 -0.033850 -0.575660 62.000000
3.765105 -0.045410 -0.575821 47.000000
3.763961 -0.056946 -0.575660 59.000000
3.774623 -0.068692 -0.577432 38.000000
3.795115 -0.080715 -0.580815 24.000000
3.787943 -0.092189 -0.579687 41.000000
3.798495 -0.104108 -0.581459 23.000000
3.805014 0.244404 -0.630617 34.000000
3.793948 0.232004 -0.628541 59.000000
3.780877 0.219560 -0.626120 62.000000
3.802185 0.209101 -0.629752 41.000000
3.757563 0.195072 -0.621796 85.000000
3.757160 0.183495 -0.621623 95.000000
3.757706 0.171967 -0.621623 88.000000
3.762151 0.160607 -0.622315 89.000000
3.770500 0.149379 -0.623698 62.000000
3.775862 0.137992 -0.624563 64.000000
3.782173 0.126606 -0.625601 35.000000
3.780575 0.114942 -0.625255 20.000000
3.794126 0.010560 -0.627330 53.000000
3.799065 -0.001080 -0.628195 41.000000
3.786240 -0.012697 -0.625947 64.000000
3.773380 -0.024234 -0.623698 75.000000
3.770333 -0.035784 -0.623179 41.000000
3.762327 -0.047254 -0.621796 31.000000
3.761179 -0.058781 -0.621623 46.000000
3.766890 -0.070429 -0.622661 42.000000
3.772564 -0.082112 -0.623698 30.000000
3.776233 -0.093782 -0.624390 31.000000
3.794634 -0.105883 -0.627676 17.000000
3.800899 0.244697 -0.675710 69.000000
3.797708 0.232795 -0.674972 65.000000
3.796441 0.221029 -0.674603 89.000000
3.794157 0.209218 -0.674050 72.000000
3.791837 0.197424 -0.673496 94.000000
3.789480 0.185646 -0.672943 96.000000
3.787086 0.173884 -0.672390 75.000000
3.792511 0.162474 -0.673312 96.000000
3.792992 0.150838 -0.673312 82.000000
3.807188 0.139704 -0.675894 117.000000
3.802687 0.127859 -0.674972 86.000000
3.810920 0.116431 -0.676448 35.000000
3.796973 -0.000520 -0.673496 48.000000
3.790074 -0.012146 -0.672205 66.000000
3.786087 -0.023748 -0.671467 58.000000
3.782065 -0.035327 -0.670729 57.000000
3.777025 -0.046868 -0.669807 58.000000
3.775881 -0.058440 -0.669623 65.000000
3.778632 -0.070079 -0.670176 71.000000
3.778399 -0.081672 -0.670176 57.000000
3.783044 -0.093385 -0.671098 53.000000
3.783722 -0.105018 -0.671283 50.000000
3.765700 -0.116079 -0.667962 22.000000
3.847200 0.258981 -0.731853 22.000000
3.783392 0.243009 -0.718910 54.000000
3.782162 0.231280 -0.718517 78.000000
3.782854 0.219675 -0.718517 81.000000
3.784489 0.208123 -0.718714 68.000000
3.786089 0.196562 -0.718910 96.000000
3.790592 0.185138 -0.719694 72.000000
3.798979 0.173869 -0.721263 84.000000
3.805372 0.162466 -0.722440 88.000000
3.808792 0.150908 -0.723028 75.000000
3.809237 0.139222 -0.723028 58.000000
3.813567 0.127667 -0.723813 57.000000
3.878628 0.117953 -0.736756 26.000000
3.799033 -0.001080 -0.720479 32.000000
3.805876 -0.012756 -0.721851 40.000000
3.801896 -0.024409 -0.721067 37.000000
3.799843 -0.036055 -0.720675 48.000000
3.794811 -0.047652 -0.719694 47.000000
3.793667 -0.059279 -0.719498 44.000000
3.793467 -0.070918 -0.719498 45.000000
3.794212 -0.082577 -0.719694 45.000000
3.802764 -0.094433 -0.721459 38.000000
3.808337 -0.106262 -0.722636 34.000000
3.798192 -0.117644 -0.720675 17.000000
3.780173 -0.128701 -0.717145 9.000000
3.811396 0.258447 -0.771765 51.000000
3.807290 0.246437 -0.770726 70.000000
3.802170 0.234395 -0.769480 69.000000
3.796036 0.222329 -0.768026 92.000000
3.793770 0.210520 -0.767402 88.000000
