ply
format ascii 1.0
element vertex 1227
property float x
property float y
property float z
property float intensity
end_header
2.601154 -0.168926 -0.354727 43.000000
2.609503 -0.177505 -0.356070 32.000000
2.614864 -0.185928 -0.356965 33.000000
2.622170 -0.194532 -0.358159 12.000000
2.623533 -0.202727 -0.358457 13.000000
2.620927 -0.210617 -0.358159 6.000000
2.904115 -0.332189 -0.402468 34.000000
2.904065 -0.341212 -0.402617 37.000000
2.904967 -0.350356 -0.402916 44.000000
2.906823 -0.359630 -0.403363 48.000000
2.907668 -0.368794 -0.403662 40.000000
2.900639 -0.376951 -0.402766 46.000000
2.901430 -0.386108 -0.403065 51.000000
2.893373 -0.394077 -0.402021 35.000000
2.894109 -0.403224 -0.402319 48.000000
2.891879 -0.411962 -0.402170 49.000000
2.885709 -0.420122 -0.401424 37.000000
2.889297 -0.429698 -0.402170 45.000000
2.891876 -0.439153 -0.402766 44.000000
2.893446 -0.448476 -0.403214 56.000000
2.897917 -0.458275 -0.404109 40.000000
2.899426 -0.467635 -0.404557 52.000000
2.907736 -0.478128 -0.406049 46.000000
2.909181 -0.487536 -0.406496 33.000000
2.919369 -0.498452 -0.408287 53.000000
2.922697 -0.508251 -0.409032 35.000000
2.950336 -0.522376 -0.413508 190.000000
2.920497 -0.526350 -0.409182 48.000000
2.914005 -0.534417 -0.408436 49.000000
2.900686 -0.541183 -0.406645 52.000000
2.894155 -0.549160 -0.405899 44.000000
2.883717 -0.556354 -0.404557 41.000000
2.878115 -0.564439 -0.403960 43.000000
2.871521 -0.572302 -0.403214 40.000000
2.869752 -0.581109 -0.403214 66.000000
2.867955 -0.589910 -0.403214 51.000000
2.865164 -0.598505 -0.403065 60.000000
2.867184 -0.608111 -0.403662 51.000000
2.868205 -0.617528 -0.404109 43.000000
2.866297 -0.626324 -0.404109 42.000000
2.867258 -0.635756 -0.404557 48.000000
2.863365 -0.644116 -0.404258 38.000000
2.864268 -0.653557 -0.404706 43.000000
2.868993 -0.663899 -0.405750 17.000000
2.526692 -0.759161 -0.359501 13.000000
2.512996 -0.763465 -0.357711 10.000000
2.521041 -0.774360 -0.359352 18.000000
2.512042 -0.780041 -0.358308 16.000000
2.508694 -0.787448 -0.358159 33.000000
2.510979 -0.796634 -0.358905 24.000000
2.503815 -0.802827 -0.358159 29.000000
2.498518 -0.809591 -0.357711 37.000000
2.498842 -0.818175 -0.358159 24.000000
2.495381 -0.825527 -0.358009 8.000000
2.624695 -0.096000 -0.389927 21.000000
2.616498 -0.103738 -0.388638 28.000000
2.612224 -0.111596 -0.387994 23.000000
2.616798 -0.119836 -0.388799 37.000000
2.613461 -0.127719 -0.388316 37.000000
2.609115 -0.135531 -0.387671 32.000000
2.611643 -0.143698 -0.388155 41.000000
2.613160 -0.151824 -0.388477 46.000000
2.610712 -0.159720 -0.388155 51.000000
2.605285 -0.167412 -0.387349 44.000000
2.606729 -0.175537 -0.387671 42.000000
2.612085 -0.183950 -0.388638 27.000000
2.633162 -0.193558 -0.392182 8.000000
2.933221 -0.333688 -0.443085 31.000000
2.921400 -0.341424 -0.441313 39.000000
2.919359 -0.350267 -0.441152 46.000000
2.915332 -0.358860 -0.440669 47.000000
2.904426 -0.366565 -0.439058 51.000000
2.896436 -0.374587 -0.437931 74.000000
2.895273 -0.383472 -0.437931 55.000000
2.887237 -0.391423 -0.436803 44.000000
2.886023 -0.400279 -0.436803 43.000000
2.884781 -0.409132 -0.436803 71.000000
2.886443 -0.418405 -0.437286 72.000000
2.881240 -0.426680 -0.436642 44.000000
2.892603 -0.437438 -0.438736 72.000000
2.889297 -0.446009 -0.438414 60.000000
2.890840 -0.455332 -0.438897 60.000000
2.895276 -0.465139 -0.439864 37.000000
2.905523 -0.475935 -0.441797 44.000000
2.908916 -0.485660 -0.442602 54.000000
2.918115 -0.496404 -0.444374 41.000000
2.931164 -0.507884 -0.446790 26.000000
2.956806 -0.521679 -0.451301 114.000000
2.932850 -0.526733 -0.447596 68.000000
2.935103 -0.536438 -0.448240 49.000000
2.915978 -0.542191 -0.445341 64.000000
2.909453 -0.550217 -0.444535 72.000000
2.896121 -0.556902 -0.442602 49.000000
2.885681 -0.564080 -0.441152 57.000000
2.879097 -0.571968 -0.440347 64.000000
2.873460 -0.580016 -0.439702 72.000000
2.868766 -0.588234 -0.439219 49.000000
2.867914 -0.597234 -0.439380 53.000000
2.870896 -0.607051 -0.440186 51.000000
2.870950 -0.616271 -0.440508 62.000000
2.873868 -0.626127 -0.441313 69.000000
2.873860 -0.635367 -0.441636 56.000000
2.874786 -0.644830 -0.442119 68.000000
2.878568 -0.654961 -0.443085 45.000000
2.894817 -0.668008 -0.446146 12.000000
2.510715 -0.777767 -0.390249 34.000000
2.507375 -0.785171 -0.390088 33.000000
2.507777 -0.793754 -0.390571 47.000000
2.496870 -0.798736 -0.389121 35.000000
2.491591 -0.805482 -0.388638 32.000000
2.486294 -0.812202 -0.388155 44.000000
2.472544 -0.816112 -0.386222 29.000000
2.467220 -0.822757 -0.385738 22.000000
2.627356 -0.057539 -0.422545 15.000000
2.624213 -0.065527 -0.422026 20.000000
2.611200 -0.073224 -0.419778 25.000000
2.607025 -0.081114 -0.419086 20.000000
2.597905 -0.088813 -0.417529 30.000000
2.599589 -0.096856 -0.417875 26.000000
2.598295 -0.104791 -0.417702 23.000000
2.591074 -0.112466 -0.416491 37.000000
2.592684 -0.120506 -0.416837 38.000000
2.592302 -0.128459 -0.416837 38.000000
2.657796 -0.139851 -0.428426 16.000000
2.676040 -0.149036 -0.431712 6.000000
2.603792 -0.153059 -0.419086 40.000000
2.619040 -0.162012 -0.421853 23.000000
2.616565 -0.169920 -0.421507 21.000000
2.633719 -0.179142 -0.424621 8.000000
3.001316 -0.352600 -0.491729 11.000000
2.848647 -0.343586 -0.464920 39.000000
2.835849 -0.350878 -0.462845 46.000000
2.837691 -0.359947 -0.463364 34.000000
2.835597 -0.368525 -0.463191 48.000000
2.815902 -0.374761 -0.459905 43.000000
2.828402 -0.385254 -0.462326 47.000000
2.841840 -0.395962 -0.464920 55.000000
2.831836 -0.403433 -0.463364 49.000000
2.809141 -0.409005 -0.459559 36.000000
2.841973 -0.422679 -0.465612 52.000000
2.825082 -0.429037 -0.462845 32.000000
2.826672 -0.438153 -0.463364 41.000000
2.851583 -0.450967 -0.468034 46.000000
2.835599 -0.457366 -0.465439 39.000000
2.842930 -0.467499 -0.466996 34.000000
2.829825 -0.474269 -0.464920 33.000000
2.840008 -0.484934 -0.466996 33.000000
2.853064 -0.496170 -0.469590 24.000000
2.958218 -0.523768 -0.488616 118.000000
2.899404 -0.522557 -0.478411 59.000000
2.860971 -0.524713 -0.471839 45.000000
2.880650 -0.537453 -0.475644 53.000000
2.851891 -0.541158 -0.470801 40.000000
2.844414 -0.548788 -0.469763 51.000000
2.866882 -0.562241 -0.474087 58.000000
2.831334 -0.564309 -0.468034 45.000000
2.836347 -0.574358 -0.469244 47.000000
2.820099 -0.580087 -0.466650 40.000000
2.797094 -0.584314 -0.462845 37.000000
2.816487 -0.597380 -0.466650 41.000000
2.844492 -0.612432 -0.472012 67.000000
2.793522 -0.610452 -0.463191 35.000000
2.786828 -0.617956 -0.462326 39.000000
2.791646 -0.628013 -0.463537 36.000000
2.753213 -0.628263 -0.456964 32.000000
2.757031 -0.638037 -0.458002 7.000000
2.495148 -0.783203 -0.420297 29.000000
2.501552 -0.802102 -0.422372 10.000000
2.488772 -0.806438 -0.420470 23.000000
2.483477 -0.813152 -0.419951 20.000000
2.483777 -0.821694 -0.420470 27.000000
2.481244 -0.829310 -0.420470 34.000000
2.486154 -0.839436 -0.421853 27.000000
2.490094 -0.849282 -0.423064 27.000000
2.505172 -0.863005 -0.426350 25.000000
2.573227 -0.023910 -0.443836 48.000000
2.574125 -0.031817 -0.444021 50.000000
2.572050 -0.039684 -0.443652 36.000000
2.577812 -0.047684 -0.444759 53.000000
2.577653 -0.055593 -0.444759 46.000000
2.579436 -0.063549 -0.445128 38.000000
2.571369 -0.071244 -0.443652 47.000000
2.568192 -0.079041 -0.443098 43.000000
2.570884 -0.087020 -0.443652 56.000000
2.563729 -0.094652 -0.442361 50.000000
2.563427 -0.102517 -0.442361 45.000000
2.563100 -0.110381 -0.442361 57.000000
2.560786 -0.118153 -0.441992 49.000000
2.566301 -0.126300 -0.443098 40.000000
2.568846 -0.134327 -0.443652 57.000000
2.567441 -0.142153 -0.443467 53.000000
2.569936 -0.150201 -0.444021 46.000000
2.567501 -0.157964 -0.443652 50.000000
2.569947 -0.166031 -0.444205 53.000000
2.569425 -0.173914 -0.444205 56.000000
2.565938 -0.181588 -0.443652 49.000000
2.564389 -0.189387 -0.443467 56.000000
2.562816 -0.197178 -0.443283 46.000000
2.562199 -0.205039 -0.443283 50.000000
2.561558 -0.212899 -0.443283 51.000000
2.562851 -0.220926 -0.443652 44.000000
2.561182 -0.228700 -0.443467 46.000000
2.561447 -0.236647 -0.443652 52.000000
2.557774 -0.244224 -0.443098 41.000000
2.557013 -0.252070 -0.443098 47.000000
2.559161 -0.260212 -0.443652 57.000000
2.552486 -0.267447 -0.442545 60.000000
2.552630 -0.275382 -0.442729 54.000000
2.550797 -0.283104 -0.442545 48.000000
2.547963 -0.290705 -0.442176 60.000000
2.554868 -0.299437 -0.443652 42.000000
2.550035 -0.306804 -0.442914 54.000000
2.548106 -0.314505 -0.442729 61.000000
2.549079 -0.322568 -0.443098 48.000000
2.552951 -0.331020 -0.444021 47.000000
2.552897 -0.338980 -0.444205 48.000000
2.551845 -0.346811 -0.444205 35.000000
2.551743 -0.354773 -0.444390 56.000000
2.553562 -0.363016 -0.444943 57.000000
2.555353 -0.371273 -0.445496 60.000000
2.561008 -0.380122 -0.446788 40.000000
2.557886 -0.387682 -0.446419 51.000000
2.556685 -0.395528 -0.446419 67.000000
2.554488 -0.403216 -0.446234 60.000000
2.552269 -0.410895 -0.446050 43.000000
2.545177 -0.417767 -0.444943 58.000000
2.538068 -0.424600 -0.443836 62.000000
2.535784 -0.432220 -0.443652 50.000000
2.529604 -0.439156 -0.442729 50.000000
2.532116 -0.447599 -0.443467 51.000000
2.531699 -0.455540 -0.443652 49.000000
2.530289 -0.463305 -0.443652 55.000000
2.526924 -0.470705 -0.443283 60.000000
2.532227 -0.479737 -0.444574 50.000000
2.528813 -0.487132 -0.444205 58.000000
2.530200 -0.495455 -0.444759 53.000000
2.528668 -0.503215 -0.444759 62.000000
2.531929 -0.511945 -0.445681 51.000000
2.528421 -0.519315 -0.445312 47.000000
2.535475 -0.528877 -0.446972 32.000000
2.527110 -0.535227 -0.445681 52.000000
2.525456 -0.542977 -0.445681 43.000000
2.520898 -0.550093 -0.445128 53.000000
2.518238 -0.557612 -0.444943 51.000000
2.515557 -0.565120 -0.444759 56.000000
2.517644 -0.573709 -0.445496 53.000000
2.518745 -0.582095 -0.446050 48.000000
2.521732 -0.590941 -0.446972 47.000000
2.519907 -0.598675 -0.446972 44.000000
2.518058 -0.606403 -0.446972 58.000000
2.516186 -0.614126 -0.446972 42.000000
2.515244 -0.622078 -0.447157 52.000000
2.512371 -0.629553 -0.446972 67.000000
2.502806 -0.635322 -0.445496 32.000000
2.504653 -0.643977 -0.446234 65.000000
2.501714 -0.651411 -0.446050 58.000000
2.503505 -0.660086 -0.446788 49.000000
2.498620 -0.667002 -0.446234 34.000000
2.498459 -0.675178 -0.446603 59.000000
2.499220 -0.683618 -0.447157 54.000000
2.496164 -0.691020 -0.446972 44.000000
2.496871 -0.699471 -0.447526 47.000000
2.497550 -0.707932 -0.448079 42.000000
2.495367 -0.715591 -0.448079 61.000000
2.493159 -0.723244 -0.448079 49.000000
2.493758 -0.731720 -0.448632 65.000000
2.490559 -0.739087 -0.448448 47.000000
2.492986 -0.748138 -0.449370 36.000000
2.487858 -0.754926 -0.448817 44.000000
2.485530 -0.762555 -0.448817 37.000000
2.485057 -0.770760 -0.449186 45.000000
2.485494 -0.779263 -0.449739 56.000000
2.483091 -0.786884 -0.449739 41.000000
2.481601 -0.794799 -0.449924 49.000000
2.483826 -0.803922 -0.450846 47.000000
2.485085 -0.812761 -0.451584 49.000000
2.484446 -0.820999 -0.451953 45.000000
2.479119 -0.827683 -0.451399 46.000000
2.479361 -0.836228 -0.451953 61.000000
2.465621 -0.840025 -0.449739 36.000000
2.482547 -0.854304 -0.453613 20.000000
2.497553 -0.868050 -0.457118 8.000000
2.581033 -0.024863 -0.476901 36.000000
2.580944 -0.032781 -0.476901 42.000000
2.583773 -0.040745 -0.477489 26.000000
2.586577 -0.048725 -0.478078 51.000000
2.587395 -0.056682 -0.478274 42.000000
2.585249 -0.064571 -0.477881 48.000000
2.574256 -0.072205 -0.475724 53.000000
2.568142 -0.079922 -0.474548 54.000000
2.563965 -0.087668 -0.473763 52.000000
2.562703 -0.095498 -0.473567 38.000000
2.566318 -0.103516 -0.474351 58.000000
2.562069 -0.111221 -0.473567 59.000000
2.564655 -0.119216 -0.474155 63.000000
2.569174 -0.127324 -0.475136 47.000000
2.571709 -0.135359 -0.475724 63.000000
2.569324 -0.143140 -0.475332 54.000000
2.562999 -0.150679 -0.474155 51.000000
2.558609 -0.158301 -0.473371 47.000000
2.558111 -0.166150 -0.473371 49.000000
2.560525 -0.174196 -0.473959 57.000000
2.557044 -0.181843 -0.473371 50.000000
2.559408 -0.189903 -0.473959 61.000000
2.558813 -0.197755 -0.473959 60.000000
2.559172 -0.205682 -0.474155 43.000000
2.557551 -0.213451 -0.473959 51.000000
2.557862 -0.221381 -0.474155 45.000000
2.554240 -0.228966 -0.473567 63.000000
2.553526 -0.236801 -0.473567 43.000000
2.548883 -0.244262 -0.472782 58.000000
2.548121 -0.252081 -0.472782 51.000000
2.546360 -0.259798 -0.472586 64.000000
2.547502 -0.267813 -0.472979 49.000000
2.544719 -0.275417 -0.472586 48.000000
2.544836 -0.283331 -0.472782 44.000000
2.547852 -0.291581 -0.473567 46.000000
2.550841 -0.299853 -0.474351 45.000000
2.551856 -0.307911 -0.474744 52.000000
2.551873 -0.315859 -0.474940 54.000000
2.548946 -0.323440 -0.474548 47.000000
2.552804 -0.331889 -0.475528 41.000000
2.552746 -0.339848 -0.475724 66.000000
2.547805 -0.347151 -0.474940 61.000000
2.544785 -0.354696 -0.474548 57.000000
2.542714 -0.362363 -0.474351 44.000000
2.542561 -0.370303 -0.474548 56.000000
2.541413 -0.378102 -0.474548 57.000000
2.534424 -0.385016 -0.473371 48.000000
2.532261 -0.392640 -0.473175 49.000000
2.529108 -0.400102 -0.472782 50.000000
2.531741 -0.408482 -0.473567 56.000000
2.529508 -0.416089 -0.473371 50.000000
2.527252 -0.423685 -0.473175 64.000000
2.526907 -0.431602 -0.473371 53.000000
2.520741 -0.438514 -0.472390 34.000000
2.522280 -0.446757 -0.472979 61.000000
2.518968 -0.454146 -0.472586 41.000000
2.518527 -0.462049 -0.472782 56.000000
2.516134 -0.469594 -0.472586 66.000000
2.514681 -0.477311 -0.472586 54.000000
2.514168 -0.485209 -0.472782 40.000000
2.514592 -0.493297 -0.473175 42.000000
2.514029 -0.501200 -0.473371 56.000000
2.518246 -0.510076 -0.474548 59.000000
2.513788 -0.517208 -0.473959 48.000000
2.515069 -0.525518 -0.474548 49.000000
2.512485 -0.533029 -0.474351 52.000000
2.511797 -0.540941 -0.474548 44.000000
2.507251 -0.548017 -0.473959 61.000000
2.505558 -0.555707 -0.473959 42.000000
2.506712 -0.564036 -0.474548 44.000000
2.509750 -0.572812 -0.475528 48.000000
2.507025 -0.580289 -0.475332 49.000000
2.510007 -0.589095 -0.476313 52.000000
2.509142 -0.597020 -0.476509 49.000000
2.508252 -0.604944 -0.476705 45.000000
2.504479 -0.612172 -0.476313 55.000000
2.505445 -0.620559 -0.476901 65.000000
2.506382 -0.628957 -0.477489 77.000000
2.501590 -0.635920 -0.476901 61.000000
2.497728 -0.643104 -0.476509 51.000000
2.498590 -0.651505 -0.477097 56.000000
2.498476 -0.659667 -0.477489 49.000000
2.496440 -0.667329 -0.477489 45.000000
2.497221 -0.675752 -0.478078 54.000000
2.492298 -0.682634 -0.477489 59.000000
2.487357 -0.689493 -0.476901 48.000000
2.493728 -0.699500 -0.478666 47.000000
2.488740 -0.706346 -0.478078 48.000000
2.489390 -0.714788 -0.478666 55.000000
2.490010 -0.723242 -0.479254 44.000000
2.481193 -0.728946 -0.477881 55.000000
2.484586 -0.738228 -0.479058 56.000000
2.485126 -0.746692 -0.479647 51.000000
2.480009 -0.753459 -0.479058 41.000000
2.483311 -0.762789 -0.480235 52.000000
2.481895 -0.770694 -0.480431 66.000000
2.482326 -0.779185 -0.481019 69.000000
2.481794 -0.787389 -0.481412 43.000000
2.483102 -0.796195 -0.482196 46.000000
2.483446 -0.804715 -0.482784 47.000000
2.475374 -0.810502 -0.481608 42.000000
2.475669 -0.819016 -0.482196 43.000000
2.473144 -0.826607 -0.482196 40.000000
2.456659 -0.829491 -0.479254 25.000000
2.459672 -0.838921 -0.480431 33.000000
2.579708 -0.023076 -0.508349 51.000000
2.582559 -0.031026 -0.508973 39.000000
2.579518 -0.038905 -0.508349 42.000000
2.577430 -0.046783 -0.507934 35.000000
2.581187 -0.054773 -0.508765 32.000000
2.582962 -0.062740 -0.509180 48.000000
2.578846 -0.070556 -0.508349 44.000000
2.576662 -0.078408 -0.507934 49.000000
2.577387 -0.086346 -0.508142 66.000000
2.577110 -0.094253 -0.508142 53.000000
2.575831 -0.102120 -0.507934 45.000000
2.568665 -0.109729 -0.506480 42.000000
2.566362 -0.117519 -0.506064 57.000000
2.568920 -0.125535 -0.506687 38.000000
2.565593 -0.133263 -0.506064 57.000000
2.562241 -0.140972 -0.505441 62.000000
2.561797 -0.148833 -0.505441 62.000000
2.564257 -0.156871 -0.506064 54.000000
2.566692 -0.164926 -0.506687 60.000000
2.568126 -0.172931 -0.507103 51.000000
2.568559 -0.180878 -0.507311 47.000000
2.567017 -0.188686 -0.507103 51.000000
2.564475 -0.196411 -0.506687 55.000000
2.566786 -0.204511 -0.507311 59.000000
2.561272 -0.211981 -0.506272 62.000000
2.559635 -0.219754 -0.506064 49.000000
2.558949 -0.227606 -0.506064 55.000000
2.555316 -0.235186 -0.505441 52.000000
2.552635 -0.242839 -0.505026 64.000000
2.553825 -0.250861 -0.505441 45.000000
2.550124 -0.258398 -0.504818 48.000000
2.550292 -0.266322 -0.505026 51.000000
2.550436 -0.274250 -0.505233 46.000000
2.549582 -0.282073 -0.505233 66.000000
2.552592 -0.290337 -0.506064 51.000000
2.555576 -0.298621 -0.506895 45.000000
2.554647 -0.306460 -0.506895 52.000000
2.552725 -0.314177 -0.506687 37.000000
2.551749 -0.322007 -0.506687 57.000000
2.547838 -0.329457 -0.506064 62.000000
2.547785 -0.337401 -0.506272 52.000000
2.542861 -0.344690 -0.505441 60.000000
2.535978 -0.351682 -0.504195 58.000000
2.537793 -0.359874 -0.504818 61.000000
2.536677 -0.367658 -0.504818 60.000000
2.535537 -0.375438 -0.504818 41.000000
2.530504 -0.382630 -0.503987 60.000000
2.528352 -0.390242 -0.503779 44.000000
2.524244 -0.397540 -0.503156 53.000000
2.521081 -0.404972 -0.502740 56.000000
2.517896 -0.412388 -0.502325 64.000000
2.519514 -0.420595 -0.502948 52.000000
2.517247 -0.428158 -0.502740 65.000000
2.517849 -0.436213 -0.503156 53.000000
2.518425 -0.444276 -0.503571 46.000000
2.522827 -0.453039 -0.504818 44.000000
2.525275 -0.461480 -0.505649 65.000000
2.521923 -0.468868 -0.505233 45.000000
2.519512 -0.476421 -0.505026 50.000000
2.520920 -0.484703 -0.505649 42.000000
2.518461 -0.492247 -0.505441 48.000000
2.517899 -0.500162 -0.505649 51.000000
2.517311 -0.508078 -0.505856 55.000000
2.512866 -0.515209 -0.505233 58.000000
2.520849 -0.524911 -0.507311 56.000000
2.516356 -0.532035 -0.506687 40.000000
2.510886 -0.538931 -0.505856 52.000000
2.512089 -0.547257 -0.506480 47.000000
2.505622 -0.553905 -0.505441 54.000000
2.507729 -0.562446 -0.506272 54.000000
2.510760 -0.571223 -0.507311 53.000000
2.502324 -0.577383 -0.505856 42.000000
2.504351 -0.585949 -0.506687 61.000000
2.502541 -0.593629 -0.506687 61.000000
2.501659 -0.601533 -0.506895 58.000000
2.504554 -0.610364 -0.507934 64.000000
2.500770 -0.617576 -0.507518 53.000000
2.501710 -0.625958 -0.508142 53.000000
2.505467 -0.635073 -0.509388 46.000000
2.500665 -0.642026 -0.508765 50.000000
2.504363 -0.651173 -0.510011 57.000000
2.505192 -0.659601 -0.510635 37.000000
2.505047 -0.667788 -0.511050 48.000000
2.504874 -0.675980 -0.511465 48.000000
2.501845 -0.683404 -0.511258 45.000000
2.495023 -0.689772 -0.510219 49.000000
2.499489 -0.699269 -0.511673 37.000000
2.493567 -0.705868 -0.510842 48.000000
2.491390 -0.713515 -0.510842 47.000000
2.485431 -0.720066 -0.510011 56.000000
2.483210 -0.727687 -0.510011 62.000000
2.483779 -0.736137 -0.510635 59.000000
2.486194 -0.745158 -0.511673 56.000000
2.484833 -0.753066 -0.511881 48.000000
2.484381 -0.761259 -0.512296 70.000000
2.484837 -0.769747 -0.512920 45.000000
2.487131 -0.778829 -0.513958 53.000000
2.486595 -0.787046 -0.514374 51.000000
2.483237 -0.794373 -0.514166 47.000000
2.484511 -0.803192 -0.514997 59.000000
2.481105 -0.810506 -0.514789 50.000000
2.476749 -0.817501 -0.514374 45.000000
2.475157 -0.825405 -0.514582 45.000000
2.471686 -0.832683 -0.514374 46.000000
2.469120 -0.840262 -0.514374 39.000000
2.435080 -0.837017 -0.507311 13.000000
2.579936 -0.025301 -0.539828 43.000000
2.579847 -0.033216 -0.539828 36.000000
2.571928 -0.041009 -0.538075 39.000000
2.568863 -0.048845 -0.537418 44.000000
2.565775 -0.056663 -0.536760 51.000000
2.564614 -0.064510 -0.536541 44.000000
2.559527 -0.072243 -0.535445 68.000000
2.561244 -0.080155 -0.535883 54.000000
2.561961 -0.088046 -0.536103 72.000000
2.567529 -0.096121 -0.537418 43.000000
2.566247 -0.103959 -0.537198 72.000000
2.564942 -0.111790 -0.536979 39.000000
2.556789 -0.119298 -0.535226 63.000000
2.556411 -0.127142 -0.535226 43.000000
2.556009 -0.134984 -0.535226 56.000000
2.550712 -0.142555 -0.534130 61.000000
2.553185 -0.150551 -0.534788 55.000000
2.555632 -0.158563 -0.535445 60.000000
2.557081 -0.166529 -0.535883 63.000000
2.556558 -0.174373 -0.535883 46.000000
2.558931 -0.182422 -0.536541 56.000000
2.560305 -0.190416 -0.536979 48.000000
2.559709 -0.198270 -0.536979 49.000000
2.560061 -0.206200 -0.537198 57.000000
2.557472 -0.213892 -0.536760 50.000000
2.556804 -0.221737 -0.536760 44.000000
2.560971 -0.230014 -0.537856 50.000000
2.558310 -0.237690 -0.537418 47.000000
2.551741 -0.244981 -0.536103 57.000000
2.550006 -0.252713 -0.535883 54.000000
2.550190 -0.260634 -0.536103 37.000000
2.546467 -0.268151 -0.535445 57.000000
2.544662 -0.275858 -0.535226 62.000000
2.543804 -0.283663 -0.535226 52.000000
2.545830 -0.291798 -0.535883 60.000000
2.544923 -0.299607 -0.535883 51.000000
2.548835 -0.307997 -0.536979 57.000000
2.540132 -0.314858 -0.535226 58.000000
2.535282 -0.322160 -0.534349 53.000000
2.532346 -0.329685 -0.533911 34.000000
2.532290 -0.337581 -0.534130 52.000000
2.527375 -0.344823 -0.533253 55.000000
2.524373 -0.352306 -0.532815 51.000000
2.519416 -0.359500 -0.531938 52.000000
2.526026 -0.368350 -0.533692 52.000000
2.529709 -0.376815 -0.534788 45.000000
2.530471 -0.384867 -0.535226 66.000000
2.534099 -0.393374 -0.536322 57.000000
2.530953 -0.400843 -0.535883 61.000000
2.530674 -0.408761 -0.536103 46.000000
2.534222 -0.417313 -0.537198 44.000000
2.530043 -0.424603 -0.536541 51.000000
2.528728 -0.432363 -0.536541 47.000000
2.527390 -0.440119 -0.536541 64.000000
2.523146 -0.447361 -0.535883 58.000000
2.521761 -0.455100 -0.535883 40.000000
2.526112 -0.463889 -0.537198 50.000000
2.524677 -0.471637 -0.537198 44.000000
2.526094 -0.479926 -0.537856 46.000000
2.521735 -0.487119 -0.537198 30.000000
2.521186 -0.495041 -0.537418 45.000000
2.514871 -0.501821 -0.536322 75.000000
2.524796 -0.511856 -0.538952 36.000000
2.513656 -0.517636 -0.536760 67.000000
2.515877 -0.526142 -0.537637 54.000000
2.513296 -0.533656 -0.537418 54.000000
2.513555 -0.541774 -0.537856 57.000000
2.514740 -0.550108 -0.538513 56.000000
2.511136 -0.557398 -0.538075 53.000000
2.512270 -0.565741 -0.538733 49.000000
2.517181 -0.574964 -0.540267 52.000000
2.514455 -0.582464 -0.540048 54.000000
2.514556 -0.590621 -0.540486 57.000000
2.516529 -0.599235 -0.541363 51.000000
2.512782 -0.606496 -0.540924 56.000000
2.517544 -0.615822 -0.542458 54.000000
2.513749 -0.623074 -0.542020 62.000000
2.508986 -0.630072 -0.541363 37.000000
2.507987 -0.638006 -0.541582 55.000000
2.504128 -0.645212 -0.541143 54.000000
2.499304 -0.652153 -0.540486 51.000000
2.502952 -0.661311 -0.541801 43.000000
2.498083 -0.668232 -0.541143 47.000000
2.498847 -0.676656 -0.541801 65.000000
2.497701 -0.684577 -0.542020 44.000000
2.495588 -0.692237 -0.542020 49.000000
2.498151 -0.701206 -0.543116 38.000000
2.496926 -0.709133 -0.543335 43.000000
2.493801 -0.716521 -0.543116 57.000000
2.489717 -0.723625 -0.542678 42.000000
2.486549 -0.730985 -0.542458 47.000000
2.486165 -0.739166 -0.542897 57.000000
2.486689 -0.747631 -0.543554 58.000000
2.483450 -0.754973 -0.543335 52.000000
2.486719 -0.764306 -0.544650 41.000000
2.484363 -0.771932 -0.544650 55.000000
2.483844 -0.780134 -0.545088 38.000000
2.487020 -0.789519 -0.546403 41.000000
2.480869 -0.795955 -0.545527 55.000000
2.474702 -0.802360 -0.544650 64.000000
2.477793 -0.811769 -0.545965 33.000000
2.471586 -0.818142 -0.545088 39.000000
2.470915 -0.826339 -0.545527 36.000000
2.468368 -0.833916 -0.545527 44.000000
2.463951 -0.840856 -0.545088 35.000000
2.460437 -0.848093 -0.544869 18.000000
2.458745 -0.855958 -0.545088 5.000000
2.584654 -0.023121 -0.572990 31.000000
2.589436 -0.031110 -0.574143 27.000000
2.592247 -0.039099 -0.574835 47.000000
2.584332 -0.046909 -0.572990 32.000000
2.581258 -0.054775 -0.572297 32.000000
2.577186 -0.062599 -0.571374 46.000000
2.574064 -0.070425 -0.570682 51.000000
2.569946 -0.078203 -0.569759 38.000000
2.564831 -0.085923 -0.568606 51.000000
2.561639 -0.093685 -0.567913 52.000000
2.568145 -0.101814 -0.569529 35.000000
2.567821 -0.109692 -0.569529 43.000000
2.564556 -0.117436 -0.568836 53.000000
2.565155 -0.125351 -0.569067 62.000000
2.566702 -0.133321 -0.569529 53.000000
2.563367 -0.141034 -0.568836 56.000000
2.562922 -0.148898 -0.568836 44.000000
2.564395 -0.156879 -0.569298 63.000000
2.564873 -0.164809 -0.569529 53.000000
2.558530 -0.172284 -0.568144 49.000000
2.557990 -0.180132 -0.568144 43.000000
2.557425 -0.187979 -0.568144 60.000000
2.558777 -0.195973 -0.568606 44.000000
2.559133 -0.203900 -0.568836 45.000000
2.552678 -0.211268 -0.567452 53.000000
2.552017 -0.219099 -0.567452 49.000000
2.557148 -0.227445 -0.568836 56.000000
2.560314 -0.235647 -0.569759 39.000000
2.558610 -0.243408 -0.569529 58.000000
2.556883 -0.251161 -0.569298 49.000000
2.556101 -0.259005 -0.569298 46.000000
2.554326 -0.266744 -0.569067 50.000000
2.555431 -0.274788 -0.569529 44.000000
2.552642 -0.282412 -0.569067 43.000000
2.549829 -0.290022 -0.568606 58.000000
2.549894 -0.297957 -0.568836 43.000000
2.548968 -0.305778 -0.568836 37.000000
2.543190 -0.313002 -0.567683 42.000000
2.541252 -0.320681 -0.567452 65.000000
2.540256 -0.328476 -0.567452 42.000000
2.536343 -0.335884 -0.566760 53.000000
2.535300 -0.343664 -0.566760 56.000000
2.537125 -0.351842 -0.567452 41.000000
2.533144 -0.359214 -0.566760 54.000000
2.539733 -0.368101 -0.568606 41.000000
2.538592 -0.375891 -0.568606 51.000000
2.538389 -0.383823 -0.568836 43.000000
2.533353 -0.391015 -0.567913 45.000000
2.528297 -0.398179 -0.566991 42.000000
2.531867 -0.406706 -0.568144 41.000000
2.530607 -0.414472 -0.568144 46.000000
2.531243 -0.422555 -0.568606 49.000000
2.533772 -0.430972 -0.569529 46.000000
2.528603 -0.438078 -0.568606 43.000000
2.527247 -0.445834 -0.568606 38.000000
2.525867 -0.453585 -0.568606 48.000000
2.522549 -0.460982 -0.568144 38.000000
2.521123 -0.468719 -0.568144 48.000000
2.522541 -0.476994 -0.568836 52.000000
2.519155 -0.484363 -0.568375 53.000000
2.521477 -0.492837 -0.569298 64.000000
2.525679 -0.501709 -0.570682 51.000000
2.522221 -0.509070 -0.570221 39.000000
2.520647 -0.516805 -0.570221 65.000000
2.524765 -0.525727 -0.571605 55.000000
2.522188 -0.533269 -0.571374 51.000000
2.524345 -0.541822 -0.572297 46.000000
2.522671 -0.549564 -0.572297 55.000000
2.521923 -0.557511 -0.572528 59.000000
2.523049 -0.565885 -0.573220 49.000000
2.526994 -0.574919 -0.574605 42.000000
2.521426 -0.581793 -0.573682 41.000000
2.516787 -0.588861 -0.572990 45.000000
2.514021 -0.596354 -0.572759 48.000000
2.512180 -0.604065 -0.572759 49.000000
2.513151 -0.612461 -0.573451 55.000000
2.508426 -0.619468 -0.572759 41.000000
2.504626 -0.626688 -0.572297 50.000000
2.503635 -0.634608 -0.572528 56.000000
2.502619 -0.642528 -0.572759 62.000000
2.498752 -0.649713 -0.572297 56.000000
2.496747 -0.657376 -0.572297 59.000000
2.494719 -0.665033 -0.572297 60.000000
2.497364 -0.673952 -0.573451 42.000000
2.498100 -0.682380 -0.574143 50.000000
2.500684 -0.691338 -0.575297 41.000000
2.502299 -0.700056 -0.576220 49.000000
2.503884 -0.708790 -0.577143 55.000000
2.501698 -0.716469 -0.577143 58.000000
2.499488 -0.724140 -0.577143 50.000000
2.495387 -0.731258 -0.576681 42.000000
2.492199 -0.738634 -0.576450 44.000000
2.486193 -0.745158 -0.575528 45.000000
2.484827 -0.753064 -0.575758 43.000000
2.482504 -0.760684 -0.575758 54.000000
2.477371 -0.767433 -0.575066 41.000000
2.475933 -0.775320 -0.575297 54.000000
2.481891 -0.785557 -0.577373 52.000000
2.481323 -0.793760 -0.577835 54.000000
2.484431 -0.803166 -0.579219 47.000000
2.481030 -0.810482 -0.578988 58.000000
2.479456 -0.818395 -0.579219 52.000000
2.480626 -0.827230 -0.580142 29.000000
2.479920 -0.835458 -0.580604 31.000000
2.466292 -0.839299 -0.577835 57.000000
2.458185 -0.844963 -0.576450 23.000000
2.577301 -0.024829 -0.602988 33.000000
2.573332 -0.032688 -0.602019 35.000000
2.574190 -0.040598 -0.602262 34.000000
2.571143 -0.048442 -0.601535 49.000000
2.576802 -0.056454 -0.602988 40.000000
2.577587 -0.064383 -0.603230 51.000000
2.575438 -0.072237 -0.602746 45.000000
2.574234 -0.080109 -0.602504 44.000000
2.578825 -0.088170 -0.603714 42.000000
2.575633 -0.095974 -0.602988 54.000000
2.578235 -0.103991 -0.603714 40.000000
2.578873 -0.111942 -0.603956 44.000000
2.577549 -0.119809 -0.603714 53.000000
2.578138 -0.127764 -0.603956 44.000000
2.573858 -0.135471 -0.602988 45.000000
2.572462 -0.143313 -0.602746 46.000000
2.572978 -0.151261 -0.602988 44.000000
2.567660 -0.158857 -0.601777 40.000000
2.566193 -0.166671 -0.601535 57.000000
2.556957 -0.173954 -0.599356 47.000000
2.553508 -0.181593 -0.598630 51.000000
2.554874 -0.189569 -0.599114 64.000000
2.552345 -0.197258 -0.598630 51.000000
2.547859 -0.204778 -0.597662 48.000000
2.546252 -0.212514 -0.597420 58.000000
2.545588 -0.220324 -0.597420 54.000000
2.548766 -0.228478 -0.598388 45.000000
2.547087 -0.236207 -0.598146 29.000000
2.551179 -0.244481 -0.599356 50.000000
2.551383 -0.252402 -0.599599 51.000000
2.555423 -0.260718 -0.600809 52.000000
2.555576 -0.268658 -0.601051 38.000000
2.554740 -0.276497 -0.601051 42.000000
2.555808 -0.284548 -0.601535 36.000000
2.555887 -0.292497 -0.601777 54.000000
2.551123 -0.299886 -0.600809 45.000000
2.550191 -0.307711 -0.600809 42.000000
2.548272 -0.315415 -0.600567 47.000000
2.546330 -0.323110 -0.600325 49.000000
2.544364 -0.330796 -0.600083 45.000000
2.542376 -0.338472 -0.599841 51.000000
2.542287 -0.346401 -0.600083 41.000000
2.543134 -0.354466 -0.600567 40.000000
2.540113 -0.361994 -0.600083 65.000000
2.535150 -0.369228 -0.599114 46.000000
2.532086 -0.376719 -0.598630 50.000000
2.529959 -0.384340 -0.598388 50.000000
2.529727 -0.392248 -0.598630 47.000000
2.529470 -0.400159 -0.598872 39.000000
2.527272 -0.407763 -0.598630 48.000000
2.526967 -0.415672 -0.598872 39.000000
2.529508 -0.424062 -0.599841 46.000000
2.532977 -0.432635 -0.601051 39.000000
2.531638 -0.440404 -0.601051 50.000000
2.529319 -0.448001 -0.600809 53.000000
2.527933 -0.455758 -0.600809 43.000000
2.523660 -0.462988 -0.600083 45.000000
2.519366 -0.470195 -0.599356 46.000000
2.518865 -0.478103 -0.599599 53.000000
2.515481 -0.485462 -0.599114 45.000000
2.514931 -0.493363 -0.599356 62.000000
2.513406 -0.501076 -0.599356 41.000000
2.512808 -0.508977 -0.599599 40.000000
2.511235 -0.516684 -0.599599 45.000000
2.515337 -0.525574 -0.601051 35.000000
2.520357 -0.534695 -0.602746 42.000000
2.519653 -0.542629 -0.602988 38.000000
2.520821 -0.550977 -0.603714 44.000000
2.523855 -0.559756 -0.604925 42.000000
2.525913 -0.568347 -0.605893 32.000000
2.519427 -0.575016 -0.604682 50.000000
2.513869 -0.581870 -0.603714 54.000000
2.509238 -0.588915 -0.602988 34.000000
2.510252 -0.597283 -0.603714 46.000000
2.508407 -0.604982 -0.603714 35.000000
2.503712 -0.611985 -0.602988 51.000000
2.504648 -0.620362 -0.603714 36.000000
2.504615 -0.628514 -0.604198 44.000000
2.503616 -0.636434 -0.604440 37.000000
2.502591 -0.644354 -0.604682 44.000000
2.498725 -0.651540 -0.604198 47.000000
2.496714 -0.659203 -0.604198 43.000000
2.502180 -0.668860 -0.606135 36.000000
2.498242 -0.676028 -0.605651 47.000000
2.498028 -0.684201 -0.606135 52.000000
2.500593 -0.693155 -0.607345 41.000000
2.498455 -0.700824 -0.607345 44.000000
2.493492 -0.707692 -0.606619 27.000000
2.494107 -0.716141 -0.607345 39.000000
2.488171 -0.722708 -0.606377 36.000000
2.485942 -0.730339 -0.606377 38.000000
2.484620 -0.738238 -0.606619 42.000000
2.484202 -0.746415 -0.607103 41.000000
2.485615 -0.755159 -0.608072 46.000000
2.486069 -0.763635 -0.608798 38.000000
2.486495 -0.772120 -0.609524 46.000000
2.485966 -0.780325 -0.610008 59.000000
2.485410 -0.788535 -0.610493 50.000000
2.484827 -0.796748 -0.610977 40.000000
2.481448 -0.804069 -0.610735 35.000000
2.475281 -0.810472 -0.609766 31.000000
2.473704 -0.818366 -0.610008 30.000000
2.469341 -0.825337 -0.609524 35.000000
2.466797 -0.832909 -0.609524 41.000000
2.461475 -0.839535 -0.608798 41.000000
2.452465 -0.844874 -0.607103 9.000000
2.571645 -0.022557 -0.633406 39.000000
2.561891 -0.030331 -0.630871 30.000000
2.560819 -0.038176 -0.630618 28.000000
2.562624 -0.046067 -0.631125 38.000000
2.570208 -0.054093 -0.633152 41.000000
2.571964 -0.062025 -0.633659 46.000000
2.574663 -0.069994 -0.634419 57.000000
2.568634 -0.077717 -0.632899 36.000000
2.568384 -0.085597 -0.632899 54.000000
2.566176 -0.093405 -0.632392 45.000000
2.568777 -0.101393 -0.633152 46.000000
2.567487 -0.109232 -0.632899 53.000000
2.566174 -0.117064 -0.632645 47.000000
2.565802 -0.124936 -0.632645 39.000000
2.567339 -0.132908 -0.633152 49.000000
2.568851 -0.140890 -0.633659 53.000000
2.572269 -0.148995 -0.634673 50.000000
2.568904 -0.156709 -0.633912 49.000000
2.564549 -0.164341 -0.632899 47.000000
2.559207 -0.171883 -0.631632 70.000000
2.557703 -0.179666 -0.631378 54.000000
2.554245 -0.187300 -0.630618 40.000000
2.553659 -0.195135 -0.630618 51.000000
2.553048 -0.202969 -0.630618 61.000000
2.549521 -0.210561 -0.629858 49.000000
2.548863 -0.218382 -0.629858 54.000000
2.551072 -0.226458 -0.630618 50.000000
2.547475 -0.234017 -0.629858 43.000000
2.546745 -0.241832 -0.629858 41.000000
2.546954 -0.249738 -0.630111 44.000000
2.541364 -0.257064 -0.628844 55.000000
2.546336 -0.265462 -0.630365 53.000000
2.544548 -0.273169 -0.630111 43.000000
2.543698 -0.280975 -0.630111 50.000000
2.549552 -0.289542 -0.631885 50.000000
2.542887 -0.296690 -0.630365 45.000000
2.542925 -0.304605 -0.630618 51.000000
2.545819 -0.312878 -0.631632 52.000000
2.541968 -0.320323 -0.630871 51.000000
2.542892 -0.328368 -0.631378 48.000000
2.542831 -0.336295 -0.631632 42.000000
2.540829 -0.343965 -0.631378 51.000000
2.543594 -0.352290 -0.632392 55.000000
2.544417 -0.360364 -0.632899 50.000000
2.538513 -0.367474 -0.631632 54.000000
2.536417 -0.375119 -0.631378 50.000000
2.536211 -0.383044 -0.631632 60.000000
2.535980 -0.390970 -0.631885 45.000000
2.536679 -0.399050 -0.632392 49.000000
2.535443 -0.406830 -0.632392 47.000000
2.538001 -0.415232 -0.633406 48.000000
2.540532 -0.423654 -0.634419 54.000000
2.539220 -0.431446 -0.634419 44.000000
2.537885 -0.439234 -0.634419 51.000000
2.534620 -0.446682 -0.633912 42.000000
2.532286 -0.454285 -0.633659 39.000000
2.530880 -0.462052 -0.633659 42.000000
2.525646 -0.469107 -0.632645 49.000000
2.525146 -0.477033 -0.632899 51.000000
2.525570 -0.485143 -0.633406 54.000000
2.525969 -0.493261 -0.633912 50.000000
2.525392 -0.501196 -0.634166 50.000000
2.527636 -0.509707 -0.635180 38.000000
2.527955 -0.517848 -0.635686 45.000000
2.530143 -0.526390 -0.636700 40.000000
2.526623 -0.533750 -0.636193 49.000000
2.524974 -0.541499 -0.636193 54.000000
2.522355 -0.549037 -0.635940 50.000000
2.521604 -0.556982 -0.636193 60.000000
2.520827 -0.564927 -0.636447 49.000000
2.520025 -0.572872 -0.636700 59.000000
2.515428 -0.579949 -0.635940 53.000000
2.514579 -0.587884 -0.636193 41.000000
2.517470 -0.596712 -0.637460 42.000000
2.514686 -0.604206 -0.637207 45.000000
2.510941 -0.611460 -0.636700 52.000000
2.507175 -0.618697 -0.636193 39.000000
2.508081 -0.627090 -0.636953 51.000000
2.504269 -0.634307 -0.636447 37.000000
2.504186 -0.642468 -0.636953 58.000000
2.500330 -0.649661 -0.636447 62.000000
2.499261 -0.657575 -0.636700 41.000000
2.498166 -0.665489 -0.636953 64.000000
2.499849 -0.674158 -0.637967 48.000000
2.490304 -0.679785 -0.635940 55.000000
2.490071 -0.687937 -0.636447 54.000000
2.487949 -0.695574 -0.636447 54.000000
2.483941 -0.702676 -0.635940 45.000000
2.484564 -0.711093 -0.636700 56.000000
2.483299 -0.718981 -0.636953 44.000000
2.481082 -0.726596 -0.636953 55.000000
2.481624 -0.735029 -0.637714 44.000000
2.485843 -0.744583 -0.639488 45.000000
2.485399 -0.752767 -0.639995 47.000000
2.484003 -0.760672 -0.640248 60.000000
2.479809 -0.767717 -0.639741 45.000000
2.480212 -0.776188 -0.640501 34.000000
2.476897 -0.783502 -0.640248 49.000000
2.479088 -0.792571 -0.641515 36.000000
2.472963 -0.798983 -0.640501 66.000000
2.473259 -0.807467 -0.641262 34.000000
2.475363 -0.816567 -0.642529 33.000000
2.476517 -0.825382 -0.643542 27.000000
2.473056 -0.832667 -0.643289 42.000000
2.472321 -0.840873 -0.643796 29.000000
2.463326 -0.846253 -0.642022 15.000000
2.588063 -0.024479 -0.668519 29.000000
2.580261 -0.032325 -0.666405 34.000000
2.580150 -0.040241 -0.666405 34.000000
2.575192 -0.048069 -0.665084 34.000000
2.568283 -0.055826 -0.663234 36.000000
2.571957 -0.063799 -0.664291 29.000000
2.575605 -0.071795 -0.665348 41.000000
2.574409 -0.079667 -0.665084 32.000000
2.575116 -0.087597 -0.665348 41.000000
2.570980 -0.095356 -0.664291 34.000000
2.571639 -0.103281 -0.664555 39.000000
2.569383 -0.111088 -0.664027 34.000000
2.567103 -0.118882 -0.663499 39.000000
2.563837 -0.126616 -0.662706 38.000000
2.556694 -0.134130 -0.660856 54.000000
2.557233 -0.142027 -0.661121 51.000000
2.558711 -0.149983 -0.661649 43.000000
2.556314 -0.157715 -0.661121 39.000000
2.557743 -0.165681 -0.661649 50.000000
2.556260 -0.173462 -0.661385 28.000000
2.555716 -0.181304 -0.661385 37.000000
2.556109 -0.189214 -0.661649 26.000000
2.551670 -0.196761 -0.660592 46.000000
2.551055 -0.204588 -0.660592 37.000000
2.547531 -0.212175 -0.659800 34.000000
2.541103 -0.219494 -0.658214 27.000000
2.538496 -0.227118 -0.657686 30.000000
2.536827 -0.234817 -0.657422 37.000000
2.534174 -0.242416 -0.656893 33.000000
2.540138 -0.250850 -0.658743 50.000000
2.536478 -0.258350 -0.657950 39.000000
2.539510 -0.266531 -0.659007 49.000000
2.549229 -0.275456 -0.661913 36.000000
2.546454 -0.283063 -0.661385 41.000000
2.550365 -0.291420 -0.662706 44.000000
2.550417 -0.299355 -0.662970 51.000000
2.546614 -0.306833 -0.662178 49.000000
2.549489 -0.315116 -0.663234 32.000000
2.546597 -0.322695 -0.662706 34.000000
2.549421 -0.331001 -0.663763 24.000000
2.548393 -0.338821 -0.663763 46.000000
2.548298 -0.346767 -0.664027 45.000000
2.549133 -0.354849 -0.664555 38.000000
2.547077 -0.362532 -0.664291 38.000000
2.543089 -0.369930 -0.663499 38.000000
2.538126 -0.377165 -0.662442 47.000000
2.532189 -0.384229 -0.661121 49.000000
2.525279 -0.391112 -0.659535 44.000000
2.515493 -0.397507 -0.657158 64.000000
2.520928 -0.406294 -0.659007 32.000000
2.519669 -0.414026 -0.659007 37.000000
2.522192 -0.422390 -0.660064 43.000000
2.524688 -0.430773 -0.661121 42.000000
2.524304 -0.438681 -0.661385 65.000000
2.525796 -0.446926 -0.662178 43.000000
2.529159 -0.455526 -0.663499 26.000000
2.524904 -0.462763 -0.662706 45.000000
2.524420 -0.470683 -0.662970 44.000000
2.520121 -0.477888 -0.662178 45.000000
2.518643 -0.485617 -0.662178 37.000000
2.517142 -0.493342 -0.662178 50.000000
2.515616 -0.501062 -0.662178 42.000000
2.518794 -0.509732 -0.663499 35.000000
2.516273 -0.517264 -0.663234 37.000000
2.517508 -0.525571 -0.664027 36.000000
2.512109 -0.532494 -0.662970 41.000000
2.513292 -0.540806 -0.663763 43.000000
2.514448 -0.549130 -0.664555 29.000000
2.508985 -0.556009 -0.663499 40.000000
2.507267 -0.563703 -0.663499 49.000000
2.508347 -0.572035 -0.664291 46.000000
2.506581 -0.579728 -0.664291 40.000000
2.513242 -0.589393 -0.666669 34.000000
2.512361 -0.597324 -0.666933 35.000000
2.509578 -0.604803 -0.666669 39.000000
2.512396 -0.613642 -0.667990 34.000000
2.509565 -0.621115 -0.667726 36.000000
2.506712 -0.628578 -0.667462 35.000000
2.502903 -0.635791 -0.666933 39.000000
2.499072 -0.642987 -0.666405 47.000000
2.490553 -0.648952 -0.664555 39.000000
2.492281 -0.657572 -0.665612 37.000000
2.487456 -0.664470 -0.664820 36.000000
2.486337 -0.672349 -0.665084 34.000000
2.489845 -0.681499 -0.666669 29.000000
2.491461 -0.690163 -0.667726 37.000000
2.487474 -0.697284 -0.667198 40.000000
2.489035 -0.705963 -0.668254 38.000000
2.486857 -0.713596 -0.668254 35.000000
2.489288 -0.722564 -0.669575 49.000000
2.484283 -0.729384 -0.668783 30.000000
2.482034 -0.737002 -0.668783 40.000000
2.481609 -0.745167 -0.669311 37.000000
2.484849 -0.754456 -0.670896 39.000000
2.484367 -0.762641 -0.671425 30.000000
2.480173 -0.769689 -0.670896 34.000000
2.479640 -0.777871 -0.671425 31.000000
2.478162 -0.785766 -0.671689 38.000000
2.478496 -0.794246 -0.672482 37.000000
2.476965 -0.802143 -0.672746 45.000000
2.470825 -0.808541 -0.671689 29.000000
2.472912 -0.817629 -0.673010 38.000000
2.466732 -0.823991 -0.671953 25.000000
2.457795 -0.829400 -0.670104 24.000000
2.455239 -0.836936 -0.670104 23.000000
2.404320 -0.827845 -0.656101 9.000000
2.403591 -0.835851 -0.656629 8.000000
2.602957 -0.015302 -0.704711 24.000000
2.578865 -0.023069 -0.697828 43.000000
2.586472 -0.031074 -0.700030 38.000000
2.580597 -0.038921 -0.698379 47.000000
2.582388 -0.046873 -0.698929 29.000000
2.580310 -0.054755 -0.698379 34.000000
2.581091 -0.062694 -0.698654 34.000000
2.581847 -0.070639 -0.698929 39.000000
2.581618 -0.078560 -0.698929 49.000000
2.580404 -0.086447 -0.698654 49.000000
2.581088 -0.094399 -0.698929 45.000000
2.577904 -0.102202 -0.698103 60.000000
2.576618 -0.110069 -0.697828 37.000000
2.574347 -0.117886 -0.697277 32.000000
2.571093 -0.125642 -0.696452 45.000000
2.572616 -0.133629 -0.697002 41.000000
2.567394 -0.141257 -0.695626 56.000000
2.563110 -0.148909 -0.694524 50.000000
2.560721 -0.156654 -0.693974 56.000000
2.557351 -0.164324 -0.693148 37.000000
2.555876 -0.172105 -0.692873 44.000000
2.554377 -0.179877 -0.692597 46.000000
2.555730 -0.187854 -0.693148 35.000000
2.557059 -0.195842 -0.693699 43.000000
2.557404 -0.203762 -0.693974 52.000000
2.558683 -0.211766 -0.694524 42.000000
2.555148 -0.219368 -0.693699 47.000000
2.555421 -0.227291 -0.693974 50.000000
2.551839 -0.234865 -0.693148 40.000000
2.548236 -0.242420 -0.692322 46.000000
2.550350 -0.250519 -0.693148 49.000000
2.546700 -0.258051 -0.692322 57.000000
2.545897 -0.265863 -0.692322 36.000000
2.554627 -0.274701 -0.695075 55.000000
2.548995 -0.282008 -0.693699 37.000000
2.549073 -0.289936 -0.693974 41.000000
2.550081 -0.297978 -0.694524 43.000000
2.548201 -0.305686 -0.694249 44.000000
2.547251 -0.313502 -0.694249 45.000000
2.545323 -0.321195 -0.693974 34.000000
2.543372 -0.328879 -0.693699 40.000000
2.546163 -0.337186 -0.694800 45.000000
2.546070 -0.345125 -0.695075 45.000000
2.545951 -0.353067 -0.695350 63.000000
2.544856 -0.360876 -0.695350 45.000000
2.548494 -0.369372 -0.696727 43.000000
2.545447 -0.376907 -0.696176 39.000000
2.540476 -0.384139 -0.695075 40.000000
2.538336 -0.391785 -0.694800 34.000000
2.535222 -0.399271 -0.694249 47.000000
2.532087 -0.406742 -0.693699 56.000000
2.528930 -0.414197 -0.693148 38.000000
2.524803 -0.421479 -0.692322 44.000000
2.528236 -0.430029 -0.693699 42.000000
2.530694 -0.438441 -0.694800 46.000000
2.532177 -0.446704 -0.695626 48.000000
2.534579 -0.455151 -0.696727 45.000000
2.537899 -0.463790 -0.698103 47.000000
2.534574 -0.471222 -0.697553 40.000000
2.532172 -0.478817 -0.697277 50.000000
2.527859 -0.486038 -0.696452 36.000000
2.519752 -0.492499 -0.694524 41.000000
2.515400 -0.499665 -0.693699 39.000000
2.514798 -0.507570 -0.693974 52.000000
2.509462 -0.514510 -0.692873 29.000000
2.512577 -0.523187 -0.694249 45.000000
2.512841 -0.531291 -0.694800 45.000000
2.515899 -0.540008 -0.696176 34.000000
2.517988 -0.548543 -0.697277 43.000000
2.519109 -0.556888 -0.698103 42.000000
2.521141 -0.565456 -0.699205 45.000000
2.523144 -0.574042 -0.700306 42.000000
2.522307 -0.581997 -0.700581 39.000000
2.523318 -0.590390 -0.701407 59.000000
2.515882 -0.596796 -0.699755 54.000000
2.514040 -0.604512 -0.699755 55.000000
2.511239 -0.611994 -0.699480 48.000000
2.507483 -0.619235 -0.698929 41.000000
2.501842 -0.625991 -0.697828 43.000000
2.500841 -0.633900 -0.698103 50.000000
2.496091 -0.640851 -0.697277 34.000000
2.499696 -0.649959 -0.698929 47.000000
2.502338 -0.658849 -0.700306 38.000000
2.490087 -0.663798 -0.697277 25.000000
2.492679 -0.672687 -0.698654 27.000000
2.505441 -0.684387 -0.703059 49.000000
2.507963 -0.693352 -0.704435 70.000000
2.506750 -0.701302 -0.704711 42.000000
2.501811 -0.708203 -0.703885 56.000000
2.497779 -0.715346 -0.703334 44.000000
2.497419 -0.723541 -0.703885 46.000000
2.494265 -0.730929 -0.703609 55.000000
2.492932 -0.738851 -0.703885 48.000000
2.490654 -0.746496 -0.703885 51.000000
2.486512 -0.753575 -0.703334 41.000000
2.486027 -0.761764 -0.703885 36.000000
2.484596 -0.769672 -0.704160 35.000000
2.484058 -0.777866 -0.704711 49.000000
2.483493 -0.786064 -0.705261 59.000000
2.480154 -0.793386 -0.704986 40.000000
2.479537 -0.801583 -0.705536 52.000000
2.473411 -0.807992 -0.704435 38.000000
2.471834 -0.815878 -0.704711 41.000000
2.463847 -0.821632 -0.703059 32.000000
2.463137 -0.829801 -0.703609 38.000000
2.457849 -0.836424 -0.702783 33.000000
2.455272 -0.843961 -0.702783 17.000000
2.587764 -0.016985 -0.731561 17.000000
2.583867 -0.024889 -0.730417 23.000000
2.586653 -0.032851 -0.731275 24.000000
2.585582 -0.040772 -0.730989 32.000000
2.581612 -0.048634 -0.729845 32.000000
2.583367 -0.056595 -0.730417 25.000000
2.579349 -0.064427 -0.729273 33.000000
2.579139 -0.072340 -0.729273 47.000000
2.575074 -0.080134 -0.728129 36.000000
2.574816 -0.088034 -0.728129 24.000000
2.569746 -0.095757 -0.726699 37.000000
2.571355 -0.103717 -0.727271 22.000000
2.565281 -0.111358 -0.725554 33.000000
2.561098 -0.119052 -0.724410 39.000000
2.556893 -0.126721 -0.723266 31.000000
2.549793 -0.134215 -0.721264 23.000000
2.552240 -0.142196 -0.722122 40.000000
2.553705 -0.150137 -0.722694 41.000000
2.552276 -0.157912 -0.722408 34.000000
2.558473 -0.166173 -0.724410 31.000000
2.559863 -0.174151 -0.724982 30.000000
2.566964 -0.182544 -0.727271 26.000000
2.564480 -0.190277 -0.726699 28.000000
2.562929 -0.198071 -0.726412 36.000000
2.558488 -0.205628 -0.725268 30.000000
2.556890 -0.213397 -0.724982 43.000000
2.551450 -0.220829 -0.723552 38.000000
2.550761 -0.228656 -0.723552 31.000000
2.551956 -0.236656 -0.724124 35.000000
2.554079 -0.244758 -0.724982 29.000000
2.556177 -0.252874 -0.725840 28.000000
2.557296 -0.260909 -0.726412 35.000000
2.557437 -0.268853 -0.726699 36.000000
2.561363 -0.277211 -0.728129 34.000000
2.559548 -0.284962 -0.727843 49.000000
2.554854 -0.292379 -0.726699 36.000000
2.549186 -0.299659 -0.725268 29.000000
2.553963 -0.308165 -0.726985 29.000000
2.554908 -0.316233 -0.727557 34.000000
2.550123 -0.323589 -0.726412 31.000000
2.550068 -0.331534 -0.726699 35.000000
2.550939 -0.339608 -0.727271 44.000000
2.550835 -0.347562 -0.727557 44.000000
2.551655 -0.355650 -0.728129 24.000000
2.542013 -0.362264 -0.725554 29.000000
2.544683 -0.370612 -0.726699 48.000000
2.545429 -0.378698 -0.727271 39.000000
2.539519 -0.385788 -0.725840 29.000000
2.538323 -0.393577 -0.725840 39.000000
2.538997 -0.401661 -0.726412 47.000000
2.534914 -0.408992 -0.725554 34.000000
2.530811 -0.416302 -0.724696 36.000000
2.528577 -0.423907 -0.724410 33.000000
2.527264 -0.431662 -0.724410 36.000000
2.530649 -0.440233 -0.725840 33.000000
2.530230 -0.448161 -0.726126 43.000000
2.521298 -0.454565 -0.723838 23.000000
2.529317 -0.464023 -0.726699 31.000000
2.530708 -0.472307 -0.727557 34.000000
2.521715 -0.478643 -0.725268 52.000000
2.521176 -0.486558 -0.725554 37.000000
2.512148 -0.492818 -0.723266 37.000000
2.508745 -0.500149 -0.722694 32.000000
2.515651 -0.509552 -0.725268 32.000000
2.510322 -0.516497 -0.724124 47.000000
2.510602 -0.524587 -0.724696 46.000000
2.516480 -0.533874 -0.726985 40.000000
2.511083 -0.540787 -0.725840 34.000000
2.511284 -0.548897 -0.726412 35.000000
2.510524 -0.556806 -0.726699 41.000000
2.506934 -0.564085 -0.726126 36.000000
2.508929 -0.572625 -0.727271 40.000000
2.504359 -0.579673 -0.726412 29.000000
2.509100 -0.588883 -0.728415 30.000000
2.512875 -0.597906 -0.730131 33.000000
2.513824 -0.606286 -0.730989 37.000000
2.511952 -0.613995 -0.730989 46.000000
2.509126 -0.621469 -0.730703 24.000000
2.506279 -0.628931 -0.730417 31.000000
2.509910 -0.638031 -0.732133 38.000000
2.504228 -0.644774 -0.730989 34.000000
2.502239 -0.652454 -0.730989 39.000000
2.500225 -0.660128 -0.730989 39.000000
2.500966 -0.668537 -0.731847 36.000000
2.496127 -0.675457 -0.730989 36.000000
2.494043 -0.683111 -0.730989 24.000000
2.492859 -0.691015 -0.731275 38.000000
2.498110 -0.700727 -0.733563 33.000000
2.495948 -0.708388 -0.733563 34.000000
2.495605 -0.716570 -0.734135 28.000000
2.493395 -0.724223 -0.734135 30.000000
2.493920 -0.732678 -0.734993 40.000000
2.492579 -0.740599 -0.735279 34.000000
2.487542 -0.747416 -0.734421 27.000000
2.481569 -0.753932 -0.733277 34.000000
