ply
format ascii 1.0
element vertex 1272
property float x
property float y
property float z
property float intensity
end_header
3.714025 -0.249618 0.709116 17.000000
3.684779 -0.259007 0.703935 30.000000
3.717331 -0.272762 0.710009 23.000000
3.724325 -0.284767 0.711438 19.000000
3.728338 -0.296582 0.712331 19.000000
3.712702 -0.306802 0.709652 31.000000
3.723506 -0.319201 0.711795 24.000000
3.720550 -0.330448 0.711438 17.000000
3.590618 0.487841 0.647049 27.000000
3.595030 0.477213 0.647550 28.000000
3.591588 0.465546 0.646715 39.000000
3.593000 0.454525 0.646715 34.000000
3.590463 0.443016 0.646047 36.000000
3.585932 0.431290 0.645046 45.000000
3.591156 0.420747 0.645713 22.000000
3.586552 0.409055 0.644712 43.000000
3.586810 0.397941 0.644545 44.000000
3.589975 0.387147 0.644879 55.000000
3.597029 0.376749 0.645880 37.000000
3.596206 0.365512 0.645546 45.000000
3.597310 0.354477 0.645546 34.000000
3.599363 0.343533 0.645713 45.000000
3.602363 0.332671 0.646047 35.000000
3.601403 0.321441 0.645713 45.000000
3.603354 0.310476 0.645880 38.000000
3.604290 0.299419 0.645880 37.000000
3.604209 0.288281 0.645713 34.000000
3.606059 0.277298 0.645880 39.000000
3.604926 0.266088 0.645546 53.000000
3.600808 0.254677 0.644712 46.000000
3.601573 0.243629 0.644712 40.000000
3.601320 0.232515 0.644545 34.000000
3.602016 0.221465 0.644545 47.000000
3.605631 0.210586 0.645046 39.000000
3.607244 0.199578 0.645213 43.000000
3.611778 0.188718 0.645880 41.000000
3.610371 0.177538 0.645546 31.000000
3.614838 0.166644 0.646214 37.000000
3.616318 0.155596 0.646381 39.000000
3.614808 0.144421 0.646047 28.000000
3.614248 0.133294 0.645880 33.000000
3.616611 0.122272 0.646214 39.000000
3.618940 0.111237 0.646548 38.000000
3.622221 0.100216 0.647049 33.000000
3.622512 0.089103 0.647049 33.000000
3.621782 0.077967 0.646882 41.000000
3.625947 0.066930 0.647550 31.000000
3.621207 0.055728 0.646715 25.000000
3.632205 0.044755 0.648551 28.000000
3.627396 0.033564 0.647717 32.000000
3.628468 0.022441 0.647884 32.000000
3.627533 0.011306 0.647717 26.000000
3.632481 0.000179 0.648551 29.000000
3.635422 -0.010974 0.649052 32.000000
3.631428 -0.022104 0.648384 26.000000
3.635287 -0.033280 0.649052 38.000000
3.643054 -0.044527 0.650388 45.000000
3.643886 -0.055718 0.650555 39.000000
3.645670 -0.066932 0.650889 39.000000
3.649390 -0.078200 0.651556 43.000000
3.655047 -0.089539 0.652558 32.000000
3.659683 -0.100886 0.653393 29.000000
3.663299 -0.112233 0.654060 39.000000
3.662937 -0.123471 0.654060 37.000000
3.661556 -0.134673 0.653893 32.000000
3.659155 -0.145828 0.653560 35.000000
3.655736 -0.156927 0.653059 26.000000
3.651297 -0.167962 0.652391 33.000000
3.653719 -0.179307 0.652892 48.000000
3.657090 -0.190720 0.653560 32.000000
3.662395 -0.202263 0.654561 29.000000
3.665694 -0.213727 0.655229 42.000000
3.669942 -0.225272 0.656064 37.000000
3.670217 -0.236594 0.656231 36.000000
3.664555 -0.247522 0.655396 26.000000
3.668697 -0.259109 0.656231 28.000000
3.672801 -0.270724 0.657065 47.000000
3.669987 -0.281841 0.656731 30.000000
3.680899 -0.294037 0.658735 29.000000
3.686858 -0.305897 0.659903 24.000000
3.678043 -0.316533 0.658568 24.000000
3.685894 -0.328601 0.660070 28.000000
3.648541 -0.336568 0.653893 9.000000
3.565398 0.485025 0.597815 26.000000
3.564911 0.473824 0.597505 20.000000
3.565368 0.462758 0.597350 23.000000
3.563831 0.451445 0.596886 26.000000
3.555394 0.439299 0.595337 26.000000
3.554763 0.428153 0.595027 29.000000
3.551154 0.416670 0.594253 25.000000
3.545545 0.404989 0.593169 42.000000
3.549716 0.394437 0.593633 38.000000
3.553856 0.383862 0.594098 38.000000
3.557965 0.373266 0.594563 27.000000
3.559093 0.362349 0.594563 37.000000
3.559205 0.351331 0.594408 36.000000
3.558299 0.340222 0.594098 30.000000
3.556375 0.329031 0.593633 35.000000
3.554415 0.317855 0.593169 36.000000
3.554390 0.306864 0.593014 33.000000
3.557284 0.296121 0.593324 38.000000
3.563099 0.285601 0.594098 35.000000
3.564944 0.274744 0.594253 47.000000
3.564785 0.263733 0.594098 35.000000
3.567548 0.252934 0.594408 36.000000
3.569293 0.242055 0.594563 42.000000
3.571004 0.231167 0.594718 30.000000
3.567753 0.219967 0.594098 38.000000
3.569397 0.209078 0.594253 39.000000
3.571994 0.198236 0.594563 38.000000
3.577519 0.187534 0.595337 37.000000
3.579064 0.176606 0.595492 29.000000
3.577615 0.165534 0.595182 48.000000
3.580080 0.154642 0.595492 39.000000
3.583499 0.143776 0.595957 30.000000
3.586885 0.132891 0.596421 27.000000
3.584314 0.121786 0.595957 43.000000
3.583683 0.110758 0.595802 45.000000
3.589931 0.099927 0.596731 34.000000
3.590221 0.088913 0.596731 37.000000
3.588502 0.077855 0.596421 29.000000
3.588724 0.066846 0.596421 26.000000
3.593851 0.055912 0.597196 27.000000
3.598945 0.044947 0.597970 34.000000
3.599066 0.033905 0.597970 33.000000
3.600141 0.022869 0.598125 30.000000
3.605134 0.011840 0.598899 40.000000
3.600214 0.000779 0.598125 28.000000
3.602174 -0.010272 0.598435 55.000000
3.604102 -0.021335 0.598744 29.000000
3.602044 -0.032375 0.598435 32.000000
3.608843 -0.043509 0.599519 36.000000
3.609680 -0.054596 0.599674 39.000000
3.614434 -0.065761 0.600448 35.000000
3.621129 -0.076997 0.601532 34.000000
3.621864 -0.088130 0.601687 31.000000
3.621576 -0.099241 0.601687 28.000000
3.620267 -0.110322 0.601532 42.000000
3.617937 -0.121361 0.601223 45.000000
3.618535 -0.132497 0.601377 33.000000
3.604291 -0.143048 0.599209 19.000000
3.613706 -0.154528 0.600758 43.000000
3.609267 -0.165433 0.600138 41.000000
3.616637 -0.176892 0.601377 21.000000
3.620023 -0.188192 0.601997 23.000000
3.622388 -0.199461 0.602462 44.000000
3.628663 -0.210975 0.603546 28.000000
3.627012 -0.222046 0.603391 27.000000
3.632230 -0.233554 0.604320 34.000000
3.635438 -0.244962 0.604940 29.000000
3.636641 -0.256254 0.605250 28.000000
3.638794 -0.267627 0.605714 33.000000
3.638940 -0.278865 0.605869 29.000000
3.647916 -0.290814 0.607418 31.000000
3.651929 -0.302413 0.608192 31.000000
3.650000 -0.313531 0.608037 33.000000
3.640165 -0.323938 0.606643 20.000000
3.644073 -0.335558 0.607418 26.000000
3.640075 -0.346455 0.606953 12.000000
3.496292 0.475613 0.543624 25.000000
3.500678 0.465277 0.544053 33.000000
3.505034 0.454918 0.544482 29.000000
3.506413 0.444162 0.544482 20.000000
3.507759 0.433403 0.544482 31.000000
3.515950 0.423470 0.545483 35.000000
3.518216 0.412797 0.545626 39.000000
3.520449 0.402114 0.545769 42.000000
3.523633 0.391531 0.546055 30.000000
3.523834 0.380612 0.545912 31.000000
3.525969 0.369903 0.546055 45.000000
3.526103 0.358983 0.545912 31.000000
3.521278 0.347578 0.545054 49.000000
3.521343 0.336679 0.544911 53.000000
3.522359 0.325874 0.544911 46.000000
3.523342 0.315066 0.544911 47.000000
3.524292 0.304255 0.544911 46.000000
3.526196 0.293523 0.545054 53.000000
3.532012 0.283101 0.545769 54.000000
3.529904 0.272034 0.545340 46.000000
3.532696 0.261350 0.545626 41.000000
3.534468 0.250581 0.545769 38.000000
3.535220 0.239736 0.545769 32.000000
3.541865 0.229275 0.546626 46.000000
3.544527 0.218530 0.546912 35.000000
3.542217 0.207480 0.546483 43.000000
3.548766 0.196942 0.547341 42.000000
3.548365 0.186002 0.547198 46.000000
3.544965 0.174918 0.546626 38.000000
3.543508 0.163950 0.546340 39.000000
3.540039 0.152905 0.545769 35.000000
3.538514 0.141964 0.545483 44.000000
3.540910 0.131181 0.545769 30.000000
3.543274 0.120385 0.546055 50.000000
3.543627 0.109514 0.546055 44.000000
3.553840 0.098920 0.547484 32.000000
3.556105 0.088067 0.547770 42.000000
3.557348 0.077178 0.547913 43.000000
3.558558 0.066283 0.548056 39.000000
3.558744 0.055365 0.548056 35.000000
3.559888 0.044459 0.548199 32.000000
3.560007 0.033537 0.548199 28.000000
3.559103 0.022609 0.548056 48.000000
3.563115 0.011704 0.548628 32.000000
3.557196 0.000769 0.547770 34.000000
3.557181 -0.010145 0.547770 44.000000
3.557133 -0.021058 0.547770 43.000000
3.560021 -0.031997 0.548199 28.000000
3.563865 -0.042965 0.548771 37.000000
3.561737 -0.053869 0.548485 32.000000
3.566503 -0.064884 0.549200 30.000000
3.571235 -0.075930 0.549915 39.000000
3.573953 -0.086957 0.550344 27.000000
3.579606 -0.098082 0.551202 25.000000
3.573352 -0.108885 0.550344 46.000000
3.577947 -0.120011 0.551059 26.000000
3.586464 -0.131311 0.552345 28.000000
3.584066 -0.142235 0.552059 28.000000
3.586580 -0.153356 0.552488 37.000000
3.585104 -0.164314 0.552345 26.000000
3.588537 -0.175504 0.552917 32.000000
3.589958 -0.186615 0.553203 30.000000
3.587392 -0.197520 0.552917 29.000000
3.586769 -0.208525 0.552917 32.000000
3.583149 -0.219348 0.552488 28.000000
3.588386 -0.230719 0.553346 30.000000
3.595561 -0.242256 0.554490 25.000000
3.589864 -0.252940 0.553775 27.000000
3.593020 -0.264241 0.554347 28.000000
3.595153 -0.275489 0.554776 24.000000
3.597250 -0.286753 0.555205 33.000000
3.597340 -0.297869 0.555348 27.000000
3.595423 -0.308820 0.555205 23.000000
3.593473 -0.319761 0.555062 18.000000
3.592475 -0.330784 0.555062 17.000000
3.597355 -0.342365 0.555920 13.000000
3.590378 -0.352821 0.555062 11.000000
3.471659 0.493997 0.497616 22.000000
3.469231 0.482798 0.497092 39.000000
3.471678 0.472286 0.497223 56.000000
3.472128 0.461502 0.497092 33.000000
3.472544 0.450720 0.496961 39.000000
3.476862 0.440438 0.497354 35.000000
3.485084 0.430619 0.498271 25.000000
3.485404 0.419807 0.498140 23.000000
3.482737 0.408650 0.497616 31.000000
3.490870 0.398750 0.498533 26.000000
3.489120 0.387710 0.498140 35.000000
3.495222 0.377535 0.498795 28.000000
3.488476 0.365984 0.497747 42.000000
3.486623 0.354979 0.497354 37.000000
3.491642 0.344669 0.497878 38.000000
3.492683 0.333956 0.497878 36.000000
3.492704 0.323147 0.497747 28.000000
3.499604 0.312960 0.498533 27.000000
3.500547 0.302221 0.498533 29.000000
3.505410 0.291809 0.499057 34.000000
3.508265 0.281211 0.499319 35.000000
3.505158 0.270143 0.498795 30.000000
3.506959 0.259461 0.498926 38.000000
3.504772 0.248490 0.498533 41.000000
3.504528 0.237670 0.498402 38.000000
3.501283 0.226661 0.497878 37.000000
3.500973 0.215857 0.497747 44.000000
3.504588 0.205289 0.498140 54.000000
3.505201 0.194536 0.498140 59.000000
3.511722 0.184092 0.498926 40.000000
3.511280 0.173269 0.498795 35.000000
3.515756 0.162678 0.499319 50.000000
3.521191 0.152105 0.499975 38.000000
3.524613 0.141420 0.500368 34.000000
3.523049 0.130533 0.500106 31.000000
3.520460 0.119623 0.499713 35.000000
3.522792 0.108883 0.499975 33.000000
3.530047 0.098267 0.500892 34.000000
3.526368 0.087339 0.500368 54.000000
3.522654 0.076434 0.499844 36.000000
3.524854 0.065663 0.500106 43.000000
3.530987 0.054940 0.500892 31.000000
3.525191 0.044034 0.500106 32.000000
3.523327 0.033200 0.499844 40.000000
3.519447 0.022365 0.499319 48.000000
3.520490 0.011571 0.499451 33.000000
3.524475 0.000771 0.499975 33.000000
3.526443 -0.010048 0.500237 38.000000
3.530361 -0.020891 0.500761 43.000000
3.535237 -0.031767 0.501416 40.000000
3.540079 -0.042673 0.502071 28.000000
3.542906 -0.053579 0.502465 40.000000
3.545698 -0.064503 0.502858 21.000000
3.542510 -0.075317 0.502465 31.000000
3.539289 -0.086112 0.502071 35.000000
3.538018 -0.096943 0.501940 45.000000
3.540676 -0.107888 0.502334 38.000000
3.538347 -0.118683 0.502071 46.000000
3.541929 -0.129684 0.502596 31.000000
3.543495 -0.140628 0.502858 36.000000
3.551962 -0.151881 0.504037 23.000000
3.554450 -0.162914 0.504430 26.000000
3.555914 -0.173915 0.504692 27.000000
3.555363 -0.184824 0.504692 30.000000
3.561709 -0.196113 0.505610 30.000000
3.557132 -0.206809 0.505085 33.000000
3.558459 -0.217842 0.505348 32.000000
3.558764 -0.228822 0.505479 47.000000
3.559034 -0.239806 0.505610 30.000000
3.563226 -0.251073 0.506265 30.000000
3.564416 -0.262149 0.506527 34.000000
3.564584 -0.273159 0.506658 27.000000
3.568670 -0.284488 0.507313 33.000000
3.567780 -0.295435 0.507313 25.000000
3.566858 -0.306380 0.507313 31.000000
3.567876 -0.317497 0.507575 27.000000
3.562936 -0.328078 0.507051 23.000000
3.567834 -0.339571 0.507837 29.000000
3.572695 -0.351098 0.508624 35.000000
3.567656 -0.361657 0.508100 40.000000
3.565544 -0.372498 0.507968 34.000000
3.566355 -0.383647 0.508231 38.000000
3.556293 -0.393604 0.507051 18.000000
3.436562 0.489573 0.450058 21.000000
3.450831 0.480813 0.451604 36.000000
3.448355 0.469686 0.451128 62.000000
3.442891 0.458186 0.450296 72.000000
3.444280 0.447621 0.450296 74.000000
3.435787 0.435799 0.449107 43.000000
3.439079 0.425501 0.449345 31.000000
3.438397 0.414709 0.449107 38.000000
3.438667 0.404042 0.448988 31.000000
3.442849 0.393830 0.449345 51.000000
3.447002 0.383596 0.449701 47.000000
3.449150 0.373126 0.449820 43.000000
3.451266 0.362647 0.449939 42.000000
3.450386 0.351855 0.449701 46.000000
3.452438 0.341365 0.449820 53.000000
3.457422 0.331152 0.450296 43.000000
3.458422 0.320543 0.450296 43.000000
3.463345 0.310287 0.450772 36.000000
3.469226 0.300090 0.451366 33.000000
3.471120 0.289528 0.451485 56.000000
3.471002 0.278797 0.451366 52.000000
3.469861 0.267993 0.451128 46.000000
3.465716 0.256978 0.450534 62.000000
3.465498 0.246273 0.450415 46.000000
3.467228 0.235708 0.450534 37.000000
3.467934 0.225070 0.450534 38.000000
3.473564 0.214737 0.451128 44.000000
3.476188 0.204196 0.451366 34.000000
3.477790 0.193586 0.451485 46.000000
3.479359 0.182968 0.451604 42.000000
3.478912 0.172243 0.451485 50.000000
3.476449 0.161430 0.451128 58.000000
3.476928 0.150764 0.451128 43.000000
3.480350 0.140217 0.451485 45.000000
3.481756 0.129576 0.451604 45.000000
3.483130 0.118928 0.451723 48.000000
3.483478 0.108241 0.451723 46.000000
3.487764 0.097666 0.452199 38.000000
3.488047 0.086965 0.452199 39.000000
3.486312 0.076219 0.451961 41.000000
3.488515 0.065561 0.452199 40.000000
3.494656 0.054954 0.452912 47.000000
3.494808 0.044232 0.452912 37.000000
3.496914 0.033530 0.453150 39.000000
3.499979 0.022822 0.453507 45.000000
3.496061 0.012069 0.453031 45.000000
3.495088 0.001342 0.452912 42.000000
3.492098 -0.009374 0.452556 39.000000
3.489074 -0.020071 0.452199 41.000000
3.491974 -0.030801 0.452556 48.000000
3.489877 -0.041491 0.452318 39.000000
3.489734 -0.052197 0.452318 50.000000
3.491543 -0.062939 0.452556 41.000000
3.494311 -0.073712 0.452912 33.000000
3.492084 -0.084385 0.452674 30.000000
3.496771 -0.095231 0.453269 34.000000
3.496462 -0.105959 0.453269 29.000000
3.497113 -0.116718 0.453388 47.000000
3.496738 -0.127447 0.453388 30.000000
3.498315 -0.138252 0.453626 34.000000
3.506803 -0.149361 0.454696 34.000000
3.506328 -0.160119 0.454696 49.000000
3.507804 -0.170971 0.454934 37.000000
3.511229 -0.181937 0.455410 34.000000
3.511646 -0.192762 0.455529 47.000000
3.510046 -0.203478 0.455410 46.000000
3.512379 -0.214426 0.455766 38.000000
3.507741 -0.224948 0.455291 38.000000
3.509016 -0.235841 0.455529 33.000000
3.509266 -0.246675 0.455648 25.000000
3.508493 -0.257440 0.455648 32.000000
3.514617 -0.268730 0.456480 35.000000
3.522685 -0.280217 0.457550 34.000000
3.525766 -0.291349 0.458026 26.000000
3.528813 -0.302502 0.458502 26.000000
3.529846 -0.313502 0.458740 27.000000
3.533812 -0.324783 0.459334 31.000000
3.536752 -0.335997 0.459810 27.000000
3.536693 -0.346943 0.459929 33.000000
3.540552 -0.358290 0.460523 43.000000
3.536474 -0.368842 0.460167 26.000000
3.541249 -0.380325 0.460880 58.000000
3.530195 -0.390100 0.459691 30.000000
3.413186 0.454278 0.404288 38.000000
3.411606 0.443420 0.403967 24.000000
3.409991 0.432576 0.403647 21.000000
3.410316 0.421991 0.403540 29.000000
3.409620 0.411288 0.403326 34.000000
3.409878 0.400710 0.403220 29.000000
3.412080 0.390359 0.403326 44.000000
3.419190 0.380549 0.403967 45.000000
3.420342 0.370057 0.403967 40.000000
3.419483 0.359354 0.403754 48.000000
3.423537 0.349164 0.404074 38.000000
3.422613 0.338463 0.403860 42.000000
3.427594 0.328340 0.404288 30.000000
3.422645 0.317273 0.403647 34.000000
3.423603 0.306771 0.403647 38.000000
3.434433 0.297122 0.404715 33.000000
3.434338 0.286501 0.404608 44.000000
3.437183 0.276123 0.404821 46.000000
3.441979 0.265882 0.405249 32.000000
3.439805 0.255101 0.404928 38.000000
3.444538 0.244828 0.405355 40.000000
3.441305 0.233990 0.404928 45.000000
3.433077 0.222852 0.403967 54.000000
3.432752 0.212257 0.403860 45.000000
3.433387 0.201725 0.403860 38.000000
3.433990 0.191190 0.403860 42.000000
3.430588 0.180446 0.403433 31.000000
3.430133 0.169871 0.403326 50.000000
3.433618 0.159484 0.403647 40.000000
3.434090 0.148950 0.403647 39.000000
3.437512 0.138533 0.403967 35.000000
3.439908 0.128060 0.404181 59.000000
3.441278 0.117540 0.404288 50.000000
3.442616 0.107012 0.404394 49.000000
3.441935 0.096422 0.404288 47.000000
3.442214 0.085862 0.404288 41.000000
3.448426 0.075431 0.404928 39.000000
3.448641 0.064851 0.404928 45.000000
3.455782 0.054379 0.405676 30.000000
3.458916 0.043814 0.405996 39.000000
3.459034 0.033202 0.405996 36.000000
3.466079 0.022634 0.406744 46.000000
3.468121 0.012007 0.406957 35.000000
3.461181 0.001365 0.406210 41.000000
3.461170 -0.009254 0.406210 32.000000
3.461125 -0.019872 0.406210 42.000000
3.464031 -0.030517 0.406530 34.000000
3.469886 -0.041216 0.407171 37.000000
3.469743 -0.051862 0.407171 41.000000
3.469568 -0.062506 0.407171 33.000000
3.483276 -0.073446 0.408666 57.000000
3.476077 -0.083963 0.407918 38.000000
3.480772 -0.094763 0.408452 51.000000
3.480465 -0.105441 0.408452 41.000000
3.481119 -0.116152 0.408559 34.000000
3.484720 -0.126977 0.408986 21.000000
3.479347 -0.137470 0.408452 37.000000
3.482882 -0.148314 0.408879 34.000000
3.479432 -0.158862 0.408559 33.000000
3.475949 -0.169390 0.408239 35.000000
3.478391 -0.180208 0.408559 27.000000
3.480800 -0.191043 0.408879 37.000000
3.484168 -0.201951 0.409306 27.000000
3.487502 -0.212882 0.409734 50.000000
3.488817 -0.223708 0.409947 34.000000
3.493074 -0.234745 0.410481 31.000000
3.493330 -0.245530 0.410588 41.000000
3.491568 -0.256173 0.410481 37.000000
3.510594 -0.268402 0.412617 21.000000
3.503807 -0.278698 0.411976 36.000000
3.503926 -0.289528 0.412083 33.000000
3.502031 -0.300191 0.411976 39.000000
3.501093 -0.310934 0.411976 37.000000
3.503093 -0.321947 0.412296 43.000000
3.499119 -0.332411 0.411976 33.000000
3.491156 -0.342464 0.411229 20.000000
3.484154 -0.352572 0.410588 21.000000
3.485034 -0.363466 0.410801 20.000000
3.474016 -0.373093 0.409734 7.000000
3.367001 0.447465 0.358741 39.000000
3.368358 0.437133 0.358741 39.000000
3.366720 0.426420 0.358456 39.000000
3.369001 0.416212 0.358551 39.000000
3.369274 0.405755 0.358456 45.000000
3.368525 0.395183 0.358266 41.000000
3.371700 0.385073 0.358456 45.000000
3.372865 0.374727 0.358456 54.000000
3.375978 0.364592 0.358646 44.000000
3.378071 0.354337 0.358741 43.000000
3.379142 0.343972 0.358741 40.000000
3.383153 0.333898 0.359025 51.000000
3.387135 0.323802 0.359310 48.000000
3.388112 0.313409 0.359310 33.000000
3.392032 0.303280 0.359595 53.000000
3.392947 0.292872 0.359595 46.000000
3.396806 0.282710 0.359880 39.000000
3.400634 0.272527 0.360165 44.000000
3.402446 0.262169 0.360260 38.000000
3.404227 0.251803 0.360355 31.000000
3.406970 0.241499 0.360545 54.000000
3.407694 0.231046 0.360545 57.000000
3.407394 0.220525 0.360450 52.000000
3.406067 0.209948 0.360260 40.000000
3.407689 0.199555 0.360355 56.000000
3.406297 0.188989 0.360165 50.000000
3.397914 0.178066 0.359310 35.000000
3.407393 0.168085 0.360165 62.000000
3.404910 0.157491 0.359880 48.000000
3.405376 0.147044 0.359880 42.000000
3.412774 0.136878 0.360545 58.000000
3.406215 0.126146 0.359880 42.000000
3.409570 0.115798 0.360165 49.000000
3.412895 0.105430 0.360450 38.000000
3.408227 0.094819 0.359975 38.000000
3.407506 0.084338 0.359880 32.000000
3.411730 0.073971 0.360260 47.000000
3.414927 0.063560 0.360545 54.000000
3.418092 0.053130 0.360830 43.000000
3.422220 0.042694 0.361210 45.000000
3.425321 0.032224 0.361495 40.000000
3.427395 0.021729 0.361685 50.000000
3.429437 0.011221 0.361875 33.000000
3.427464 0.000698 0.361685 44.000000
3.426454 -0.009815 0.361590 40.000000
3.424417 -0.020316 0.361400 31.000000
3.421353 -0.030796 0.361115 37.000000
3.421242 -0.041292 0.361115 30.000000
3.426076 -0.051862 0.361590 35.000000
3.428887 -0.062426 0.361875 42.000000
3.434650 -0.073070 0.362445 40.000000
3.435405 -0.083631 0.362540 34.000000
3.441103 -0.094332 0.363109 51.000000
3.443783 -0.104979 0.363394 40.000000
3.438470 -0.115379 0.362920 36.000000
3.433125 -0.125747 0.362445 40.000000
3.429740 -0.136161 0.362160 47.000000
3.420354 -0.146303 0.361305 25.000000
3.422873 -0.156932 0.361590 42.000000
3.423370 -0.167480 0.361685 40.000000
3.424828 -0.178085 0.361875 37.000000
3.433212 -0.189081 0.362730 28.000000
3.441560 -0.200130 0.363584 29.000000
3.440929 -0.210688 0.363584 38.000000
3.445234 -0.221561 0.364059 36.000000
3.448511 -0.232396 0.364439 30.000000
3.450761 -0.243184 0.364724 27.000000
3.449006 -0.253697 0.364629 40.000000
3.451189 -0.264505 0.364914 35.000000
3.454331 -0.275407 0.365294 40.000000
3.456446 -0.286248 0.365579 33.000000
3.461503 -0.297361 0.366149 34.000000
3.460574 -0.307979 0.366149 34.000000
3.460604 -0.318685 0.366244 44.000000
3.467539 -0.330053 0.367004 28.000000
3.461556 -0.340204 0.366529 27.000000
3.461486 -0.350923 0.366624 17.000000
3.461384 -0.361644 0.366719 28.000000
3.455309 -0.371731 0.366244 21.000000
3.336128 0.444031 0.313345 27.000000
3.336487 0.433665 0.313263 33.000000
3.335824 0.423176 0.313098 23.000000
3.334139 0.412573 0.312850 32.000000
3.343305 0.403296 0.313510 31.000000
3.343537 0.392921 0.313428 44.000000
3.344727 0.382661 0.313428 36.000000
3.348856 0.372728 0.313675 31.000000
3.350975 0.362560 0.313757 35.000000
3.358018 0.352902 0.314252 23.000000
3.356111 0.342295 0.314005 37.000000
3.355161 0.331801 0.313840 44.000000
3.358148 0.321695 0.314005 39.000000
3.358127 0.311299 0.313922 45.000000
3.365021 0.301528 0.314417 25.000000
3.365931 0.291203 0.314417 32.000000
3.370781 0.281206 0.314747 36.000000
3.371628 0.270864 0.314747 49.000000
3.375424 0.260748 0.314994 40.000000
3.376208 0.250391 0.314994 36.000000
3.378948 0.240173 0.315159 42.000000
3.378675 0.229738 0.315077 33.000000
3.377375 0.219242 0.314912 33.000000
3.377037 0.208818 0.314829 36.000000
3.376667 0.198398 0.314747 42.000000
3.374275 0.187872 0.314500 31.000000
3.378816 0.177728 0.314829 33.000000
3.380341 0.167410 0.314912 41.000000
3.375861 0.156808 0.314500 36.000000
3.377321 0.146494 0.314582 39.000000
3.375764 0.136051 0.314417 28.000000
3.379153 0.125805 0.314665 45.000000
3.379523 0.115437 0.314665 49.000000
3.373884 0.104883 0.314170 39.000000
3.375186 0.094560 0.314252 35.000000
3.376457 0.084229 0.314335 37.000000
3.375703 0.073848 0.314252 33.000000
3.380896 0.063584 0.314665 43.000000
3.382071 0.053227 0.314747 44.000000
3.385209 0.042889 0.314994 41.000000
3.393296 0.032578 0.315654 35.000000
3.397367 0.022193 0.315984 41.000000
3.397419 0.011770 0.315984 46.000000
3.399432 0.001348 0.316149 40.000000
3.400417 -0.009085 0.316231 38.000000
3.400373 -0.019517 0.316231 43.000000
3.396311 -0.029913 0.315901 45.000000
3.395207 -0.040321 0.315819 47.000000
3.396063 -0.050752 0.315901 29.000000
3.400874 -0.061261 0.316314 43.000000
3.404655 -0.071779 0.316644 36.000000
3.404419 -0.082224 0.316644 45.000000
3.403155 -0.092641 0.316561 43.000000
3.409827 -0.103293 0.317138 26.000000
3.408498 -0.113721 0.317056 38.000000
3.407137 -0.124141 0.316973 27.000000
3.405745 -0.134554 0.316891 29.000000
3.406312 -0.145044 0.316973 33.000000
3.411824 -0.155768 0.317468 39.000000
3.415312 -0.166429 0.317798 37.000000
3.409809 -0.176648 0.317386 40.000000
3.412236 -0.187272 0.317633 42.000000
3.412640 -0.197798 0.317716 36.000000
3.409034 -0.208084 0.317468 29.000000
3.411362 -0.218733 0.317716 34.000000
3.415647 -0.229533 0.318128 35.000000
3.412938 -0.239871 0.317963 43.000000
3.426101 -0.251363 0.319117 37.000000
3.426308 -0.261949 0.319200 40.000000
3.425488 -0.272460 0.319200 26.000000
3.431588 -0.283543 0.319777 43.000000
3.432688 -0.294240 0.319942 24.000000
3.428792 -0.304505 0.319695 43.000000
3.430818 -0.315297 0.319942 39.000000
3.429835 -0.325821 0.319942 46.000000
3.432786 -0.336732 0.320272 37.000000
3.433720 -0.347463 0.320437 30.000000
3.436603 -0.358409 0.320767 29.000000
3.437469 -0.369164 0.320932 33.000000
3.432358 -0.379270 0.320602 36.000000
3.439100 -0.390700 0.321261 11.000000
3.303763 0.437870 0.271028 26.000000
3.301134 0.427219 0.270746 31.000000
3.305398 0.417465 0.270958 26.000000
3.299733 0.406466 0.270463 22.000000
3.302945 0.396580 0.270605 35.000000
3.308110 0.386909 0.270887 48.000000
3.305316 0.376306 0.270605 41.000000
3.308438 0.366383 0.270746 31.000000
3.309547 0.356232 0.270746 35.000000
3.308640 0.345868 0.270605 45.000000
3.312662 0.336019 0.270817 28.000000
3.316656 0.326148 0.271028 58.000000
3.317641 0.315971 0.271028 43.000000
3.320581 0.305975 0.271170 36.000000
3.325478 0.296142 0.271452 48.000000
3.331341 0.286367 0.271805 47.000000
3.338168 0.276641 0.272229 36.000000
3.336018 0.266160 0.272017 52.000000
3.335824 0.255847 0.271947 33.000000
3.341567 0.245979 0.272300 49.000000
3.349271 0.236220 0.272794 31.000000
3.347990 0.225809 0.272653 41.000000
3.353644 0.215858 0.273006 37.000000
3.349313 0.205262 0.272653 34.000000
3.351918 0.195102 0.272794 34.000000
3.352501 0.184817 0.272794 36.000000
3.350064 0.174374 0.272582 48.000000
3.344605 0.163801 0.272158 35.000000
3.346088 0.153585 0.272229 31.000000
3.346544 0.143319 0.272229 45.000000
3.350955 0.133211 0.272512 48.000000
3.353341 0.123004 0.272653 36.000000
3.353703 0.112715 0.272653 33.000000
3.354033 0.102426 0.272653 33.000000
3.357322 0.092218 0.272865 35.000000
3.357589 0.081918 0.272865 42.000000
3.354833 0.071551 0.272653 39.000000
3.353042 0.061222 0.272512 37.000000
3.353214 0.050934 0.272512 37.000000
3.351360 0.040622 0.272370 34.000000
3.351469 0.030340 0.272370 29.000000
3.352544 0.020064 0.272441 46.000000
3.355582 0.009788 0.272653 37.000000
3.356594 -0.000507 0.272723 35.000000
3.358571 -0.010810 0.272865 39.000000
3.358522 -0.021114 0.272865 32.000000
3.355449 -0.031391 0.272653 28.000000
3.355337 -0.041685 0.272653 31.000000
3.355193 -0.051979 0.272653 25.000000
3.352026 -0.062218 0.272441 26.000000
3.357803 -0.072629 0.272865 21.000000
3.359559 -0.082979 0.273006 26.000000
3.359289 -0.093285 0.273006 28.000000
3.365966 -0.103804 0.273500 34.000000
3.368623 -0.114230 0.273712 26.000000
3.369253 -0.124601 0.273783 18.000000
3.370848 -0.135016 0.273924 28.000000
3.369421 -0.145315 0.273854 23.000000
3.372946 -0.155834 0.274136 38.000000
3.372452 -0.166181 0.274136 29.000000
3.377903 -0.176838 0.274560 29.000000
3.376349 -0.187146 0.274489 23.000000
3.369783 -0.197156 0.274065 23.000000
3.378124 -0.208042 0.274701 19.000000
3.374483 -0.218213 0.274489 26.000000
3.375788 -0.228699 0.274630 28.000000
3.380046 -0.239405 0.274984 21.000000
3.373327 -0.249335 0.274560 18.000000
3.382492 -0.260445 0.275266 24.000000
3.384659 -0.271059 0.275478 16.000000
3.384806 -0.281524 0.275549 23.000000
3.382933 -0.291822 0.275478 15.000000
3.374073 -0.301492 0.274913 16.000000
3.385052 -0.312939 0.275760 27.000000
3.385069 -0.323418 0.275831 19.000000
3.381083 -0.333509 0.275619 15.000000
3.386990 -0.344585 0.276114 24.000000
3.392862 -0.355700 0.276608 24.000000
3.392746 -0.366214 0.276679 25.000000
3.392598 -0.376731 0.276749 15.000000
3.385480 -0.386461 0.276325 12.000000
3.402112 -0.398930 0.277597 5.000000
3.288487 0.437114 0.228284 29.000000
3.289813 0.427023 0.228284 35.000000
3.296060 0.417555 0.228575 30.000000
3.306242 0.408541 0.229097 38.000000
3.322347 0.400185 0.229969 24.000000
3.329509 0.390688 0.230317 27.000000
3.327716 0.380132 0.230143 43.000000
3.371532 0.374657 0.232641 24.000000
3.372665 0.364311 0.232641 30.000000
3.364831 0.353026 0.232118 28.000000
3.379803 0.344115 0.232931 24.000000
3.379850 0.333646 0.232873 29.000000
3.370919 0.322327 0.232292 31.000000
3.381833 0.312902 0.232873 27.000000
3.389738 0.303147 0.233280 25.000000
3.372749 0.291202 0.232234 25.000000
3.347759 0.278703 0.230724 41.000000
3.351584 0.268670 0.230898 35.000000
3.357369 0.258769 0.231188 35.000000
3.337240 0.246923 0.229969 29.000000
3.334994 0.236472 0.229794 31.000000
3.317775 0.225025 0.228749 24.000000
3.325424 0.215296 0.229155 33.000000
3.311122 0.204173 0.228284 30.000000
3.322695 0.194654 0.228923 29.000000
3.338229 0.185288 0.229794 31.000000
3.327815 0.174472 0.229155 23.000000
3.334317 0.164556 0.229504 35.000000
3.343782 0.154740 0.230027 28.000000
3.336262 0.144137 0.229562 21.000000
3.355641 0.134659 0.230666 30.000000
3.375991 0.125100 0.231827 39.000000
3.368377 0.114472 0.231363 31.000000
3.372704 0.104260 0.231595 37.000000
3.376999 0.094023 0.231827 41.000000
3.369288 0.083465 0.231363 35.000000
3.369528 0.073128 0.231363 34.000000
3.374727 0.062883 0.231653 33.000000
3.387881 0.052729 0.232408 32.000000
3.381039 0.042249 0.232002 34.000000
3.387143 0.031931 0.232350 42.000000
3.379238 0.021490 0.231886 20.000000
3.385278 0.011141 0.232234 38.000000
3.388291 0.000756 0.232408 36.000000
3.401256 -0.009678 0.233163 31.000000
3.397217 -0.020089 0.232931 31.000000
3.391150 -0.030456 0.232583 26.000000
3.385051 -0.040787 0.232234 30.000000
3.371933 -0.050975 0.231479 24.000000
3.369765 -0.061283 0.231363 32.000000
3.346605 -0.071130 0.230027 21.000000
3.351361 -0.081519 0.230317 23.000000
3.343112 -0.091581 0.229852 20.000000
3.365765 -0.102539 0.231188 30.000000
3.397363 -0.113939 0.233047 33.000000
3.388018 -0.124032 0.232524 28.000000
3.382634 -0.134227 0.232234 23.000000
3.427089 -0.146528 0.234848 26.000000
3.422635 -0.156858 0.234616 23.000000
3.475981 -0.169997 0.237752 30.000000
3.536258 -0.183829 0.241296 21.000000
3.493812 -0.192367 0.238856 26.000000
3.566955 -0.207381 0.243154 24.000000
3.570288 -0.218568 0.243387 20.000000
3.590522 -0.230868 0.244607 17.000000
3.597765 -0.242420 0.245071 34.000000
3.584059 -0.252543 0.244316 13.000000
3.581276 -0.263391 0.244200 29.000000
3.542626 -0.271474 0.241993 25.000000
3.511923 -0.279958 0.240250 20.000000
3.452348 -0.285864 0.236823 12.000000
3.448471 -0.296198 0.236649 11.000000
3.421692 -0.304473 0.235138 11.000000
3.396884 -0.312770 0.233744 16.000000
3.393861 -0.344020 0.233744 9.000000
3.714221 0.353230 0.208136 31.000000
3.729213 0.343119 0.208783 27.000000
3.751143 0.333541 0.209754 28.000000
3.771058 0.323660 0.210633 38.000000
3.786966 0.313329 0.211326 29.000000
3.800854 0.302744 0.211927 33.000000
3.801765 0.291082 0.211927 28.000000
3.818580 0.280593 0.212667 55.000000
3.842341 0.270497 0.213730 126.000000
3.812257 0.256618 0.212297 56.000000
3.806048 0.244471 0.211973 62.000000
3.795813 0.232119 0.211465 60.000000
3.788529 0.220006 0.211095 69.000000
3.782204 0.207996 0.210771 76.000000
3.777837 0.196131 0.210540 61.000000
3.773432 0.184295 0.210309 42.000000
3.773979 0.172717 0.210309 34.000000
3.763514 0.160666 0.209800 26.000000
3.779959 0.149757 0.210540 100.000000
3.776407 0.138012 0.210355 58.000000
3.773818 0.126324 0.210217 52.000000
3.774188 0.114746 0.210217 50.000000
3.779515 0.103304 0.210448 55.000000
3.780813 0.091733 0.210494 44.000000
3.783074 0.080176 0.210586 45.000000
3.786298 0.068625 0.210725 42.000000
3.781497 0.056931 0.210494 52.000000
3.785649 0.045379 0.210679 45.000000
3.787768 0.033783 0.210771 32.000000
3.784858 0.022143 0.210633 39.000000
3.787905 0.010541 0.210771 35.000000
3.784922 -0.001081 0.210633 37.000000
3.787898 -0.012702 0.210771 31.000000
3.795832 -0.024372 0.211141 31.000000
3.810723 -0.036154 0.211835 89.000000
3.820583 -0.047968 0.212297 94.000000
3.822415 -0.059720 0.212390 38.000000
3.829205 -0.071575 0.212713 61.000000
3.830965 -0.083365 0.212806 53.000000
3.831690 -0.095143 0.212852 51.000000
3.860338 -0.107697 0.214193 30.000000
3.934874 -0.121836 0.217660 10.000000
3.878913 0.262341 0.167333 16.000000
3.790935 0.244718 0.164320 46.000000
3.784685 0.232658 0.164083 46.000000
3.775404 0.220464 0.163744 61.000000
3.771073 0.208605 0.163575 62.000000
3.766705 0.196774 0.163406 55.000000
3.763298 0.185021 0.163270 45.000000
3.761851 0.173383 0.163203 56.000000
3.756374 0.161584 0.163000 56.000000
3.759848 0.150178 0.163101 51.000000
3.760291 0.138642 0.163101 53.000000
3.760699 0.127105 0.163101 83.000000
3.758074 0.115475 0.163000 59.000000
3.761408 0.104028 0.163101 70.000000
3.760710 0.092463 0.163067 72.000000
3.765972 0.081032 0.163237 60.000000
3.765204 0.069459 0.163203 65.000000
3.768397 0.057953 0.163304 79.000000
3.770556 0.046416 0.163372 60.000000
3.771680 0.034857 0.163406 62.000000
3.773768 0.023298 0.163474 67.000000
3.774821 0.011723 0.163507 66.000000
3.774839 0.000142 0.163507 60.000000
3.780819 -0.011458 0.163711 59.000000
3.784763 -0.023082 0.163846 58.000000
3.794668 -0.034786 0.164184 85.000000
3.806536 -0.046576 0.164591 56.000000
3.813370 -0.058362 0.164828 59.000000
3.821167 -0.070208 0.165098 51.000000
3.821933 -0.081953 0.165132 43.000000
3.824661 -0.093752 0.165234 40.000000
3.859322 -0.106453 0.166419 13.000000
3.766232 0.243216 0.117530 46.000000
3.763967 0.231475 0.117466 49.000000
3.763661 0.219867 0.117444 61.000000
3.758328 0.207986 0.117314 61.000000
3.758949 0.196455 0.117314 54.000000
3.750547 0.184477 0.117119 70.000000
3.745103 0.172691 0.116989 71.000000
3.742619 0.161071 0.116925 55.000000
3.742096 0.149548 0.116903 51.000000
3.744536 0.138141 0.116946 55.000000
3.746940 0.126720 0.116989 67.000000
3.743314 0.115100 0.116903 51.000000
3.744649 0.103643 0.116925 56.000000
3.747948 0.092229 0.116989 55.000000
3.750212 0.080774 0.117033 66.000000
3.752442 0.069305 0.117076 71.000000
3.754636 0.057824 0.117119 67.000000
3.759794 0.046368 0.117227 49.000000
3.762918 0.034862 0.117292 53.000000
3.762007 0.023310 0.117271 55.000000
3.764060 0.011775 0.117314 59.000000
3.762079 0.000227 0.117271 42.000000
3.770061 -0.011337 0.117444 48.000000
3.776006 -0.022938 0.117574 86.000000
3.782917 -0.034584 0.117725 46.000000
3.789790 -0.046273 0.117877 56.000000
3.796628 -0.058004 0.118028 55.000000
3.800431 -0.069724 0.118115 48.000000
3.808195 -0.081552 0.118288 38.000000
3.807927 -0.093235 0.118288 39.000000
3.841603 -0.105843 0.119024 12.000000
3.746080 0.241174 0.070759 25.000000
3.747800 0.229741 0.070768 41.000000
3.746491 0.218126 0.070749 63.000000
3.744147 0.206466 0.070722 65.000000
3.761739 0.195860 0.070879 35.000000
3.739351 0.183195 0.070666 66.000000
3.738896 0.171676 0.070657 78.000000
3.736408 0.160077 0.070629 68.000000
3.733884 0.148494 0.070601 63.000000
3.732324 0.136965 0.070583 68.000000
3.732727 0.125513 0.070583 54.000000
3.733094 0.114061 0.070583 58.000000
3.732427 0.102580 0.070574 66.000000
3.737722 0.091250 0.070620 56.000000
3.741983 0.079868 0.070657 71.000000
3.741211 0.068369 0.070648 78.000000
3.745403 0.056951 0.070685 63.000000
3.745560 0.045460 0.070685 58.000000
3.746681 0.033977 0.070694 61.000000
3.746768 0.022483 0.070694 63.000000
3.745820 0.010985 0.070685 64.000000
3.749835 -0.000508 0.070722 74.000000
3.757816 -0.012039 0.070796 60.000000
3.760761 -0.023587 0.070823 67.000000
3.766670 -0.035181 0.070879 49.000000
3.774544 -0.046837 0.070953 38.000000
3.779382 -0.058495 0.070999 48.000000
3.788182 -0.070258 0.071082 42.000000
3.791948 -0.081966 0.071119 40.000000
3.793678 -0.093649 0.071138 44.000000
3.813364 -0.105844 0.071323 6.000000
3.802016 0.245538 0.023598 19.000000
3.755841 0.230973 0.023754 50.000000
3.746549 0.218862 0.023787 55.000000
3.742211 0.207089 0.023804 61.000000
3.734839 0.195187 0.023830 51.000000
3.730427 0.183481 0.023847 50.000000
3.725978 0.171803 0.023863 52.000000
3.719494 0.160068 0.023887 63.000000
3.714972 0.148455 0.023903 62.000000
3.714410 0.137020 0.023906 82.000000
3.713814 0.125590 0.023910 62.000000
3.718180 0.114319 0.023896 60.000000
3.717513 0.102884 0.023900 66.000000
3.721810 0.091578 0.023887 58.000000
3.726073 0.080246 0.023873 55.000000
3.726301 0.068814 0.023873 54.000000
3.727494 0.057398 0.023870 55.000000
3.724653 0.045924 0.023880 62.000000
3.725777 0.034506 0.023877 47.000000
3.728865 0.023095 0.023867 43.000000
3.726918 0.011648 0.023873 50.000000
3.730937 0.000215 0.023860 46.000000
3.738919 -0.011253 0.023833 52.000000
3.742867 -0.022747 0.023820 41.000000
3.748780 -0.034282 0.023800 48.000000
3.764656 -0.045974 0.023747 33.000000
3.764497 -0.057523 0.023747 65.000000
3.773301 -0.069235 0.023717 51.000000
3.773071 -0.080811 0.023717 35.000000
3.776804 -0.092483 0.023704 38.000000
3.756510 -0.103525 0.023770 16.000000
3.759665 0.243359 -0.022757 42.000000
3.754405 0.231455 -0.022663 55.000000
3.750107 0.219644 -0.022584 45.000000
3.742776 0.207695 -0.022458 69.000000
3.732412 0.195637 -0.022286 67.000000
3.727003 0.183890 -0.022191 60.000000
3.724553 0.172317 -0.022144 58.000000
3.722067 0.160760 -0.022097 65.000000
3.717548 0.149140 -0.022019 75.000000
3.714990 0.137623 -0.021972 83.000000
3.715395 0.126225 -0.021972 84.000000
3.714765 0.114795 -0.021956 81.000000
3.714100 0.103370 -0.021940 68.000000
3.711401 0.091901 -0.021893 74.000000
3.705668 0.080385 -0.021799 69.000000
3.706897 0.069034 -0.021814 57.000000
3.701093 0.057569 -0.021720 81.000000
3.697253 0.046164 -0.021657 78.000000
3.695377 0.034802 -0.021626 67.000000
3.701466 0.023502 -0.021720 65.000000
3.704520 0.012156 -0.021767 79.000000
3.713539 0.000791 -0.021909 72.000000
3.722523 -0.010628 -0.022050 58.000000
3.729472 -0.022091 -0.022160 65.000000
3.737385 -0.033606 -0.022286 78.000000
3.743263 -0.045144 -0.022380 66.000000
3.767102 -0.056994 -0.022757 35.000000
3.777905 -0.068752 -0.022930 39.000000
3.771679 -0.080214 -0.022835 24.000000
3.771415 -0.091785 -0.022835 22.000000
3.774114 -0.103438 -0.022883 27.000000
3.687830 -0.112388 -0.021532 8.000000
3.832719 0.259340 -0.070014 12.000000
3.772648 0.243632 -0.068321 31.000000
3.750431 0.230638 -0.067683 41.000000
3.746131 0.218838 -0.067544 32.000000
3.734808 0.206677 -0.067211 39.000000
3.719453 0.194378 -0.066767 34.000000
3.711046 0.182522 -0.066518 38.000000
3.696610 0.170440 -0.066101 45.000000
3.691124 0.158839 -0.065935 53.000000
3.687598 0.147353 -0.065824 52.000000
3.685036 0.135927 -0.065741 65.000000
3.683438 0.124553 -0.065685 62.000000
3.683803 0.113252 -0.065685 69.000000
3.686132 0.102005 -0.065741 47.000000
3.684428 0.090646 -0.065685 85.000000
3.684689 0.079342 -0.065685 46.000000
3.685915 0.068056 -0.065713 45.000000
3.686106 0.056747 -0.065713 57.000000
3.686263 0.045438 -0.065713 40.000000
3.689384 0.034157 -0.065796 49.000000
3.695469 0.022877 -0.065963 58.000000
3.700519 0.011557 -0.066101 60.000000
3.707535 0.000206 -0.066296 49.000000
3.714515 -0.011187 -0.066490 77.000000
3.716463 -0.022594 -0.066545 38.000000
3.724373 -0.034067 -0.066767 53.000000
3.732247 -0.045588 -0.066989 50.000000
3.743084 -0.057203 -0.067295 38.000000
3.758883 -0.068975 -0.067739 38.000000
3.768647 -0.080717 -0.068016 36.000000
3.777375 -0.092497 -0.068266 38.000000
3.776075 -0.104058 -0.068238 24.000000
3.769743 -0.115460 -0.068072 12.000000
3.817650 0.235347 -0.117475 19.000000
3.739553 0.219027 -0.114291 50.000000
3.723247 0.206613 -0.113606 73.000000
3.717876 0.194877 -0.113364 74.000000
3.713467 0.183224 -0.113162 86.000000
3.699039 0.171139 -0.112558 58.000000
3.696553 0.159661 -0.112437 84.000000
3.691035 0.148079 -0.112195 89.000000
3.692470 0.136791 -0.112235 75.000000
3.689876 0.125361 -0.112114 69.000000
3.687248 0.113948 -0.111993 71.000000
3.687580 0.102635 -0.111993 81.000000
3.682883 0.091198 -0.111792 74.000000
3.684144 0.079920 -0.111832 57.000000
3.683373 0.068599 -0.111792 62.000000
3.680569 0.057251 -0.111671 67.000000
3.683725 0.045996 -0.111792 63.000000
3.686846 0.034723 -0.111913 54.000000
3.687934 0.023418 -0.111953 61.000000
3.692985 0.012119 -0.112155 63.000000
3.699999 0.000790 -0.112437 41.000000
3.704980 -0.010576 -0.112638 60.000000
3.713922 -0.021997 -0.113001 58.000000
3.720831 -0.033455 -0.113283 85.000000
3.720711 -0.044870 -0.113283 61.000000
3.723554 -0.056331 -0.113404 71.000000
3.728358 -0.067845 -0.113606 63.000000
3.730130 -0.079326 -0.113686 54.000000
3.749847 -0.091258 -0.114492 32.000000
3.752088 0.240988 -0.160038 30.000000
3.742842 0.228863 -0.159514 32.000000
3.718604 0.215924 -0.158206 53.000000
3.709277 0.203963 -0.157683 64.000000
3.703902 0.192270 -0.157369 66.000000
3.701482 0.180759 -0.157211 68.000000
3.697031 0.169172 -0.156950 76.000000
3.693542 0.157657 -0.156740 56.000000
3.692013 0.146245 -0.156636 52.000000
3.692444 0.134918 -0.156636 67.000000
3.685854 0.123353 -0.156269 58.000000
3.674237 0.111676 -0.155641 28.000000
3.684545 0.100679 -0.156165 22.000000
3.677849 0.089203 -0.155798 33.000000
3.675110 0.077855 -0.155641 39.000000
3.675331 0.066579 -0.155641 30.000000
3.673521 0.055272 -0.155537 45.000000
3.675671 0.044027 -0.155641 42.000000
3.683777 0.032823 -0.156060 30.000000
3.680865 0.021503 -0.155903 43.000000
3.682910 0.010216 -0.156008 49.000000
3.691912 -0.001083 -0.156479 42.000000
3.695886 -0.012421 -0.156688 32.000000
3.702821 -0.023803 -0.157054 52.000000
3.701732 -0.035154 -0.157002 76.000000
3.710593 -0.046620 -0.157473 44.000000
3.723413 -0.058203 -0.158154 29.000000
3.728210 -0.069718 -0.158415 33.000000
3.732970 -0.081262 -0.158677 40.000000
3.746680 -0.093057 -0.159410 20.000000
3.747375 -0.104579 -0.159462 25.000000
3.751516 0.254393 -0.206611 16.000000
3.722404 0.240951 -0.204670 51.000000
3.719142 0.229285 -0.204411 45.000000
3.709866 0.217291 -0.203764 62.000000
3.709519 0.205853 -0.203699 55.000000
3.703157 0.194107 -0.203247 54.000000
3.694765 0.182303 -0.202664 73.000000
3.690323 0.170737 -0.202341 58.000000
3.684847 0.159156 -0.201952 63.000000
3.685318 0.147851 -0.201952 77.000000
3.683760 0.136470 -0.201823 92.000000
3.677180 0.124931 -0.201370 71.000000
3.676548 0.113618 -0.201305 62.000000
3.671892 0.102200 -0.200982 72.000000
3.669196 0.090860 -0.200788 91.000000
3.667462 0.079560 -0.200658 124.000000
3.669684 0.068345 -0.200788 55.000000
3.669877 0.057086 -0.200788 49.000000
3.673028 0.045864 -0.200982 47.000000
3.673151 0.034595 -0.200982 53.000000
3.676234 0.023345 -0.201176 51.000000
3.678284 0.012072 -0.201305 67.000000
3.682295 0.000788 -0.201564 55.000000
3.696251 -0.010551 -0.202470 104.000000
3.699195 -0.021909 -0.202664 65.000000
3.704099 -0.033303 -0.202988 69.000000
3.708969 -0.044727 -0.203311 51.000000
3.717795 -0.056243 -0.203894 48.000000
3.724589 -0.067776 -0.204347 48.000000
3.726358 -0.079246 -0.204476 52.000000
3.729091 -0.090751 -0.204670 40.000000
3.731787 -0.102273 -0.204864 30.000000
3.685574 -0.112319 -0.201888 6.000000
3.703702 0.249278 -0.247587 33.000000
3.700469 0.237657 -0.247281 37.000000
3.698195 0.226119 -0.247051 37.000000
3.690908 0.214307 -0.246439 45.000000
3.679602 0.202322 -0.245520 52.000000
3.677218 0.190876 -0.245291 53.000000
3.674799 0.179447 -0.245061 55.000000
3.673340 0.168080 -0.244908 57.000000
3.668858 0.156596 -0.244525 50.000000
3.669321 0.145339 -0.244525 60.000000
3.671742 0.134155 -0.244678 59.000000
3.674130 0.122957 -0.244832 47.000000
3.674490 0.111684 -0.244832 43.000000
3.670828 0.100300 -0.244525 52.000000
3.667132 0.088940 -0.244219 60.000000
3.669381 0.077731 -0.244372 55.000000
3.669602 0.066474 -0.244372 49.000000
3.666798 0.055169 -0.244143 42.000000
3.667947 0.043932 -0.244219 34.000000
3.673049 0.032724 -0.244602 28.000000
3.678118 0.021486 -0.244985 39.000000
3.682155 0.010214 -0.245291 28.000000
3.705101 -0.001082 -0.247051 162.000000
3.691122 -0.012407 -0.245980 58.000000
3.693060 -0.023743 -0.246133 49.000000
3.693967 -0.035082 -0.246209 49.000000
3.693842 -0.046415 -0.246209 49.000000
3.698667 -0.057824 -0.246592 44.000000
3.707444 -0.069336 -0.247281 32.000000
3.708211 -0.080731 -0.247358 36.000000
3.713927 -0.092254 -0.247817 32.000000
3.714622 -0.103675 -0.247893 31.000000
3.742192 -0.115927 -0.250037 20.000000
3.907237 -0.132988 -0.262743 7.000000
3.705144 0.261380 -0.293256 19.000000
3.698972 0.249543 -0.292635 31.000000
3.696738 0.238002 -0.292369 42.000000
3.695463 0.226538 -0.292192 38.000000
3.695146 0.215142 -0.292103 51.000000
3.687832 0.203366 -0.291393 62.000000
3.679486 0.191586 -0.290595 76.000000
3.681052 0.180345 -0.290683 70.000000
3.682583 0.169097 -0.290772 76.000000
3.679104 0.157628 -0.290417 58.000000
3.679570 0.146340 -0.290417 66.000000
3.680997 0.135087 -0.290506 55.000000
3.679403 0.123726 -0.290328 84.000000
3.685739 0.112619 -0.290861 73.000000
3.689054 0.101393 -0.291127 56.000000
3.691339 0.090123 -0.291304 57.000000
3.695582 0.078882 -0.291659 53.000000
3.698794 0.067598 -0.291925 64.000000
3.698984 0.056250 -0.291925 48.000000
3.702127 0.044937 -0.292192 54.000000
3.700255 0.033561 -0.292014 52.000000
3.702333 0.022221 -0.292192 72.000000
3.711348 0.010887 -0.292990 112.000000
3.698415 -0.000496 -0.291837 55.000000
3.690428 -0.011816 -0.291127 70.000000
3.685395 -0.023106 -0.290683 55.000000
3.687298 -0.034432 -0.290861 56.000000
3.690163 -0.045781 -0.291127 51.000000
3.691001 -0.057118 -0.291216 62.000000
3.702759 -0.068664 -0.292280 43.000000
3.706514 -0.080110 -0.292635 39.000000
3.718200 -0.091778 -0.293700 32.000000
3.734827 -0.103656 -0.295208 22.000000
3.735487 -0.115145 -0.295297 26.000000
3.753035 -0.127214 -0.296894 7.000000
3.694727 0.260705 -0.339099 30.000000
3.709406 0.250311 -0.340516 52.000000
3.705192 0.238608 -0.340010 43.000000
3.702928 0.227056 -0.339706 42.000000
3.702614 0.215636 -0.339605 47.000000
3.693325 0.203725 -0.338593 55.000000
3.682011 0.191768 -0.337378 53.000000
3.678607 0.180275 -0.336973 63.000000
3.677155 0.168897 -0.336771 41.000000
3.673680 0.157443 -0.336366 51.000000
3.676134 0.146251 -0.336568 55.000000
3.682530 0.135193 -0.337176 45.000000
3.689888 0.124131 -0.337884 54.000000
3.701189 0.113148 -0.338998 63.000000
3.711464 0.102069 -0.340010 45.000000
3.718721 0.090854 -0.340719 60.000000
3.726940 0.079617 -0.341529 40.000000
3.733135 0.068294 -0.342136 65.000000
3.753222 0.057149 -0.344160 96.000000
3.722541 0.045250 -0.341022 52.000000
3.714704 0.033754 -0.340213 51.000000
3.704841 0.022294 -0.339200 36.000000
3.701908 0.010918 -0.338897 38.000000
3.697944 -0.000440 -0.338492 41.000000
3.694941 -0.011776 -0.338188 50.000000
3.688918 -0.023077 -0.337581 46.000000
3.684851 -0.034358 -0.337176 52.000000
3.684728 -0.045663 -0.337176 49.000000
3.688550 -0.057028 -0.337581 38.000000
3.694325 -0.068452 -0.338188 32.000000
3.702055 -0.079955 -0.338998 42.000000
3.708755 -0.091482 -0.339706 41.000000
3.717407 -0.103106 -0.340617 35.000000
3.748894 -0.115480 -0.343857 21.000000
3.683866 0.249169 -0.382052 12.000000
3.702461 0.239016 -0.384087 45.000000
3.705160 0.227778 -0.384313 57.000000
3.699890 0.216062 -0.383635 63.000000
3.695575 0.204436 -0.383069 82.000000
3.691223 0.192839 -0.382504 81.000000
3.688821 0.181368 -0.382165 77.000000
3.685390 0.169867 -0.381713 79.000000
3.682915 0.158432 -0.381374 95.000000
3.680406 0.147013 -0.381035 75.000000
3.687790 0.135977 -0.381826 52.000000
3.700106 0.125064 -0.383182 50.000000
3.711397 0.114046 -0.384426 66.000000
3.722654 0.102960 -0.385669 48.000000
3.738845 0.091928 -0.387478 45.000000
3.750037 0.080691 -0.388721 58.000000
3.760201 0.069368 -0.389851 29.000000
3.760396 0.057831 -0.389851 57.000000
3.757575 0.046258 -0.389512 36.000000
3.750744 0.034666 -0.388721 58.000000
3.743879 0.023116 -0.387930 35.000000
3.735983 0.011606 -0.387026 40.000000
3.720104 0.000145 -0.385217 49.000000
3.715118 -0.011252 -0.384652 57.000000
3.711092 -0.022625 -0.384200 54.000000
3.704050 -0.033946 -0.383409 61.000000
3.702935 -0.045298 -0.383296 61.000000
3.705759 -0.056704 -0.383635 58.000000
3.710535 -0.068164 -0.384200 60.000000
3.725209 -0.079869 -0.385895 35.000000
3.729913 -0.091419 -0.386460 34.000000
3.745506 -0.103302 -0.388269 29.000000
3.753117 -0.115037 -0.389173 17.000000
3.758704 -0.126752 -0.389851 12.000000
3.716029 0.250760 -0.432340 16.000000
3.715791 0.239294 -0.432215 36.000000
3.713537 0.227710 -0.431839 44.000000
3.705304 0.215794 -0.430711 52.000000
3.700996 0.204151 -0.430084 61.000000
3.697642 0.192587 -0.429583 56.000000
3.696234 0.181145 -0.429332 70.000000
3.693799 0.169666 -0.428956 63.000000
3.694302 0.158333 -0.428956 56.000000
3.702701 0.147316 -0.429959 43.000000
3.712058 0.136286 -0.431087 46.000000
3.723366 0.125268 -0.432465 53.000000
