ply
format ascii 1.0
element vertex 1248
property float x
property float y
property float z
property float intensity
end_header
3.736090 -0.647363 0.581655 8.000000
3.678527 -0.649037 0.573506 31.000000
3.673596 -0.659796 0.573077 35.000000
3.673502 -0.671418 0.573363 40.000000
3.672398 -0.682866 0.573506 36.000000
3.670286 -0.694130 0.573506 38.000000
3.673971 -0.706506 0.574363 32.000000
3.669843 -0.717395 0.574077 31.000000
3.672479 -0.729614 0.574792 59.000000
3.671193 -0.741073 0.574935 35.000000
3.663085 -0.751141 0.574077 41.000000
3.659794 -0.762174 0.573935 42.000000
3.653565 -0.772581 0.573363 44.000000
3.651178 -0.783786 0.573363 30.000000
3.649723 -0.795195 0.573506 37.000000
3.647266 -0.806388 0.573506 43.000000
3.649604 -0.818656 0.574220 38.000000
3.648041 -0.830068 0.574363 42.000000
3.646441 -0.841478 0.574506 49.000000
3.648661 -0.853788 0.575221 41.000000
3.640246 -0.863609 0.574363 53.000000
3.637580 -0.874773 0.574363 36.000000
3.631994 -0.885226 0.573935 34.000000
3.627339 -0.895891 0.573649 55.000000
3.629374 -0.908215 0.574363 34.000000
3.628490 -0.919831 0.574649 43.000000
3.623733 -0.930467 0.574363 39.000000
3.624693 -0.942576 0.574935 48.000000
3.623699 -0.954195 0.575221 52.000000
3.620754 -0.965308 0.575221 34.000000
3.620643 -0.977184 0.575650 54.000000
3.614763 -0.987506 0.575221 38.000000
3.609809 -0.998064 0.574935 45.000000
3.609589 -1.009934 0.575364 37.000000
3.608379 -1.021542 0.575650 33.000000
3.603324 -1.032063 0.575364 44.000000
3.602993 -1.043938 0.575793 47.000000
3.598824 -1.054709 0.575650 57.000000
3.600316 -1.067150 0.576365 52.000000
3.599869 -1.079042 0.576794 28.000000
3.594648 -1.089508 0.576508 27.000000
3.596967 -1.102269 0.577366 15.000000
3.691382 -0.604768 0.528543 22.000000
3.685598 -0.615436 0.528018 31.000000
3.682716 -0.626574 0.527887 41.000000
3.676869 -0.637192 0.527363 32.000000
3.672944 -0.648125 0.527101 37.000000
3.668987 -0.659040 0.526839 38.000000
3.668898 -0.670649 0.527101 27.000000
3.659026 -0.680451 0.526053 32.000000
3.664714 -0.693149 0.527101 38.000000
3.656729 -0.703265 0.526315 46.000000
3.655527 -0.714670 0.526446 40.000000
3.654290 -0.726075 0.526577 38.000000
3.652045 -0.737283 0.526577 45.000000
3.651708 -0.748882 0.526839 34.000000
3.651335 -0.760487 0.527101 43.000000
3.650924 -0.772096 0.527363 34.000000
3.651446 -0.783918 0.527756 41.000000
3.652898 -0.795961 0.528280 39.000000
3.653343 -0.807807 0.528674 39.000000
3.649880 -0.818794 0.528543 34.000000
3.648318 -0.830208 0.528674 45.000000
3.642855 -0.840728 0.528280 39.000000
3.639294 -0.851674 0.528149 50.000000
3.634735 -0.862377 0.527887 36.000000
3.631108 -0.873292 0.527756 38.000000
3.627448 -0.884194 0.527625 46.000000
3.628568 -0.896270 0.528149 32.000000
3.627725 -0.907879 0.528412 43.000000
3.623961 -0.918761 0.528280 39.000000
3.618245 -0.929135 0.527887 40.000000
3.618256 -0.940980 0.528280 55.000000
3.614393 -0.951823 0.528149 43.000000
3.609540 -0.962397 0.527887 37.000000
3.609442 -0.974241 0.528280 32.000000
3.607393 -0.985572 0.528412 45.000000
3.610085 -0.998220 0.529198 37.000000
3.611779 -1.010628 0.529853 36.000000
3.611523 -1.022514 0.530246 41.000000
3.614087 -1.035228 0.531032 29.000000
3.608037 -1.045483 0.530639 37.000000
3.604813 -1.056547 0.530639 35.000000
3.601554 -1.067602 0.530639 38.000000
3.603010 -1.080070 0.531295 29.000000
3.594936 -1.089680 0.530639 38.000000
3.585889 -1.098961 0.529853 32.000000
3.592917 -1.113185 0.531295 18.000000
3.562996 -1.115904 0.527625 11.000000
3.666960 -0.553932 0.478481 15.000000
3.686833 -0.568502 0.481097 37.000000
3.684091 -0.579656 0.480978 34.000000
3.685236 -0.591427 0.481335 26.000000
3.681445 -0.602410 0.481097 37.000000
3.678600 -0.613539 0.480978 24.000000
3.673763 -0.624324 0.480622 41.000000
3.672809 -0.635761 0.480740 53.000000
3.669864 -0.646854 0.480622 49.000000
3.669816 -0.658460 0.480859 48.000000
3.666802 -0.669538 0.480740 36.000000
3.663755 -0.680603 0.480622 45.000000
3.661649 -0.691840 0.480622 46.000000
3.659510 -0.703071 0.480622 49.000000
3.656361 -0.714104 0.480503 46.000000
3.655127 -0.725512 0.480622 50.000000
3.654830 -0.737114 0.480859 59.000000
3.650606 -0.747925 0.480622 53.000000
3.648294 -0.759122 0.480622 45.000000
3.645948 -0.770311 0.480622 42.000000
3.641626 -0.781077 0.480384 60.000000
3.638242 -0.792035 0.480265 47.000000
3.632887 -0.802552 0.479908 44.000000
3.633314 -0.814344 0.480265 44.000000
3.636608 -0.826806 0.480978 47.000000
3.635022 -0.838182 0.481097 45.000000
3.637268 -0.850459 0.481692 60.000000
3.632709 -0.861156 0.481454 39.000000
3.629085 -0.872065 0.481335 41.000000
3.621568 -0.882022 0.480740 47.000000
3.618845 -0.893129 0.480740 39.000000
3.615125 -0.903986 0.480622 44.000000
3.615222 -0.915804 0.480978 45.000000
3.612395 -0.926891 0.480978 48.000000
3.609535 -0.937969 0.480978 56.000000
3.610481 -0.950048 0.481454 56.000000
3.609468 -0.961631 0.481692 50.000000
3.606502 -0.972700 0.481692 33.000000
3.605416 -0.984282 0.481930 56.000000
3.601422 -0.995075 0.481811 40.000000
3.598352 -1.006119 0.481811 58.000000
3.597160 -1.017694 0.482049 63.000000
3.587338 -1.026815 0.481216 49.000000
3.583217 -1.037540 0.481097 59.000000
3.581923 -1.049086 0.481335 54.000000
3.578688 -1.060070 0.481335 48.000000
3.581126 -1.072752 0.482049 49.000000
3.584471 -1.085746 0.482881 47.000000
3.582072 -1.097029 0.483000 59.000000
3.589124 -1.111240 0.484308 31.000000
3.586645 -1.122543 0.484427 44.000000
3.581291 -1.132943 0.484189 36.000000
3.580636 -1.144831 0.484546 36.000000
3.578997 -1.156421 0.484784 43.000000
3.578264 -1.168319 0.485141 20.000000
3.681546 -0.510071 0.433653 15.000000
3.691777 -0.523038 0.434935 32.000000
3.690155 -0.534362 0.434935 36.000000
3.687514 -0.545535 0.434828 30.000000
3.678942 -0.555805 0.434080 37.000000
3.679185 -0.567392 0.434294 38.000000
3.683319 -0.579605 0.434935 32.000000
3.684469 -0.591376 0.435255 42.000000
3.678713 -0.602034 0.434828 49.000000
3.675868 -0.613154 0.434721 43.000000
3.675929 -0.624762 0.434935 44.000000
3.670077 -0.635357 0.434508 47.000000
3.677902 -0.648341 0.435575 22.000000
3.666109 -0.657865 0.434508 53.000000
3.657227 -0.667858 0.433760 45.000000
3.661026 -0.680165 0.434401 40.000000
3.658922 -0.691394 0.434401 53.000000
3.659713 -0.703179 0.434721 45.000000
3.662417 -0.715357 0.435255 61.000000
3.654354 -0.725428 0.434614 42.000000
3.655035 -0.737226 0.434935 51.000000
3.651782 -0.748236 0.434828 53.000000
3.641682 -0.757815 0.433974 49.000000
3.641286 -0.769395 0.434187 35.000000
3.637936 -0.780354 0.434080 43.000000
3.636496 -0.791723 0.434187 34.000000
3.638904 -0.803949 0.434721 39.000000
3.639331 -0.815762 0.435042 51.000000
3.639720 -0.827585 0.435362 44.000000
3.640070 -0.839418 0.435682 42.000000
3.639414 -0.851035 0.435896 49.000000
3.636786 -0.862197 0.435896 54.000000
3.631224 -0.872653 0.435575 46.000000
3.620801 -0.881906 0.434721 34.000000
3.618079 -0.893010 0.434721 44.000000
3.615322 -0.904106 0.434721 57.000000
3.611567 -0.914949 0.434614 42.000000
3.606817 -0.925531 0.434401 48.000000
3.602998 -0.936342 0.434294 34.000000
3.606839 -0.949163 0.435042 48.000000
3.613518 -0.962785 0.436109 50.000000
3.607667 -0.973090 0.435789 48.000000
3.604665 -0.984153 0.435789 36.000000
3.599712 -0.994678 0.435575 46.000000
3.595685 -1.005449 0.435469 54.000000
3.591627 -1.016205 0.435362 38.000000
3.586581 -1.026671 0.435148 32.000000
3.581505 -1.037117 0.434935 47.000000
3.581168 -1.048939 0.435255 52.000000
3.582700 -1.061333 0.435789 41.000000
3.580379 -1.072605 0.435896 33.000000
3.583733 -1.085603 0.436643 45.000000
3.583237 -1.097466 0.436964 59.000000
3.588401 -1.111102 0.437925 40.000000
3.589720 -1.123591 0.438459 51.000000
3.589100 -1.135499 0.438779 48.000000
3.583705 -1.145899 0.438565 38.000000
3.581119 -1.157194 0.438672 53.000000
3.577552 -1.168176 0.438672 35.000000
3.568285 -1.177276 0.438031 33.000000
3.564657 -1.188218 0.438031 37.000000
3.561937 -1.199466 0.438138 34.000000
3.558240 -1.210388 0.438138 23.000000
3.558271 -1.222592 0.438565 9.000000
3.659245 -0.461879 0.386569 9.000000
3.699277 -0.478454 0.390558 31.000000
3.702726 -0.490453 0.391033 44.000000
3.700218 -0.501677 0.390938 34.000000
3.694717 -0.512481 0.390558 36.000000
3.693127 -0.523813 0.390558 36.000000
3.686577 -0.534429 0.390083 33.000000
3.681966 -0.545300 0.389798 48.000000
3.677322 -0.556148 0.389513 37.000000
3.673631 -0.567124 0.389323 47.000000
3.668923 -0.577928 0.389038 44.000000
3.668116 -0.589339 0.389133 56.000000
3.663343 -0.600108 0.388848 45.000000
3.663449 -0.611671 0.389038 53.000000
3.662536 -0.623074 0.389133 42.000000
3.658646 -0.633969 0.388943 56.000000
3.655703 -0.645018 0.388848 50.000000
3.655667 -0.656581 0.389038 62.000000
3.650697 -0.667258 0.388753 37.000000
3.647654 -0.678273 0.388658 51.000000
3.647513 -0.689830 0.388848 44.000000
3.648312 -0.701580 0.389133 49.000000
3.647120 -0.712961 0.389228 52.000000
3.646868 -0.724534 0.389418 50.000000
3.649507 -0.736702 0.389893 48.000000
3.647230 -0.747895 0.389893 66.000000
3.647842 -0.759689 0.390178 60.000000
3.644520 -0.770671 0.390083 54.000000
3.641165 -0.781640 0.389988 65.000000
3.639723 -0.793019 0.390083 58.000000
3.633384 -0.803324 0.389703 49.000000
3.629931 -0.814249 0.389608 61.000000
3.625475 -0.824941 0.389418 60.000000
3.622927 -0.836060 0.389418 54.000000
3.626161 -0.848530 0.389988 70.000000
3.623541 -0.859651 0.389988 58.000000
3.621854 -0.870996 0.390083 47.000000
3.621099 -0.882575 0.390273 67.000000
3.614508 -0.892726 0.389893 47.000000
3.612719 -0.904053 0.389988 40.000000
3.607998 -0.914643 0.389798 43.000000
3.597461 -0.923730 0.389038 37.000000
3.596537 -0.935263 0.389228 54.000000
3.596539 -0.947052 0.389513 45.000000
3.595540 -0.958594 0.389703 43.000000
3.593544 -0.969880 0.389798 54.000000
3.590551 -0.980900 0.389798 51.000000
3.586565 -0.991646 0.389703 48.000000
3.591176 -1.004788 0.390463 40.000000
3.585203 -1.014988 0.390178 44.000000
3.580158 -1.025435 0.389988 62.000000
3.574126 -1.035584 0.389703 39.000000
3.572843 -1.047104 0.389893 50.000000
3.570568 -1.058342 0.389988 61.000000
3.569211 -1.069863 0.390178 63.000000
3.564007 -1.080231 0.389988 75.000000
3.572099 -1.094657 0.391128 50.000000
3.573479 -1.107082 0.391603 65.000000
3.574816 -1.119526 0.392078 40.000000
3.569466 -1.129888 0.391888 55.000000
3.564086 -1.140228 0.391698 53.000000
3.561519 -1.151463 0.391793 51.000000
3.554184 -1.161149 0.391413 50.000000
3.547768 -1.171112 0.391128 43.000000
3.549825 -1.183879 0.391698 50.000000
3.549007 -1.195717 0.391983 54.000000
3.549092 -1.207881 0.392362 45.000000
3.550077 -1.220380 0.392837 41.000000
3.545376 -1.230940 0.392742 47.000000
3.545341 -1.243127 0.393122 47.000000
3.538695 -1.253003 0.392837 42.000000
3.510459 -1.255147 0.390368 14.000000
3.696239 -0.431431 0.342784 35.000000
3.698856 -0.443244 0.343113 49.000000
3.694511 -0.454224 0.342866 40.000000
3.692111 -0.465432 0.342784 28.000000
3.694620 -0.477268 0.343113 44.000000
3.692150 -0.488470 0.343031 38.000000
3.687671 -0.499394 0.342784 57.000000
3.686122 -0.510705 0.342784 52.000000
3.682564 -0.521732 0.342619 57.000000
3.677988 -0.532598 0.342371 51.000000
3.677322 -0.544026 0.342454 49.000000
3.672680 -0.554858 0.342206 57.000000
3.670960 -0.566123 0.342206 57.000000
3.669206 -0.577383 0.342206 44.000000
3.663481 -0.588005 0.341876 56.000000
3.661660 -0.599242 0.341876 50.000000
3.662753 -0.610965 0.342124 51.000000
3.660862 -0.622199 0.342124 52.000000
3.658936 -0.633428 0.342124 63.000000
3.651086 -0.643611 0.341629 27.000000
3.660865 -0.656923 0.342619 53.000000
3.660794 -0.668510 0.342784 51.000000
3.656766 -0.679373 0.342619 57.000000
3.651726 -0.690034 0.342371 48.000000
3.643720 -0.700105 0.341876 48.000000
3.641556 -0.711280 0.341876 55.000000
3.642289 -0.723031 0.342124 44.000000
3.643960 -0.734991 0.342454 52.000000
3.646570 -0.747168 0.342866 57.000000
3.648164 -0.759164 0.343196 50.000000
3.651667 -0.771590 0.343691 57.000000
3.652206 -0.783417 0.343938 42.000000
3.645890 -0.793770 0.343608 36.000000
3.639546 -0.804091 0.343278 52.000000
3.634144 -0.814599 0.343031 39.000000
3.630656 -0.825523 0.342948 51.000000
3.625193 -0.835986 0.342701 50.000000
3.621641 -0.846877 0.342619 45.000000
3.616117 -0.857294 0.342371 44.000000
3.609594 -0.867452 0.342041 37.000000
3.605947 -0.878286 0.341959 50.000000
3.601301 -0.888867 0.341794 38.000000
3.594689 -0.898944 0.341464 45.000000
3.591915 -0.909968 0.341464 49.000000
3.589106 -0.920984 0.341464 50.000000
3.591086 -0.933245 0.341876 43.000000
3.593989 -0.945780 0.342371 57.000000
3.594922 -0.957828 0.342701 37.000000
3.594853 -0.969632 0.342948 60.000000
3.595707 -0.981706 0.343278 54.000000
3.597481 -0.994061 0.343691 67.000000
3.598253 -1.006167 0.344020 67.000000
3.595150 -1.017202 0.344020 52.000000
3.593928 -1.028775 0.344185 47.000000
3.588840 -1.039242 0.344020 48.000000
3.588504 -1.051088 0.344268 48.000000
3.583352 -1.061526 0.344103 41.000000
3.578169 -1.071942 0.343938 51.000000
3.570094 -1.081470 0.343526 56.000000
3.567713 -1.092710 0.343608 56.000000
3.564343 -1.103650 0.343608 43.000000
3.564745 -1.115771 0.343938 49.000000
3.561305 -1.126703 0.343938 50.000000
3.557832 -1.137623 0.343938 44.000000
3.559066 -1.150066 0.344350 45.000000
3.557415 -1.161599 0.344515 56.000000
3.553835 -1.172507 0.344515 44.000000
3.551167 -1.183720 0.344598 37.000000
3.545630 -1.193973 0.344433 49.000000
3.540063 -1.204203 0.344268 44.000000
3.537294 -1.215382 0.344350 27.000000
3.529783 -1.224921 0.344020 30.000000
3.521306 -1.234096 0.343608 22.000000
3.688508 -0.386592 0.297655 15.000000
3.692263 -0.398440 0.298008 24.000000
3.685075 -0.409108 0.297584 32.000000
3.677856 -0.419735 0.297160 37.000000
3.676551 -0.431016 0.297160 29.000000
3.672240 -0.441937 0.296949 35.000000
3.675817 -0.453811 0.297302 50.000000
3.675397 -0.465211 0.297372 56.000000
3.676920 -0.476869 0.297584 57.000000
3.679395 -0.488671 0.297867 40.000000
3.678867 -0.500091 0.297937 38.000000
3.672376 -0.510690 0.297584 33.000000
3.679680 -0.523215 0.298220 51.000000
3.679045 -0.534645 0.298290 63.000000
3.675414 -0.545637 0.298149 45.000000
3.673723 -0.556911 0.298149 41.000000
3.672982 -0.568331 0.298220 47.000000
3.666295 -0.578821 0.297867 56.000000
3.663517 -0.589908 0.297796 57.000000
3.661690 -0.601144 0.297796 56.000000
3.654909 -0.611554 0.297443 35.000000
3.657932 -0.623601 0.297796 53.000000
3.654036 -0.634480 0.297655 51.000000
3.653055 -0.645860 0.297725 54.000000
3.654983 -0.657770 0.298008 52.000000
3.650985 -0.668622 0.297867 41.000000
3.647936 -0.679637 0.297796 40.000000
3.648774 -0.691382 0.298008 39.000000
3.643698 -0.702008 0.297796 46.000000
3.647401 -0.714332 0.298220 33.000000
3.640300 -0.724546 0.297867 57.000000
3.640993 -0.736303 0.298079 50.000000
3.638717 -0.747470 0.298079 42.000000
3.638360 -0.759037 0.298220 42.000000
3.639918 -0.771021 0.298502 59.000000
3.633634 -0.781347 0.298220 52.000000
3.628296 -0.791854 0.298008 45.000000
3.625849 -0.802982 0.298008 45.000000
3.621422 -0.813666 0.297867 41.000000
3.618909 -0.824772 0.297867 46.000000
3.610530 -0.834525 0.297443 37.000000
3.607953 -0.845598 0.297443 50.000000
3.604371 -0.856433 0.297372 52.000000
3.594937 -0.865854 0.296878 47.000000
3.589357 -0.876170 0.296666 51.000000
3.587620 -0.887417 0.296737 46.000000
3.586816 -0.898904 0.296878 53.000000
3.588876 -0.911130 0.297231 42.000000
3.585098 -0.921888 0.297160 40.000000
3.587079 -0.934138 0.297514 55.000000
3.584197 -0.945138 0.297514 54.000000
3.583208 -0.956644 0.297655 44.000000
3.579293 -0.967373 0.297584 57.000000
3.577270 -0.978612 0.297655 56.000000
3.577135 -0.990380 0.297867 45.000000
3.582726 -1.003769 0.298502 41.000000
3.580589 -1.015028 0.298573 48.000000
3.582253 -1.027382 0.298926 38.000000
3.581000 -1.038922 0.299067 44.000000
3.576838 -1.049623 0.298997 51.000000
3.571689 -1.060025 0.298855 46.000000
3.567464 -1.070691 0.298785 46.000000
3.559390 -1.080184 0.298432 49.000000
3.555105 -1.090807 0.298361 37.000000
3.549836 -1.101118 0.298220 59.000000
3.547393 -1.112302 0.298290 59.000000
3.543013 -1.122879 0.298220 41.000000
3.540502 -1.134047 0.298290 56.000000
3.539853 -1.145825 0.298502 58.000000
3.538217 -1.157299 0.298644 43.000000
3.543175 -1.170963 0.299279 22.000000
3.540513 -1.182144 0.299350 32.000000
3.547267 -1.196504 0.300127 18.000000
3.715989 -0.342188 0.252390 21.000000
3.705977 -0.352734 0.251867 35.000000
3.701897 -0.363809 0.251693 52.000000
3.697783 -0.374862 0.251519 29.000000
3.696616 -0.386205 0.251519 39.000000
3.695414 -0.397545 0.251519 55.000000
3.691200 -0.408550 0.251345 48.000000
3.690921 -0.419986 0.251403 45.000000
3.690607 -0.431423 0.251461 45.000000
3.684310 -0.442149 0.251170 49.000000
3.682936 -0.453450 0.251170 57.000000
3.675585 -0.463996 0.250822 42.000000
3.673154 -0.475142 0.250764 59.000000
3.670690 -0.486278 0.250706 42.000000
3.663245 -0.496732 0.250357 55.000000
3.660715 -0.507831 0.250299 40.000000
3.664082 -0.519761 0.250589 56.000000
3.660494 -0.530713 0.250473 43.000000
3.664774 -0.542819 0.250822 56.000000
3.668027 -0.554807 0.251112 53.000000
3.672226 -0.566972 0.251461 52.000000
3.671456 -0.578391 0.251519 37.000000
3.668679 -0.589494 0.251461 50.000000
3.667838 -0.600908 0.251519 39.000000
3.663023 -0.611664 0.251345 62.000000
3.661129 -0.622899 0.251345 65.000000
3.660185 -0.634299 0.251403 41.000000
3.660187 -0.645873 0.251519 38.000000
3.660154 -0.657452 0.251635 40.000000
3.654191 -0.667960 0.251403 48.000000
3.648199 -0.678437 0.251170 44.000000
3.648063 -0.689998 0.251287 53.000000
3.642007 -0.700432 0.251054 50.000000
3.638861 -0.711410 0.250996 57.000000
3.630787 -0.721403 0.250648 51.000000
3.625621 -0.731946 0.250473 46.000000
3.626292 -0.743667 0.250648 39.000000
3.621062 -0.754178 0.250473 43.000000
3.615801 -0.764664 0.250299 37.000000
3.613438 -0.775754 0.250299 52.000000
3.610065 -0.786623 0.250241 48.000000
3.611534 -0.798558 0.250473 59.000000
3.611989 -0.810290 0.250648 52.000000
3.609486 -0.821367 0.250648 45.000000
3.605004 -0.831988 0.250531 46.000000
3.607295 -0.844182 0.250822 51.000000
3.604688 -0.855245 0.250822 48.000000
3.601076 -0.866066 0.250764 39.000000
3.602282 -0.878056 0.250996 49.000000
3.603448 -0.890062 0.251228 33.000000
3.602637 -0.901598 0.251345 38.000000
3.601789 -0.913137 0.251461 38.000000
3.597037 -0.923686 0.251345 35.000000
3.597085 -0.935472 0.251519 36.000000
3.597094 -0.947266 0.251693 53.000000
3.594171 -0.958297 0.251693 50.000000
3.591214 -0.969319 0.251693 53.000000
3.591112 -0.981122 0.251867 54.000000
3.587123 -0.991869 0.251809 41.000000
3.585024 -1.003138 0.251867 51.000000
3.584811 -1.014948 0.252042 29.000000
3.581681 -1.025942 0.252042 50.000000
3.581393 -1.037759 0.252216 59.000000
3.578192 -1.048742 0.252216 50.000000
3.575915 -1.059999 0.252274 49.000000
3.580296 -1.073258 0.252739 50.000000
3.574121 -1.083368 0.252564 39.000000
3.567917 -1.093451 0.252390 40.000000
3.564545 -1.104392 0.252390 35.000000
3.558282 -1.114427 0.252216 50.000000
3.554847 -1.125338 0.252216 44.000000
3.548525 -1.135326 0.252042 50.000000
3.545975 -1.146515 0.252100 31.000000
3.598427 -1.175686 0.255527 6.000000
3.639357 -1.201434 0.258257 7.000000
3.662272 -0.293836 0.205501 14.000000
3.698187 -0.308128 0.207211 29.000000
3.699215 -0.319643 0.207304 34.000000
3.698217 -0.330991 0.207304 44.000000
3.698179 -0.342427 0.207350 32.000000
3.697111 -0.353771 0.207350 34.000000
3.691037 -0.364623 0.207119 30.000000
3.690895 -0.376046 0.207165 35.000000
3.691711 -0.387576 0.207258 35.000000
3.686532 -0.398472 0.207073 40.000000
3.687278 -0.410000 0.207165 49.000000
3.686002 -0.421311 0.207165 54.000000
3.682709 -0.432385 0.207073 50.000000
3.683348 -0.443920 0.207165 34.000000
3.680977 -0.455096 0.207119 34.000000
3.674609 -0.465760 0.206888 30.000000
3.673162 -0.477031 0.206888 42.000000
3.669701 -0.488036 0.206795 46.000000
3.662248 -0.498485 0.206518 46.000000
3.659712 -0.509581 0.206472 36.000000
3.656153 -0.520526 0.206379 48.000000
3.652562 -0.531453 0.206287 53.000000
3.652890 -0.542949 0.206379 46.000000
3.650220 -0.554004 0.206333 58.000000
3.653439 -0.565963 0.206564 49.000000
3.657606 -0.578103 0.206841 37.000000
3.653842 -0.589005 0.206749 44.000000
3.652018 -0.600212 0.206749 60.000000
3.651145 -0.611578 0.206795 49.000000
3.654175 -0.623615 0.207026 33.000000
3.654213 -0.635164 0.207119 44.000000
3.650280 -0.646025 0.207026 44.000000
3.648280 -0.657221 0.207026 41.000000
3.646247 -0.668410 0.207026 49.000000
3.641233 -0.679045 0.206888 42.000000
3.633244 -0.689098 0.206610 41.000000
3.631113 -0.700242 0.206610 37.000000
3.624045 -0.710419 0.206379 39.000000
3.614991 -0.720170 0.206055 42.000000
3.612765 -0.731257 0.206055 43.000000
3.607568 -0.741735 0.205917 27.000000
3.605276 -0.752800 0.205917 42.000000
3.604904 -0.764271 0.206009 54.000000
3.601565 -0.775117 0.205963 40.000000
3.602098 -0.786801 0.206102 49.000000
3.605520 -0.799144 0.206379 42.000000
3.605975 -0.810858 0.206518 42.000000
3.605418 -0.822361 0.206610 56.000000
3.601905 -0.833194 0.206564 41.000000
3.600304 -0.844468 0.206610 41.000000
3.595753 -0.855048 0.206518 58.000000
3.594084 -0.866309 0.206564 61.000000
3.592380 -0.877569 0.206610 43.000000
3.591610 -0.889065 0.206703 41.000000
3.592741 -0.901051 0.206888 44.000000
3.594801 -0.913297 0.207119 42.000000
3.592950 -0.924570 0.207165 44.000000
3.592030 -0.936092 0.207258 41.000000
3.589141 -0.947108 0.207258 46.000000
3.585253 -0.957857 0.207211 45.000000
3.580369 -0.968331 0.207119 45.000000
3.574491 -0.978521 0.206980 44.000000
3.571472 -0.989482 0.206980 42.000000
3.567457 -1.000165 0.206934 55.000000
3.561489 -1.010289 0.206795 34.000000
3.561253 -1.022036 0.206934 56.000000
3.559061 -1.033235 0.206980 38.000000
3.562584 -1.046117 0.207304 37.000000
3.563188 -1.058179 0.207489 37.000000
3.562795 -1.069966 0.207627 48.000000
3.562364 -1.081762 0.207766 46.000000
3.560938 -1.093272 0.207859 37.000000
3.556613 -1.103896 0.207812 26.000000
3.712040 -0.296582 0.161781 30.000000
3.708124 -0.307721 0.161679 38.000000
3.709154 -0.319267 0.161747 37.000000
3.703180 -0.330201 0.161578 45.000000
3.696178 -0.341009 0.161375 47.000000
3.697104 -0.352537 0.161442 41.000000
3.694016 -0.363682 0.161375 40.000000
3.692883 -0.375014 0.161375 35.000000
3.689727 -0.386133 0.161307 43.000000
3.684551 -0.397022 0.161172 49.000000
3.684308 -0.408435 0.161205 60.000000
3.679066 -0.419283 0.161070 57.000000
3.673792 -0.430103 0.160935 44.000000
3.675432 -0.441730 0.161036 59.000000
3.678027 -0.453494 0.161172 58.000000
3.671661 -0.464149 0.161002 54.000000
3.672202 -0.475668 0.161070 36.000000
3.667753 -0.486537 0.160968 48.000000
3.667233 -0.497922 0.161002 35.000000
3.656779 -0.507932 0.160698 59.000000
3.651246 -0.518586 0.160562 60.000000
3.645681 -0.529211 0.160427 56.000000
3.645029 -0.540540 0.160461 35.000000
3.645330 -0.552019 0.160528 45.000000
3.643619 -0.563200 0.160528 52.000000
3.644836 -0.574844 0.160630 51.000000
3.645029 -0.586341 0.160698 63.000000
3.645185 -0.597845 0.160765 46.000000
3.643334 -0.609025 0.160765 55.000000
3.643419 -0.620536 0.160833 53.000000
3.645437 -0.632394 0.160968 41.000000
3.645448 -0.643923 0.161036 56.000000
3.642471 -0.654927 0.161002 44.000000
3.643394 -0.666639 0.161104 43.000000
3.638384 -0.677265 0.161002 53.000000
3.633343 -0.687866 0.160901 49.000000
3.633178 -0.699388 0.160968 38.000000
3.628073 -0.709955 0.160867 46.000000
3.624898 -0.720887 0.160833 41.000000
3.624629 -0.732401 0.160901 46.000000
3.615511 -0.742110 0.160664 47.000000
3.613218 -0.753199 0.160664 51.000000
3.610890 -0.764281 0.160664 55.000000
3.605597 -0.774725 0.160562 50.000000
3.603203 -0.785783 0.160562 50.000000
3.603703 -0.797482 0.160664 44.000000
3.602214 -0.808753 0.160698 45.000000
3.604588 -0.820911 0.160867 47.000000
3.604001 -0.832416 0.160935 42.000000
3.602403 -0.843697 0.160968 55.000000
3.599797 -0.854745 0.160968 43.000000
3.600073 -0.866487 0.161070 29.000000
3.591572 -0.876106 0.160867 46.000000
3.588867 -0.887121 0.160867 41.000000
3.586129 -0.898127 0.160867 44.000000
3.585294 -0.909617 0.160935 40.000000
3.585390 -0.921358 0.161036 49.000000
3.587383 -0.933613 0.161205 46.000000
3.586434 -0.945124 0.161273 41.000000
3.585449 -0.956638 0.161341 51.000000
3.580568 -0.967112 0.161273 54.000000
3.574692 -0.977302 0.161172 58.000000
3.570713 -0.987997 0.161138 45.000000
3.568628 -0.999217 0.161172 44.000000
3.565545 -1.010161 0.161172 46.000000
3.562429 -1.021095 0.161172 45.000000
3.562160 -1.032855 0.161273 37.000000
3.563769 -1.045185 0.161442 40.000000
3.567253 -1.058104 0.161679 27.000000
3.558246 -1.067320 0.161476 12.000000
3.659562 -0.337581 0.115388 11.000000
3.675429 -0.350415 0.115756 23.000000
3.680307 -0.362275 0.115886 37.000000
3.673210 -0.372960 0.115756 34.000000
3.675032 -0.384539 0.115821 37.000000
3.674829 -0.395918 0.115842 36.000000
3.675584 -0.407410 0.115886 47.000000
3.673323 -0.418572 0.115864 50.000000
3.670036 -0.429608 0.115821 36.000000
3.668701 -0.440865 0.115821 48.000000
3.670308 -0.452485 0.115886 39.000000
3.665927 -0.463368 0.115821 37.000000
3.661513 -0.474228 0.115756 55.000000
3.660041 -0.485459 0.115756 44.000000
3.658535 -0.496686 0.115756 42.000000
3.654022 -0.507496 0.115691 43.000000
3.654428 -0.518985 0.115734 43.000000
3.652819 -0.530194 0.115734 37.000000
3.655131 -0.541983 0.115821 36.000000
3.651474 -0.552896 0.115778 37.000000
3.647784 -0.563791 0.115734 42.000000
3.649988 -0.575601 0.115821 42.000000
3.648205 -0.586797 0.115821 49.000000
3.646387 -0.597986 0.115821 39.000000
3.644536 -0.609171 0.115821 52.000000
3.639692 -0.619846 0.115756 38.000000
3.636788 -0.630839 0.115734 37.000000
3.632867 -0.641647 0.115691 45.000000
3.627929 -0.652259 0.115626 34.000000
3.625911 -0.663387 0.115626 37.000000
3.619927 -0.673777 0.115540 41.000000
3.613913 -0.684137 0.115453 39.000000
3.611798 -0.695221 0.115453 53.000000
3.607685 -0.705916 0.115410 42.000000
3.603541 -0.716591 0.115366 40.000000
3.598386 -0.727050 0.115301 29.000000
3.598097 -0.738488 0.115345 33.000000
3.597772 -0.749931 0.115388 38.000000
3.602301 -0.762412 0.115540 36.000000
3.602878 -0.774089 0.115604 32.000000
3.603417 -0.785777 0.115669 36.000000
3.602942 -0.797260 0.115713 40.000000
3.602430 -0.808747 0.115756 42.000000
3.601881 -0.820239 0.115799 49.000000
3.598374 -0.831060 0.115778 38.000000
3.592886 -0.841413 0.115713 52.000000
3.591261 -0.852663 0.115734 46.000000
3.589600 -0.863910 0.115756 42.000000
3.586933 -0.874919 0.115756 42.000000
3.584232 -0.885919 0.115756 27.000000
3.577617 -0.895941 0.115669 48.000000
3.574852 -0.906913 0.115669 35.000000
3.573990 -0.918373 0.115713 25.000000
3.573091 -0.929837 0.115756 29.000000
3.570221 -0.940794 0.115756 47.000000
3.569250 -0.952258 0.115799 35.000000
3.565346 -0.962943 0.115778 33.000000
3.565269 -0.974667 0.115842 33.000000
3.560334 -0.985068 0.115799 36.000000
3.559221 -0.996525 0.115842 26.000000
3.549413 -1.005534 0.115691 30.000000
3.525166 -1.010366 0.115215 12.000000
3.674498 -0.396584 0.070222 32.000000
3.679227 -0.408518 0.070278 49.000000
3.676963 -0.419691 0.070268 39.000000
3.671686 -0.430503 0.070231 43.000000
3.669355 -0.441646 0.070222 51.000000
3.666990 -0.452779 0.070213 61.000000
3.661616 -0.463524 0.070176 41.000000
3.655218 -0.474112 0.070130 54.000000
3.653747 -0.485324 0.070130 57.000000
3.650259 -0.496261 0.070111 49.000000
3.650700 -0.507734 0.070130 58.000000
3.653085 -0.519495 0.070167 57.000000
3.653453 -0.530988 0.070185 64.000000
3.646861 -0.541459 0.070139 50.000000
3.648149 -0.553095 0.070167 48.000000
3.649399 -0.564744 0.070194 48.000000
3.648637 -0.576094 0.070204 45.000000
3.649814 -0.587762 0.070231 36.000000
3.647007 -0.598795 0.070222 44.000000
3.645153 -0.609981 0.070222 59.000000
3.643264 -0.621161 0.070222 43.000000
3.642327 -0.632507 0.070231 49.000000
3.636430 -0.642981 0.070194 49.000000
3.633457 -0.653957 0.070185 40.000000
3.631433 -0.665102 0.070185 35.000000
3.626426 -0.675690 0.070157 46.000000
3.621389 -0.686253 0.070130 51.000000
3.615340 -0.696603 0.070093 54.000000
3.609260 -0.706922 0.070056 57.000000
3.610016 -0.718578 0.070083 50.000000
3.608775 -0.729848 0.070093 56.000000
3.605539 -0.740715 0.070083 50.000000
3.602271 -0.751569 0.070074 48.000000
3.601905 -0.763032 0.070093 49.000000
3.603457 -0.774920 0.070130 43.000000
3.605947 -0.787038 0.070176 45.000000
3.602539 -0.797881 0.070167 66.000000
3.602026 -0.809368 0.070185 56.000000
3.597576 -0.819971 0.070167 38.000000
3.596018 -0.831230 0.070176 32.000000
3.587609 -0.840888 0.070120 50.000000
3.582094 -0.851197 0.070093 51.000000
3.576549 -0.861480 0.070065 44.000000
3.573889 -0.872449 0.070065 39.000000
3.571196 -0.883409 0.070065 49.000000
3.574289 -0.895820 0.070120 56.000000
3.573462 -0.907274 0.070139 64.000000
3.572598 -0.918732 0.070157 40.000000
3.570730 -0.929940 0.070167 41.000000
3.563026 -0.939615 0.070120 54.000000
3.566889 -0.952348 0.070185 43.000000
3.564916 -0.963548 0.070194 49.000000
3.556156 -0.972896 0.070139 25.000000
3.657622 -0.439538 0.024016 25.000000
3.662211 -0.451489 0.023996 31.000000
3.659816 -0.462597 0.023999 32.000000
3.658380 -0.473823 0.023999 30.000000
3.655918 -0.484914 0.024003 43.000000
3.649458 -0.495457 0.024019 35.000000
3.646930 -0.506513 0.024022 43.000000
3.644369 -0.517559 0.024026 41.000000
3.638806 -0.528164 0.024039 44.000000
3.633211 -0.538740 0.024052 42.000000
3.635497 -0.550482 0.024039 33.000000
3.631814 -0.561328 0.024046 51.000000
3.634026 -0.573089 0.024032 38.000000
3.638175 -0.585187 0.024013 48.000000
3.640310 -0.596992 0.023999 51.000000
3.641420 -0.608651 0.023989 52.000000
3.644465 -0.620658 0.023973 49.000000
3.642544 -0.631836 0.023973 44.000000
3.640588 -0.643008 0.023973 35.000000
3.633677 -0.653291 0.023989 29.000000
3.628704 -0.663897 0.023999 41.000000
3.625667 -0.674844 0.024003 26.000000
3.616702 -0.684664 0.024026 29.000000
3.609674 -0.694813 0.024042 50.000000
3.603600 -0.705117 0.024056 40.000000
3.602400 -0.716365 0.024052 34.000000
3.599205 -0.727215 0.024056 42.000000
3.595978 -0.738053 0.024059 40.000000
3.598591 -0.750101 0.024042 36.000000
3.595294 -0.760931 0.024046 37.000000
3.598810 -0.773216 0.024026 45.000000
3.599352 -0.784892 0.024016 50.000000
3.597903 -0.796147 0.024013 51.000000
3.595444 -0.807181 0.024013 37.000000
3.593926 -0.818430 0.024009 45.000000
3.591398 -0.829452 0.024009 43.000000
3.590784 -0.840921 0.024003 39.000000
3.588187 -0.851934 0.024003 34.000000
3.581667 -0.862004 0.024016 38.000000
3.579006 -0.872988 0.024016 27.000000
3.586990 -0.886600 0.023979 30.000000
3.586193 -0.898086 0.023973 42.000000
3.620257 -0.918417 0.023847 27.000000
3.617422 -0.929519 0.023847 42.000000
3.697788 -0.962245 0.023562 22.000000
3.747040 -0.987328 0.023382 32.000000
3.784577 -1.009633 0.023243 24.000000
3.842288 -1.037647 0.023034 7.000000
3.563647 -0.438750 -0.019977 15.000000
3.660491 -0.462089 -0.021532 59.000000
3.658064 -0.473189 -0.021516 44.000000
3.651639 -0.483752 -0.021437 55.000000
3.654101 -0.495491 -0.021500 65.000000
3.647612 -0.506012 -0.021422 40.000000
3.643073 -0.516778 -0.021375 64.000000
3.635533 -0.527091 -0.021280 39.000000
3.629943 -0.537656 -0.021218 29.000000
3.630253 -0.549089 -0.021249 46.000000
3.630528 -0.560530 -0.021280 38.000000
3.629779 -0.571821 -0.021296 54.000000
3.626033 -0.582637 -0.021265 44.000000
3.626202 -0.594082 -0.021296 43.000000
3.624362 -0.605204 -0.021296 49.000000
3.618546 -0.615650 -0.021233 33.000000
3.614670 -0.626406 -0.021202 63.000000
3.609777 -0.636972 -0.021155 46.000000
3.605837 -0.647690 -0.021123 44.000000
3.605800 -0.659109 -0.021155 70.000000
3.603761 -0.670168 -0.021155 51.000000
3.601688 -0.681221 -0.021155 50.000000
3.603509 -0.693024 -0.021218 49.000000
3.603328 -0.704460 -0.021249 39.000000
3.603111 -0.715901 -0.021280 56.000000
3.604818 -0.727744 -0.021343 45.000000
3.599630 -0.738197 -0.021296 59.000000
3.603222 -0.750461 -0.021390 54.000000
3.602859 -0.761926 -0.021422 49.000000
3.598549 -0.772556 -0.021390 47.000000
3.601047 -0.784657 -0.021469 49.000000
3.601551 -0.796349 -0.021516 52.000000
3.600066 -0.807614 -0.021532 38.000000
3.598547 -0.818877 -0.021547 51.000000
3.592121 -0.829013 -0.021485 52.000000
3.596375 -0.841625 -0.021595 52.000000
3.601559 -0.854502 -0.021720 38.000000
3.605726 -0.867185 -0.021830 43.000000
3.612762 -0.880612 -0.021987 59.000000
3.657607 -0.903445 -0.022757 32.000000
3.756661 -0.940161 -0.024406 29.000000
3.822572 -0.969135 -0.025521 32.000000
3.837012 -0.985336 -0.025804 33.000000
3.868807 -1.006167 -0.026370 39.000000
3.877304 -1.021088 -0.026558 47.000000
3.888645 -1.036844 -0.026794 28.000000
3.907648 -1.054765 -0.027155 15.000000
3.636441 -0.527822 -0.065380 27.000000
3.641727 -0.540000 -0.065574 16.000000
3.629181 -0.549528 -0.065269 40.000000
3.633405 -0.561573 -0.065436 33.000000
3.629690 -0.572407 -0.065380 43.000000
3.629891 -0.583857 -0.065436 39.000000
3.627096 -0.594829 -0.065408 39.000000
3.624268 -0.605790 -0.065380 40.000000
3.622393 -0.616906 -0.065380 38.000000
3.611618 -0.626481 -0.065130 42.000000
3.606726 -0.637038 -0.065047 39.000000
3.604754 -0.648100 -0.065047 40.000000
3.604716 -0.659516 -0.065103 37.000000
3.607589 -0.671485 -0.065241 44.000000
3.609442 -0.683292 -0.065352 35.000000
3.610273 -0.694928 -0.065436 43.000000
3.611067 -0.706576 -0.065519 33.000000
3.606921 -0.717262 -0.065463 39.000000
3.600785 -0.727534 -0.065352 35.000000
3.590701 -0.736972 -0.065130 38.000000
3.588423 -0.747985 -0.065130 45.000000
3.586112 -0.758991 -0.065130 34.000000
3.584744 -0.770199 -0.065158 39.000000
3.584318 -0.781618 -0.065214 40.000000
3.584831 -0.793258 -0.065297 39.000000
3.595061 -0.807095 -0.065658 32.000000
3.607188 -0.821445 -0.066074 38.000000
3.618288 -0.835653 -0.066462 35.000000
3.643934 -0.853351 -0.067267 35.000000
3.700631 -0.878594 -0.068959 34.000000
3.754291 -0.903491 -0.070569 40.000000
3.791321 -0.924704 -0.071706 49.000000
3.809817 -0.941602 -0.072317 40.000000
3.828245 -0.958621 -0.072927 37.000000
3.848542 -0.976254 -0.073593 51.000000
3.845529 -0.988056 -0.073593 26.000000
3.876340 -1.008650 -0.074564 62.000000
3.873228 -1.020538 -0.074564 50.000000
3.877806 -1.034475 -0.074786 39.000000
3.866893 -1.044284 -0.074564 20.000000
3.869457 -1.057722 -0.074731 11.000000
3.611706 -0.580333 -0.110744 45.000000
3.611881 -0.591734 -0.110824 51.000000
3.613991 -0.603471 -0.110986 39.000000
3.617047 -0.615394 -0.111187 35.000000
3.615142 -0.626489 -0.111187 38.000000
3.613203 -0.637577 -0.111187 47.000000
3.611230 -0.648659 -0.111187 52.000000
3.608240 -0.659555 -0.111147 48.000000
3.606200 -0.670622 -0.111147 47.000000
3.604125 -0.681682 -0.111147 49.000000
3.599073 -0.692170 -0.111026 46.000000
3.593991 -0.702633 -0.110905 48.000000
3.592798 -0.713851 -0.110945 53.000000
3.591571 -0.725068 -0.110986 58.000000
3.589329 -0.736083 -0.110986 37.000000
3.590967 -0.747907 -0.111147 36.000000
3.598431 -0.760989 -0.111550 33.000000
3.614640 -0.776012 -0.112316 42.000000
3.628839 -0.790716 -0.113001 33.000000
3.650786 -0.807241 -0.114009 43.000000
3.692164 -0.828284 -0.115822 32.000000
3.750984 -0.853582 -0.118362 33.000000
3.788264 -0.874302 -0.120014 52.000000
3.796265 -0.888426 -0.120458 41.000000
3.802272 -0.902145 -0.120820 35.000000
3.812115 -0.916845 -0.121344 37.000000
3.822875 -0.931850 -0.121909 40.000000
3.822908 -0.944293 -0.122030 36.000000
3.828716 -0.958201 -0.122392 31.000000
3.835443 -0.972400 -0.122795 40.000000
3.838249 -0.985654 -0.123037 27.000000
3.837141 -0.997928 -0.123118 36.000000
3.841791 -1.011732 -0.123440 29.000000
3.836738 -1.022999 -0.123360 21.000000
3.625567 -0.630194 -0.155851 34.000000
3.621649 -0.640967 -0.155746 24.000000
3.612785 -0.650838 -0.155380 33.000000
3.608807 -0.661559 -0.155275 30.000000
3.593998 -0.670252 -0.154595 37.000000
3.586037 -0.680160 -0.154281 28.000000
3.582953 -0.690970 -0.154228 30.000000
3.580816 -0.701959 -0.154228 38.000000
3.579625 -0.713136 -0.154281 41.000000
3.586231 -0.725895 -0.154752 28.000000
3.594747 -0.739103 -0.155327 32.000000
3.601261 -0.751963 -0.155798 44.000000
3.640947 -0.771900 -0.158049 27.000000
3.740101 -0.804886 -0.163492 15.000000
3.765910 -0.822528 -0.165010 30.000000
3.789694 -0.839904 -0.166423 22.000000
3.807562 -0.856121 -0.167522 29.000000
3.818549 -0.870903 -0.168254 33.000000
3.822670 -0.884188 -0.168621 39.000000
3.821884 -0.896367 -0.168725 31.000000
3.819116 -0.908088 -0.168725 37.000000
3.817283 -0.920034 -0.168778 56.000000
3.818323 -0.932688 -0.168987 35.000000
3.823199 -0.946315 -0.169406 61.000000
3.828027 -0.959981 -0.169824 53.000000
3.830872 -0.973195 -0.170138 52.000000
3.840442 -0.988174 -0.170819 44.000000
3.846090 -1.002216 -0.171290 44.000000
3.855551 -1.017319 -0.171970 33.000000
3.871709 -1.034292 -0.173017 21.000000
3.873338 -1.047467 -0.173279 14.000000
3.831529 -0.688253 -0.215217 29.000000
3.778355 -0.690669 -0.211852 31.000000
3.698714 -0.687836 -0.206741 37.000000
3.656386 -0.691573 -0.204088 43.000000
3.677765 -0.707313 -0.205641 40.000000
3.663826 -0.716294 -0.204864 42.000000
3.683144 -0.731811 -0.206288 28.000000
3.741526 -0.755357 -0.210300 43.000000
3.771450 -0.773452 -0.212435 48.000000
3.788598 -0.789090 -0.213729 43.000000
3.801780 -0.804015 -0.214764 46.000000
3.807100 -0.817351 -0.215282 43.000000
3.810425 -0.830303 -0.215670 41.000000
3.817603 -0.844145 -0.216317 76.000000
3.812074 -0.855197 -0.216123 51.000000
3.810406 -0.867110 -0.216188 31.000000
3.811617 -0.879694 -0.216447 37.000000
3.810843 -0.891839 -0.216576 42.000000
3.814886 -0.905140 -0.217029 46.000000
3.817912 -0.918240 -0.217417 47.000000
3.823802 -0.932076 -0.218000 71.000000
3.826737 -0.945240 -0.218388 60.000000
3.829628 -0.958430 -0.218776 45.000000
3.831506 -0.971401 -0.219100 38.000000
3.833340 -0.984393 -0.219423 36.000000
3.838028 -0.998159 -0.219941 33.000000
3.841702 -1.011709 -0.220394 36.000000
3.846294 -1.025548 -0.220911 31.000000
3.852763 -1.039944 -0.221558 28.000000
3.871695 -1.057811 -0.223047 20.000000
3.910562 -0.692005 -0.267489 19.000000
3.893701 -0.701353 -0.266341 24.000000
3.865049 -0.708449 -0.264274 36.000000
3.854036 -0.718661 -0.263585 31.000000
3.842016 -0.728627 -0.262820 42.000000
3.834867 -0.739468 -0.262437 54.000000
3.830624 -0.750847 -0.262284 42.000000
3.828302 -0.762596 -0.262284 41.000000
3.828876 -0.774930 -0.262513 41.000000
3.826481 -0.786673 -0.262513 41.000000
3.828930 -0.799426 -0.262896 48.000000
3.825484 -0.810963 -0.262820 47.000000
3.819079 -0.821858 -0.262513 34.000000
3.810694 -0.832296 -0.262054 50.000000
3.808123 -0.843983 -0.262054 38.000000
3.808434 -0.856317 -0.262284 53.000000
3.811622 -0.869326 -0.262743 33.000000
3.810880 -0.881464 -0.262896 35.000000
3.807187 -0.892925 -0.262820 29.000000
3.811220 -0.906213 -0.263355 42.000000
3.820055 -0.920702 -0.264274 47.000000
3.823992 -0.934071 -0.264810 87.000000
3.816269 -0.944602 -0.264427 50.000000
3.808517 -0.955095 -0.264044 47.000000
3.805569 -0.966775 -0.264044 41.000000
3.805482 -0.979190 -0.264274 32.000000
3.811145 -0.993121 -0.264963 36.000000
3.816757 -1.007095 -0.265652 34.000000
3.817503 -1.019828 -0.265958 35.000000
3.832645 -1.036476 -0.267412 23.000000
3.882344 -1.062692 -0.271622 14.000000
3.940094 -0.696707 -0.318808 16.000000
3.918332 -0.705261 -0.317033 28.000000
3.899494 -0.714227 -0.315525 30.000000
3.879659 -0.722901 -0.313928 42.000000
3.871551 -0.733687 -0.313396 45.000000
3.861458 -0.744053 -0.312686 49.000000
3.849382 -0.753980 -0.311799 41.000000
3.849981 -0.766370 -0.312065 31.000000
3.847612 -0.778178 -0.312065 51.000000
3.840328 -0.788976 -0.311621 65.000000
3.848615 -0.802993 -0.312597 44.000000
3.843210 -0.814177 -0.312331 49.000000
3.840694 -0.825964 -0.312331 73.000000
3.838142 -0.837743 -0.312331 49.000000
3.841389 -0.850808 -0.312863 33.000000
3.839732 -0.862807 -0.312952 64.000000
3.847749 -0.877019 -0.313928 33.000000
3.846011 -0.889044 -0.314017 40.000000
3.840356 -0.900157 -0.313751 50.000000
3.846298 -0.914008 -0.314549 123.000000
3.830887 -0.922771 -0.313396 67.000000
3.821265 -0.932865 -0.312775 33.000000
3.813551 -0.943388 -0.312331 55.000000
3.810638 -0.955083 -0.312331 62.000000
3.813483 -0.968241 -0.312863 44.000000
3.816282 -0.981425 -0.313396 46.000000
3.824820 -0.996142 -0.314460 24.000000
3.819819 -1.007364 -0.314283 32.000000
3.819598 -1.019849 -0.314549 29.000000
3.826066 -1.034163 -0.315436 21.000000
3.823836 -1.046159 -0.315525 23.000000
3.906974 -0.690671 -0.365925 18.000000
3.885253 -0.699136 -0.363900 32.000000
3.879175 -0.710337 -0.363495 38.000000
3.872087 -0.721325 -0.362989 36.000000
3.865946 -0.732462 -0.362584 45.000000
3.859772 -0.743567 -0.362179 38.000000
3.850638 -0.754069 -0.361471 48.000000
3.842452 -0.764716 -0.360863 40.000000
3.842038 -0.776894 -0.361066 55.000000
3.838662 -0.788478 -0.360965 54.000000
3.840121 -0.801063 -0.361370 33.000000
3.847378 -0.814899 -0.362382 39.000000
3.853615 -0.828578 -0.363293 40.000000
3.859803 -0.842303 -0.364204 34.000000
3.863029 -0.855430 -0.364811 52.000000
3.860386 -0.867277 -0.364811 24.000000
3.892630 -0.887064 -0.368456 108.000000
3.868563 -0.894080 -0.366229 44.000000
3.857084 -0.903904 -0.365318 49.000000
3.832997 -0.910680 -0.363090 27.000000
3.835021 -0.923599 -0.363597 31.000000
3.821538 -0.932768 -0.362483 39.000000
3.814795 -0.943534 -0.362078 50.000000
3.806091 -0.953784 -0.361471 51.000000
3.806040 -0.966190 -0.361775 30.000000
3.808840 -0.979347 -0.362382 44.000000
3.814483 -0.993281 -0.363293 40.000000
3.820076 -1.007260 -0.364204 31.000000
3.826581 -1.021538 -0.365216 34.000000
3.859927 -1.043125 -0.369063 14.000000
3.851910 -1.053651 -0.368557 9.000000
3.892171 -0.699851 -0.411892 24.000000
3.898802 -0.713399 -0.412909 21.000000
3.879013 -0.722083 -0.410875 49.000000
3.868969 -0.732500 -0.409971 34.000000
3.861826 -0.743427 -0.409405 59.000000
3.857577 -0.754890 -0.409179 62.000000
3.854268 -0.766527 -0.409066 47.000000
3.858715 -0.779727 -0.409858 51.000000
3.859225 -0.792161 -0.410197 31.000000
3.865530 -0.805823 -0.411214 31.000000
3.873732 -0.819943 -0.412457 46.000000
3.879941 -0.833703 -0.413475 38.000000
3.886102 -0.847509 -0.414492 28.000000
3.896095 -0.862219 -0.415961 34.000000
3.898278 -0.875257 -0.416526 44.000000
3.917856 -0.892290 -0.419126 163.000000
3.891866 -0.898936 -0.416413 46.000000
3.874579 -0.907472 -0.414718 38.000000
3.854377 -0.915221 -0.412683 31.000000
3.846721 -0.925879 -0.412118 34.000000
3.836140 -0.935792 -0.411214 44.000000
3.826499 -0.945887 -0.410423 48.000000
3.820688 -0.956897 -0.410084 66.000000
3.823512 -0.970081 -0.410762 40.000000
3.827254 -0.983539 -0.411553 49.000000
3.828065 -0.996277 -0.412005 50.000000
3.835559 -1.010803 -0.413248 44.000000
3.837240 -1.023847 -0.413814 34.000000
3.838876 -1.036911 -0.414379 26.000000
3.897014 -1.065459 -0.421613 10.000000
3.889971 -0.712311 -0.461417 34.000000
3.886792 -0.724060 -0.461292 26.000000
3.879678 -0.735059 -0.460665 29.000000
3.877405 -0.746959 -0.460665 41.000000
3.868279 -0.757518 -0.459788 39.000000
3.863991 -0.768996 -0.459537 30.000000
3.867449 -0.782025 -0.460289 52.000000
3.866975 -0.794285 -0.460540 50.000000
3.862577 -0.805740 -0.460289 21.000000
3.880471 -0.821898 -0.462921 35.000000
3.877931 -0.833799 -0.462921 35.000000
3.884079 -0.847593 -0.464049 56.000000
3.896960 -0.862933 -0.466055 33.000000
3.919463 -0.880531 -0.469313 8.000000
3.887722 -0.885947 -0.465553 38.000000
3.883052 -0.897424 -0.465303 23.000000
3.870621 -0.907072 -0.464049 33.000000
3.853340 -0.915507 -0.462169 53.000000
3.850513 -0.927325 -0.462169 42.000000
3.841866 -0.937724 -0.461417 35.000000
3.829340 -0.947127 -0.460164 25.000000
3.833153 -0.960557 -0.461041 56.000000
3.836920 -0.974019 -0.461919 47.000000
3.836797 -0.986526 -0.462295 31.000000
3.836632 -0.999042 -0.462671 47.000000
3.840265 -1.012577 -0.463548 40.000000
3.833306 -1.023331 -0.463047 32.000000
3.794708 -1.025520 -0.458409 12.000000
3.923056 -0.716430 -0.514999 31.000000
3.914996 -0.727376 -0.514175 42.000000
3.908853 -0.738648 -0.513625 37.000000
3.901705 -0.749702 -0.512938 42.000000
3.892582 -0.760338 -0.511976 44.000000
3.886345 -0.771505 -0.511426 38.000000
3.888814 -0.784405 -0.512113 43.000000
3.882508 -0.795536 -0.511563 67.000000
3.894595 -0.810472 -0.513625 48.000000
3.899843 -0.824056 -0.514724 52.000000
3.914729 -0.839757 -0.517198 29.000000
3.920844 -0.853661 -0.518435 36.000000
3.927878 -0.867824 -0.519810 39.000000
3.925515 -0.905274 -0.520635 22.000000
3.889928 -0.909642 -0.515961 31.000000
3.882300 -0.920429 -0.515274 45.000000
3.876569 -0.931641 -0.514862 39.000000
3.865031 -0.941419 -0.513625 51.000000
3.860201 -0.952797 -0.513350 37.000000
3.853416 -0.963674 -0.512800 48.000000
3.853322 -0.976222 -0.513213 52.000000
3.854147 -0.989024 -0.513762 43.000000
3.860681 -1.003336 -0.515137 28.000000
3.861416 -1.016184 -0.515687 35.000000
3.864022 -1.029557 -0.516511 35.000000
3.889535 -1.049148 -0.520635 14.000000
3.944729 -0.735545 -0.566876 25.000000
3.939539 -0.747092 -0.566428 23.000000
3.913925 -0.754688 -0.562848 41.000000
3.911592 -0.766693 -0.562848 51.000000
3.904372 -0.777725 -0.562102 41.000000
3.906814 -0.790679 -0.562848 51.000000
3.909213 -0.803656 -0.563594 46.000000
3.916409 -0.817663 -0.565085 34.000000
3.928392 -0.832746 -0.567323 33.000000
3.932586 -0.846249 -0.568368 31.000000
3.934802 -0.859363 -0.569114 35.000000
3.956283 -0.876773 -0.572843 14.000000
3.940338 -0.911368 -0.571650 19.000000
3.920194 -0.919393 -0.568964 27.000000
3.901000 -0.927532 -0.566428 31.000000
3.891407 -0.937876 -0.565384 37.000000
3.879865 -0.947701 -0.564041 33.000000
3.865420 -0.956753 -0.562251 43.000000
3.855753 -0.966925 -0.561206 42.000000
3.849893 -0.978021 -0.560759 55.000000
3.851662 -0.991058 -0.561505 43.000000
3.862001 -1.006357 -0.563594 23.000000
3.867501 -1.020468 -0.564936 25.000000
3.873905 -1.034878 -0.566428 18.000000
3.944152 -0.746032 -0.616415 21.000000
3.936999 -0.757196 -0.615610 30.000000
3.928846 -0.768135 -0.614643 36.000000
3.927439 -0.780377 -0.614804 51.000000
3.932765 -0.793986 -0.616093 27.000000
3.932244 -0.806444 -0.616415 39.000000
3.938448 -0.820317 -0.617865 49.000000
3.945568 -0.834439 -0.619476 32.000000
3.941059 -0.846125 -0.619153 55.000000
3.949052 -0.860525 -0.620925 50.000000
3.996503 -0.883721 -0.629302 12.000000
3.945958 -0.923474 -0.622697 37.000000
3.936385 -0.933980 -0.621570 50.000000
3.925824 -0.944205 -0.620281 35.000000
3.918115 -0.955076 -0.619476 25.000000
3.895046 -0.962120 -0.616093 33.000000
3.877715 -0.970469 -0.613677 47.000000
3.868023 -0.980663 -0.612549 36.000000
3.858305 -0.990806 -0.611421 51.000000
3.856202 -1.002887 -0.611582 43.000000
3.872194 -1.019742 -0.614804 21.000000
3.981599 -0.742409 -0.672300 38.000000
3.970593 -0.752972 -0.670744 39.000000
3.962461 -0.764032 -0.669706 50.000000
3.959132 -0.775996 -0.669533 69.000000
3.951903 -0.787179 -0.668668 61.000000
3.946573 -0.798714 -0.668149 49.000000
3.944104 -0.810818 -0.668149 68.000000
3.944490 -0.823518 -0.668668 55.000000
3.953508 -0.838063 -0.670744 43.000000
3.989436 -0.858465 -0.677662 19.000000
3.967207 -0.943254 -0.677143 25.000000
3.955676 -0.953346 -0.675586 25.000000
3.922113 -0.958008 -0.670052 43.000000
3.906725 -0.966963 -0.667803 70.000000
3.902785 -0.978705 -0.667630 52.000000
3.899764 -0.990674 -0.667630 39.000000
3.894798 -1.002144 -0.667284 51.000000
3.893612 -1.014584 -0.667630 54.000000
3.896195 -1.028031 -0.668668 45.000000
3.906346 -1.043534 -0.671090 17.000000
3.989737 -0.743423 -0.722564 34.000000
3.973918 -0.753097 -0.719982 57.000000
3.969659 -0.764913 -0.719613 35.000000
3.958613 -0.775387 -0.717953 69.000000
3.949468 -0.786184 -0.716661 56.000000
3.953781 -0.799662 -0.717953 52.000000
3.959011 -0.813371 -0.719428 56.000000
3.965156 -0.827321 -0.721089 50.000000
3.976060 -0.842335 -0.723671 48.000000
3.979222 -0.855770 -0.724778 46.000000
3.988100 -0.870490 -0.726992 29.000000
3.968533 -0.943068 -0.726438 45.000000
3.942689 -0.949713 -0.722011 48.000000
3.936893 -0.961105 -0.721458 63.000000
3.929155 -0.971998 -0.720535 49.000000
3.924248 -0.983570 -0.720166 55.000000
