ply
format ascii 1.0
element vertex 1249
property float x
property float y
property float z
property float intensity
end_header
3.760661 -1.089725 0.647533 20.000000
3.762040 -1.102647 0.648307 12.000000
3.745380 -1.110251 0.646139 14.000000
3.754258 -1.125426 0.648152 19.000000
3.752678 -1.137512 0.648462 19.000000
3.753893 -1.150468 0.649236 21.000000
3.762614 -1.165781 0.651250 16.000000
3.763733 -1.178796 0.652024 18.000000
3.761041 -1.190636 0.652179 29.000000
3.767720 -1.205481 0.653883 19.000000
3.761184 -1.216123 0.653418 27.000000
3.754618 -1.226736 0.652953 25.000000
3.733951 -1.232672 0.650166 5.000000
3.793636 -0.408013 0.585087 19.000000
3.795318 -0.419976 0.585515 21.000000
3.796962 -0.431953 0.585944 27.000000
3.800534 -0.444172 0.586659 24.000000
3.800136 -0.455948 0.586802 25.000000
3.802649 -0.468087 0.587374 27.000000
3.807086 -0.480493 0.588232 21.000000
3.808539 -0.492550 0.588661 25.000000
3.810935 -0.504751 0.589233 26.000000
3.811330 -0.516706 0.589519 19.000000
3.810708 -0.528532 0.589662 27.000000
3.810048 -0.540359 0.589805 23.000000
3.801516 -0.551054 0.588804 15.000000
3.798828 -0.562570 0.588661 26.000000
3.798062 -0.574369 0.588804 31.000000
3.793348 -0.585567 0.588375 20.000000
3.785667 -0.596280 0.587517 29.000000
3.780889 -0.607421 0.587088 31.000000
3.780961 -0.619337 0.587374 17.000000
3.784900 -0.631910 0.588232 31.000000
3.785871 -0.644016 0.588661 47.000000
3.781927 -0.655291 0.588375 26.000000
3.785747 -0.667920 0.589233 29.000000
3.789525 -0.680580 0.590091 22.000000
3.789367 -0.692558 0.590377 31.000000
3.782359 -0.703277 0.589662 36.000000
3.774348 -0.713776 0.588804 27.000000
3.775057 -0.725912 0.589233 33.000000
3.775726 -0.738059 0.589662 31.000000
3.767619 -0.748484 0.588804 34.000000
3.771126 -0.761213 0.589662 35.000000
3.773621 -0.773771 0.590377 33.000000
3.770260 -0.785144 0.590234 30.000000
3.776549 -0.798547 0.591520 27.000000
3.771178 -0.809507 0.591091 41.000000
3.760940 -0.819390 0.589948 47.000000
3.762275 -0.831778 0.590520 30.000000
3.759705 -0.843317 0.590520 21.000000
3.759030 -0.855286 0.590806 23.000000
3.762175 -0.868148 0.591663 30.000000
3.759494 -0.879686 0.591663 19.000000
3.763519 -0.892813 0.592664 26.000000
3.765574 -0.905511 0.593379 17.000000
3.767587 -0.918229 0.594094 26.000000
3.766674 -0.930258 0.594380 28.000000
3.762842 -0.941569 0.594237 37.000000
3.759935 -0.953109 0.594237 33.000000
3.760828 -0.965623 0.594809 37.000000
3.758806 -0.977406 0.594952 33.000000
3.756747 -0.989185 0.595095 39.000000
3.753695 -1.000705 0.595095 43.000000
3.752518 -1.012732 0.595381 40.000000
3.749393 -1.024240 0.595381 34.000000
3.748141 -1.036265 0.595667 41.000000
3.744944 -1.047759 0.595667 31.000000
3.743617 -1.059782 0.595953 24.000000
3.744154 -1.072351 0.596524 42.000000
3.743699 -1.084659 0.596953 42.000000
3.747952 -1.098364 0.598097 34.000000
3.745514 -1.110138 0.598240 44.000000
3.747780 -1.123327 0.599098 37.000000
3.748105 -1.135967 0.599670 30.000000
3.746495 -1.148040 0.599956 27.000000
3.748628 -1.161284 0.600814 44.000000
3.745047 -1.172779 0.600814 29.000000
3.742375 -1.184562 0.600957 28.000000
3.743438 -1.197544 0.601672 21.000000
3.738804 -1.208719 0.601529 21.000000
3.743546 -1.222947 0.602815 16.000000
3.736017 -1.233187 0.602243 31.000000
3.776305 -0.406255 0.536143 21.000000
3.777997 -0.418166 0.536536 29.000000
3.780637 -0.430204 0.537061 26.000000
3.782252 -0.442146 0.537454 33.000000
3.783831 -0.454103 0.537847 28.000000
3.779469 -0.465345 0.537454 38.000000
3.781957 -0.477435 0.537978 37.000000
3.780474 -0.489036 0.537978 29.000000
3.778956 -0.500632 0.537978 30.000000
3.778385 -0.512357 0.538109 28.000000
3.775813 -0.523810 0.537978 32.000000
3.774189 -0.535392 0.537978 41.000000
3.774491 -0.547253 0.538240 24.000000
3.769852 -0.558394 0.537847 39.000000
3.768121 -0.569957 0.537847 30.000000
3.767334 -0.581666 0.537978 36.000000
3.765532 -0.593222 0.537978 27.000000
3.766631 -0.605243 0.538371 32.000000
3.767691 -0.617278 0.538764 34.000000
3.768713 -0.629324 0.539157 30.000000
3.767742 -0.641050 0.539288 33.000000
3.763804 -0.652267 0.539026 42.000000
3.762762 -0.663984 0.539157 33.000000
3.759731 -0.675349 0.539026 51.000000
3.759592 -0.687237 0.539288 36.000000
3.756491 -0.698587 0.539157 33.000000
3.751408 -0.709555 0.538764 28.000000
3.749213 -0.721061 0.538764 43.000000
3.749902 -0.733131 0.539157 29.000000
3.745691 -0.744246 0.538895 24.000000
3.749220 -0.756912 0.539681 25.000000
3.743967 -0.767813 0.539288 39.000000
3.747417 -0.780509 0.540075 18.000000
3.749854 -0.793028 0.540730 32.000000
3.750311 -0.805153 0.541123 35.000000
3.747823 -0.816655 0.541123 32.000000
3.744333 -0.827936 0.540992 37.000000
3.742742 -0.839636 0.541123 33.000000
3.743048 -0.851775 0.541516 27.000000
3.743315 -0.863924 0.541909 22.000000
3.739682 -0.875178 0.541778 21.000000
3.734086 -0.885960 0.541385 29.000000
3.735206 -0.898340 0.541909 36.000000
3.738211 -0.911204 0.542695 23.000000
3.732510 -0.921955 0.542302 32.000000
3.735435 -0.934846 0.543089 25.000000
3.732549 -0.946302 0.543089 23.000000
3.735389 -0.959229 0.543875 39.000000
3.735307 -0.971434 0.544268 28.000000
3.732309 -0.982889 0.544268 34.000000
3.724487 -0.993057 0.543613 33.000000
3.721423 -1.004479 0.543613 37.000000
3.720236 -1.016414 0.543875 53.000000
3.717100 -1.027823 0.543875 35.000000
3.713929 -1.039222 0.543875 27.000000
3.717400 -1.052502 0.544792 27.000000
3.718919 -1.065268 0.545447 31.000000
3.724203 -1.079156 0.546627 48.000000
3.727534 -1.092530 0.547544 30.000000
3.725115 -1.104242 0.547675 61.000000
3.721710 -1.115665 0.547675 21.000000
3.723962 -1.128804 0.548461 46.000000
3.720481 -1.140224 0.548461 40.000000
3.715072 -1.151046 0.548199 26.000000
3.714361 -1.163327 0.548593 48.000000
3.707939 -1.173819 0.548199 44.000000
3.712818 -1.187909 0.549379 34.000000
3.713872 -1.200820 0.550034 32.000000
3.711113 -1.212516 0.550165 28.000000
3.709259 -1.224518 0.550427 14.000000
3.700782 -1.234323 0.549772 22.000000
3.693220 -1.244405 0.549248 5.000000
3.747586 -0.402416 0.485735 23.000000
3.748307 -0.414129 0.485973 27.000000
3.752939 -0.426297 0.486687 30.000000
3.757531 -0.438498 0.487400 30.000000
3.755182 -0.449906 0.487281 43.000000
3.752799 -0.461304 0.487162 31.000000
3.753336 -0.473063 0.487400 28.000000
3.745959 -0.483814 0.486687 31.000000
3.741503 -0.494915 0.486330 19.000000
3.739967 -0.506391 0.486330 36.000000
3.734462 -0.517319 0.485854 36.000000
3.736790 -0.529330 0.486330 41.000000
3.734166 -0.540650 0.486211 36.000000
3.735436 -0.552538 0.486568 47.000000
3.731760 -0.563700 0.486330 54.000000
3.731976 -0.575448 0.486568 40.000000
3.732154 -0.587203 0.486806 49.000000
3.732296 -0.598964 0.487043 39.000000
3.730441 -0.610412 0.487043 33.000000
3.731489 -0.622343 0.487400 41.000000
3.730541 -0.633954 0.487519 41.000000
3.733470 -0.646242 0.488114 51.000000
3.734404 -0.658209 0.488471 38.000000
3.732367 -0.669663 0.488471 42.000000
3.729318 -0.680932 0.488352 34.000000
3.728188 -0.692551 0.488471 41.000000
3.726046 -0.703986 0.488471 37.000000
3.722893 -0.715227 0.488352 28.000000
3.720681 -0.726645 0.488352 33.000000
3.716486 -0.737671 0.488114 34.000000
3.721993 -0.750637 0.489065 50.000000
3.722591 -0.762650 0.489422 47.000000
3.722178 -0.774471 0.489660 39.000000
3.721727 -0.786296 0.489898 30.000000
3.717356 -0.797295 0.489660 20.000000
3.717803 -0.809329 0.490017 38.000000
3.718211 -0.821373 0.490373 31.000000
3.711798 -0.831909 0.489898 45.000000
3.709228 -0.843292 0.489898 37.000000
3.709526 -0.855336 0.490254 53.000000
3.710752 -0.867616 0.490730 34.000000
3.710971 -0.879683 0.491087 49.000000
3.717910 -0.893381 0.492276 27.000000
3.712257 -0.904079 0.491919 34.000000
3.713322 -0.916414 0.492395 41.000000
3.716274 -0.929245 0.493109 25.000000
3.715330 -0.941129 0.493346 35.000000
3.710502 -0.952030 0.493109 38.000000
3.703719 -0.962412 0.492633 39.000000
3.698828 -0.973266 0.492395 25.000000
3.699663 -0.985630 0.492871 34.000000
3.694705 -0.996459 0.492633 37.000000
3.688756 -1.007006 0.492276 30.000000
3.691392 -1.019903 0.492990 38.000000
3.693027 -1.032559 0.493584 48.000000
3.691753 -1.044424 0.493822 37.000000
3.694260 -1.057383 0.494536 42.000000
3.695767 -1.070091 0.495130 45.000000
3.697232 -1.082818 0.495725 38.000000
3.697701 -1.095283 0.496201 39.000000
3.695274 -1.106907 0.496320 47.000000
3.693761 -1.118814 0.496557 33.000000
3.696008 -1.131883 0.497271 33.000000
3.694416 -1.143804 0.497509 38.000000
3.691837 -1.155429 0.497628 30.000000
3.693008 -1.168246 0.498222 30.000000
3.696028 -1.181685 0.499055 27.000000
3.695220 -1.193934 0.499412 23.000000
3.692483 -1.205573 0.499530 20.000000
3.693482 -1.218449 0.500125 26.000000
3.681248 -1.226952 0.499055 35.000000
3.688760 -1.242039 0.500482 22.000000
3.732037 -0.400832 0.437604 11.000000
3.725849 -0.411733 0.437070 28.000000
3.732471 -0.424061 0.437925 33.000000
3.730165 -0.435395 0.437818 36.000000
3.725850 -0.446481 0.437498 35.000000
3.728410 -0.458396 0.437925 33.000000
3.724027 -0.469459 0.437604 35.000000
3.725528 -0.481264 0.437925 32.000000
3.725019 -0.492822 0.438031 32.000000
3.721519 -0.503981 0.437818 51.000000
3.717001 -0.514987 0.437498 38.000000
3.716388 -0.526527 0.437604 36.000000
3.704915 -0.536501 0.436537 28.000000
3.706202 -0.548301 0.436857 35.000000
3.698604 -0.558778 0.436216 32.000000
3.698838 -0.570425 0.436430 45.000000
3.695105 -0.581461 0.436216 40.000000
3.696249 -0.593268 0.436537 39.000000
3.692450 -0.604284 0.436323 33.000000
3.695482 -0.616428 0.436857 36.000000
3.699454 -0.628762 0.437498 43.000000
3.705346 -0.641467 0.438352 40.000000
3.705319 -0.653177 0.438565 37.000000
3.706233 -0.665069 0.438886 38.000000
3.705153 -0.676615 0.438993 30.000000
3.707948 -0.688888 0.439526 39.000000
3.707771 -0.700630 0.439740 37.000000
3.706580 -0.712189 0.439847 39.000000
3.703402 -0.723367 0.439740 32.000000
3.701165 -0.734725 0.439740 29.000000
3.704742 -0.747257 0.440381 29.000000
3.708276 -0.759818 0.441021 39.000000
3.706901 -0.771394 0.441128 44.000000
3.708407 -0.783585 0.441555 25.000000
3.701126 -0.793916 0.441021 31.000000
3.704501 -0.806536 0.441662 38.000000
3.704922 -0.818542 0.441983 37.000000
3.702394 -0.829904 0.441983 39.000000
3.694013 -0.839936 0.441342 41.000000
3.691419 -0.851265 0.441342 36.000000
3.688789 -0.862586 0.441342 26.000000
3.691930 -0.875276 0.441983 25.000000
3.690195 -0.886831 0.442089 43.000000
3.685524 -0.897677 0.441876 26.000000
3.688545 -0.910410 0.442516 35.000000
3.692486 -0.923411 0.443264 28.000000
3.692527 -0.935468 0.443584 32.000000
3.689640 -0.946793 0.443584 35.000000
3.686718 -0.958108 0.443584 41.000000
3.683761 -0.969414 0.443584 34.000000
3.684613 -0.981735 0.444011 37.000000
3.677743 -0.991999 0.443584 30.000000
3.680438 -1.004849 0.444225 41.000000
3.679254 -1.016666 0.444439 33.000000
3.683778 -1.030092 0.445293 36.000000
3.684427 -1.042471 0.445720 31.000000
3.684079 -1.054591 0.446040 32.000000
3.680826 -1.065889 0.446040 25.000000
3.676585 -1.076897 0.445934 44.000000
3.670403 -1.087324 0.445613 38.000000
3.665146 -1.098009 0.445400 30.000000
3.658905 -1.108383 0.445079 34.000000
3.654537 -1.119312 0.444973 36.000000
3.657734 -1.132578 0.445720 42.000000
3.661833 -1.146171 0.446574 23.000000
3.663039 -1.158900 0.447108 34.000000
3.669883 -1.173465 0.448283 26.000000
3.670050 -1.185942 0.448710 39.000000
3.673956 -1.199665 0.449564 30.000000
3.681588 -1.214671 0.450846 23.000000
3.666525 -1.222186 0.449564 39.000000
3.669354 -1.235651 0.450312 27.000000
3.663664 -1.246262 0.450098 21.000000
3.651360 -1.254587 0.449137 15.000000
3.662523 -1.271000 0.450846 10.000000
3.680373 -0.373039 0.387614 6.000000
3.696043 -0.386081 0.389228 33.000000
3.694841 -0.397419 0.389228 46.000000
3.686678 -0.407988 0.388563 67.000000
3.699257 -0.420868 0.389893 45.000000
3.700915 -0.432561 0.390178 38.000000
3.698582 -0.443795 0.390083 50.000000
3.705107 -0.456110 0.390843 41.000000
3.700728 -0.467102 0.390558 37.000000
3.704214 -0.479090 0.391033 44.000000
3.697792 -0.489801 0.390558 58.000000
3.696272 -0.501143 0.390558 29.000000
3.689786 -0.511798 0.390083 43.000000
3.696084 -0.524232 0.390843 38.000000
3.692488 -0.535284 0.390653 52.000000
3.695753 -0.547337 0.391128 43.000000
3.691103 -0.558227 0.390843 47.000000
3.689373 -0.569549 0.390843 34.000000
3.687608 -0.580865 0.390843 39.000000
3.688757 -0.592649 0.391128 33.000000
3.681027 -0.602999 0.390558 52.000000
3.679160 -0.614289 0.390558 42.000000
3.680202 -0.626074 0.390843 47.000000
3.682188 -0.638040 0.391223 41.000000
3.679233 -0.649162 0.391128 38.000000
3.677224 -0.660446 0.391128 40.000000
3.676159 -0.671903 0.391223 57.000000
3.676038 -0.683542 0.391413 43.000000
3.674902 -0.695001 0.391508 47.000000
3.674708 -0.706648 0.391698 50.000000
3.670569 -0.717537 0.391508 40.000000
3.671279 -0.729376 0.391793 36.000000
3.670000 -0.740832 0.391888 36.000000
3.665760 -0.751689 0.391698 43.000000
3.666360 -0.763540 0.391983 48.000000
3.664001 -0.774784 0.391983 35.000000
3.661606 -0.786022 0.391983 32.000000
3.659177 -0.797252 0.391983 44.000000
3.658658 -0.808903 0.392172 46.000000
3.656160 -0.820124 0.392172 55.000000
3.656538 -0.831999 0.392457 57.000000
3.654939 -0.843436 0.392552 37.000000
3.658150 -0.856005 0.393122 40.000000
3.658413 -0.867912 0.393407 51.000000
3.657669 -0.879597 0.393597 49.000000
3.655920 -0.891050 0.393692 42.000000
3.656069 -0.902977 0.393977 38.000000
3.653281 -0.914189 0.393977 47.000000
3.655284 -0.926615 0.394452 57.000000
3.651460 -0.937577 0.394357 35.000000
3.649530 -0.949026 0.394452 42.000000
3.653341 -0.961990 0.395117 46.000000
3.648448 -0.972682 0.394927 33.000000
3.647369 -0.984389 0.395117 43.000000
3.648173 -0.996622 0.395497 52.000000
3.645098 -1.007810 0.395497 51.000000
3.635278 -1.017113 0.394832 64.000000
3.646510 -1.032324 0.396256 41.000000
3.649068 -1.045149 0.396826 38.000000
3.641063 -1.054956 0.396351 48.000000
3.639720 -1.066680 0.396541 32.000000
3.636431 -1.077842 0.396541 42.000000
3.631199 -1.088422 0.396351 43.000000
3.632607 -1.101000 0.396826 60.000000
3.626356 -1.111265 0.396541 47.000000
3.627685 -1.123857 0.397016 47.000000
3.630870 -1.137062 0.397681 35.000000
3.634009 -1.150297 0.398346 51.000000
3.637100 -1.163561 0.399011 42.000000
3.642039 -1.177468 0.399866 35.000000
3.641248 -1.189562 0.400151 39.000000
3.638527 -1.201040 0.400246 43.000000
3.637659 -1.213141 0.400530 32.000000
3.638637 -1.225883 0.401005 46.000000
3.635802 -1.237361 0.401100 48.000000
3.632930 -1.248833 0.401195 44.000000
3.627200 -1.259320 0.401005 34.000000
3.624259 -1.270772 0.401100 36.000000
3.802411 -1.346288 0.419526 5.000000
3.702246 -0.386144 0.342866 16.000000
3.668345 -0.393985 0.340145 42.000000
3.660185 -0.404470 0.339568 53.000000
3.662888 -0.416148 0.339897 36.000000
3.659614 -0.427152 0.339732 33.000000
3.651360 -0.437547 0.339155 27.000000
3.654946 -0.449356 0.339568 26.000000
3.660471 -0.461440 0.340145 48.000000
3.665957 -0.473563 0.340722 43.000000
3.672391 -0.485854 0.341382 33.000000
3.671870 -0.497252 0.341464 44.000000
3.671315 -0.508652 0.341547 34.000000
3.675657 -0.520752 0.342041 42.000000
3.667138 -0.531026 0.341464 45.000000
3.665492 -0.542274 0.341464 37.000000
3.664797 -0.553666 0.341547 29.000000
3.664066 -0.565059 0.341629 42.000000
3.666252 -0.576918 0.341959 37.000000
3.667417 -0.588637 0.342206 50.000000
3.664610 -0.599725 0.342124 41.000000
3.661770 -0.610801 0.342041 38.000000
3.657914 -0.621698 0.341876 54.000000
3.653044 -0.632407 0.341629 39.000000
3.643235 -0.642226 0.340969 30.000000
3.645171 -0.654105 0.341299 38.000000
3.641186 -0.664927 0.341134 40.000000
3.645008 -0.677188 0.341629 30.000000
3.649768 -0.689663 0.342206 29.000000
3.646656 -0.700669 0.342124 32.000000
3.645468 -0.712045 0.342206 33.000000
3.648154 -0.724196 0.342619 39.000000
3.645914 -0.735385 0.342619 30.000000
3.645594 -0.746968 0.342784 44.000000
3.642309 -0.757946 0.342701 41.000000
3.636066 -0.768292 0.342371 40.000000
3.643436 -0.781535 0.343196 28.000000
3.640048 -0.792497 0.343113 38.000000
3.636626 -0.803446 0.343031 44.000000
3.635117 -0.814817 0.343113 46.000000
3.633572 -0.826187 0.343196 29.000000
3.631991 -0.837554 0.343278 32.000000
3.639108 -0.850963 0.344103 34.000000
3.636480 -0.862124 0.344103 37.000000
3.636725 -0.873975 0.344350 46.000000
3.638868 -0.886308 0.344763 30.000000
3.637100 -0.897707 0.344845 52.000000
3.633361 -0.908619 0.344763 42.000000
3.634421 -0.920741 0.345092 33.000000
3.627718 -0.930896 0.344763 42.000000
3.625809 -0.942272 0.344845 37.000000
3.625793 -0.954153 0.345092 56.000000
3.621885 -0.965015 0.345010 36.000000
3.624681 -0.977680 0.345505 41.000000
3.626471 -0.990109 0.345917 31.000000
3.620535 -1.000434 0.345670 37.000000
3.620327 -1.012342 0.345917 32.000000
3.624876 -1.025616 0.346577 24.000000
3.612132 -1.033988 0.345752 60.000000
3.615643 -1.047006 0.346329 30.000000
3.610501 -1.057534 0.346164 32.000000
3.603418 -1.067473 0.345835 28.000000
3.602989 -1.079381 0.346082 34.000000
3.600615 -1.090719 0.346164 28.000000
3.599157 -1.102344 0.346329 36.000000
3.597662 -1.113971 0.346494 35.000000
3.594228 -1.125003 0.346494 41.000000
3.595510 -1.137528 0.346907 28.000000
3.599597 -1.150983 0.347566 29.000000
3.598894 -1.162940 0.347814 47.000000
3.601940 -1.176142 0.348391 39.000000
3.600208 -1.187812 0.348556 38.000000
3.599383 -1.199797 0.348803 30.000000
3.612685 -1.216561 0.350287 20.000000
3.603275 -1.225713 0.349793 26.000000
3.601383 -1.237409 0.349958 28.000000
3.597569 -1.248453 0.349958 9.000000
3.583377 -1.255857 0.349051 6.000000
3.681109 -0.408669 0.297302 9.000000
3.657043 -0.417366 0.295677 29.000000
3.647819 -0.427657 0.295112 20.000000
3.647480 -0.438965 0.295183 17.000000
3.635226 -0.448812 0.294406 31.000000
3.631853 -0.459713 0.294265 27.000000
3.630425 -0.470853 0.294265 44.000000
3.633908 -0.482644 0.294618 24.000000
3.630433 -0.493522 0.294477 33.000000
3.631866 -0.505069 0.294688 32.000000
3.630299 -0.516209 0.294688 31.000000
3.633635 -0.528060 0.295042 25.000000
3.630024 -0.538913 0.294900 28.000000
3.631313 -0.550495 0.295112 31.000000
3.631578 -0.561938 0.295253 38.000000
3.628851 -0.572921 0.295183 30.000000
3.631016 -0.584685 0.295465 37.000000
3.634127 -0.596628 0.295819 43.000000
3.627360 -0.606953 0.295465 41.000000
3.628431 -0.618581 0.295677 48.000000
3.625534 -0.629540 0.295607 29.000000
3.621620 -0.640313 0.295465 47.000000
3.624548 -0.652303 0.295819 32.000000
3.619586 -0.662882 0.295607 27.000000
3.619496 -0.674348 0.295748 36.000000
3.622311 -0.686376 0.296101 40.000000
3.623127 -0.698051 0.296313 25.000000
3.620969 -0.709164 0.296313 19.000000
3.618776 -0.720269 0.296313 30.000000
3.613616 -0.730776 0.296101 26.000000
3.608425 -0.741258 0.295889 35.000000
3.603204 -0.751714 0.295677 42.000000
3.597953 -0.762146 0.295465 44.000000
3.598524 -0.773809 0.295677 48.000000
3.601006 -0.785908 0.296030 33.000000
3.598578 -0.796951 0.296030 34.000000
3.602929 -0.809517 0.296525 31.000000
3.608210 -0.822337 0.297090 39.000000
3.607614 -0.833852 0.297231 34.000000
3.609895 -0.846052 0.297584 37.000000
3.604371 -0.856433 0.297372 41.000000
3.598817 -0.866787 0.297160 32.000000
3.602924 -0.879477 0.297655 29.000000
3.604083 -0.891484 0.297937 32.000000
3.602298 -0.902779 0.298008 38.000000
3.600479 -0.914072 0.298079 38.000000
3.602488 -0.926354 0.298432 41.000000
3.602525 -0.938155 0.298644 42.000000
3.602524 -0.949965 0.298855 31.000000
3.599593 -0.961013 0.298855 29.000000
3.599516 -0.972832 0.299067 43.000000
3.599402 -0.984659 0.299279 34.000000
3.596364 -0.995697 0.299279 29.000000
3.591371 -1.006189 0.299138 37.000000
3.589227 -1.017474 0.299209 55.000000
3.586088 -1.028480 0.299209 53.000000
3.581958 -1.039200 0.299138 42.000000
3.575881 -1.049343 0.298926 37.000000
3.575514 -1.061159 0.299138 44.000000
3.577019 -1.073556 0.299491 49.000000
3.576573 -1.085393 0.299703 39.000000
3.581810 -1.098991 0.300339 33.000000
3.581279 -1.110861 0.300551 37.000000
3.580710 -1.122737 0.300762 51.000000
3.581053 -1.134921 0.301045 54.000000
3.576604 -1.145599 0.300974 34.000000
3.578767 -1.158407 0.301398 44.000000
3.578041 -1.170311 0.301610 45.000000
3.575381 -1.181595 0.301681 42.000000
3.577416 -1.194453 0.302104 41.000000
3.576571 -1.206378 0.302316 27.000000
3.572853 -1.217345 0.302316 22.000000
3.564385 -1.226679 0.301963 12.000000
3.565316 -1.239245 0.302316 18.000000
3.612561 -0.411061 0.246814 31.000000
3.611283 -0.422142 0.246814 28.000000
3.606998 -0.432862 0.246640 24.000000
3.605653 -0.443926 0.246640 36.000000
3.605264 -0.455111 0.246698 24.000000
3.603851 -0.466170 0.246698 38.000000
3.604383 -0.477487 0.246814 50.000000
3.600923 -0.488274 0.246698 45.000000
3.601385 -0.499594 0.246814 45.000000
3.605766 -0.511482 0.247162 31.000000
3.606156 -0.522829 0.247279 29.000000
3.608485 -0.534476 0.247511 36.000000
3.605841 -0.545394 0.247453 37.000000
3.605137 -0.556607 0.247511 43.000000
3.603413 -0.567664 0.247511 44.000000
3.598697 -0.578241 0.247337 46.000000
3.596906 -0.589279 0.247337 42.000000
3.593112 -0.599983 0.247220 27.000000
3.592239 -0.611171 0.247279 47.000000
3.594281 -0.622871 0.247511 33.000000
3.592353 -0.633895 0.247511 28.000000
3.596287 -0.645973 0.247859 41.000000
3.596252 -0.657363 0.247976 44.000000
3.594219 -0.668393 0.247976 44.000000
3.598037 -0.680530 0.248324 30.000000
3.596912 -0.691754 0.248382 38.000000
3.599672 -0.703744 0.248673 52.000000
3.603371 -0.715953 0.249021 34.000000
3.599200 -0.726609 0.248905 44.000000
3.596954 -0.737648 0.248905 43.000000
3.592719 -0.748272 0.248789 33.000000
3.586500 -0.758464 0.248556 31.000000
3.584156 -0.769464 0.248556 34.000000
3.576902 -0.779393 0.248266 35.000000
3.572544 -0.789932 0.248150 35.000000
3.573026 -0.801545 0.248324 31.000000
3.575417 -0.813611 0.248615 43.000000
3.577768 -0.825699 0.248905 31.000000
3.578134 -0.837355 0.249079 34.000000
3.578462 -0.849020 0.249253 40.000000
3.578753 -0.860695 0.249428 31.000000
3.580944 -0.872853 0.249718 31.000000
3.582126 -0.884793 0.249951 48.000000
3.582300 -0.896506 0.250125 35.000000
3.582436 -0.908229 0.250299 57.000000
3.579633 -0.919215 0.250299 36.000000
3.576796 -0.930193 0.250299 39.000000
3.575856 -0.941671 0.250415 40.000000
3.573914 -0.952894 0.250473 38.000000
3.574829 -0.964895 0.250706 43.000000
3.570889 -0.975595 0.250648 40.000000
3.567879 -0.986546 0.250648 35.000000
3.566759 -0.998025 0.250764 30.000000
3.568483 -1.010323 0.251054 45.000000
3.567286 -1.021817 0.251170 36.000000
3.568928 -1.034146 0.251461 32.000000
3.563823 -1.044528 0.251345 53.000000
3.562516 -1.056025 0.251461 31.000000
3.564040 -1.068383 0.251751 32.000000
3.565522 -1.080761 0.252042 31.000000
3.567917 -1.093451 0.252390 42.000000
3.561685 -1.103505 0.252216 40.000000
3.562093 -1.115621 0.252448 40.000000
3.561509 -1.127448 0.252622 36.000000
3.564688 -1.140499 0.253029 56.000000
3.563072 -1.152045 0.253145 53.000000
3.552879 -1.160800 0.252739 39.000000
3.552145 -1.172634 0.252913 31.000000
3.554212 -1.185422 0.253261 25.000000
3.551505 -1.196639 0.253320 41.000000
3.549707 -1.208173 0.253436 37.000000
3.551648 -1.221006 0.253784 24.000000
3.541284 -1.229603 0.253378 30.000000
3.544089 -1.242775 0.253784 18.000000
3.572254 -1.264976 0.255759 6.000000
3.579805 -0.409206 0.202218 21.000000
3.577541 -0.420071 0.202172 20.000000
3.575243 -0.430925 0.202125 23.000000
3.576878 -0.442259 0.202264 17.000000
3.582442 -0.454107 0.202588 17.000000
3.583013 -0.465353 0.202680 45.000000
3.579588 -0.476080 0.202588 54.000000
3.579101 -0.487194 0.202634 47.000000
3.581547 -0.498722 0.202819 32.000000
3.581978 -0.509989 0.202911 22.000000
3.579408 -0.520832 0.202865 25.000000
3.577793 -0.531812 0.202865 35.000000
3.573182 -0.542337 0.202726 36.000000
3.574462 -0.553754 0.202865 30.000000
3.573734 -0.564874 0.202911 42.000000
3.567053 -0.575042 0.202680 48.000000
3.566257 -0.586144 0.202726 28.000000
3.566413 -0.597412 0.202819 32.000000
3.560624 -0.607680 0.202634 28.000000
3.562680 -0.619284 0.202819 37.000000
3.557812 -0.629690 0.202680 35.000000
3.554880 -0.640425 0.202634 37.000000
3.562725 -0.653127 0.203096 22.000000
3.556776 -0.663323 0.202911 27.000000
3.554725 -0.674232 0.202911 38.000000
3.558525 -0.686267 0.203189 45.000000
3.560324 -0.697949 0.203374 24.000000
3.565024 -0.710232 0.203697 22.000000
3.560870 -0.720771 0.203605 36.000000
3.558642 -0.731692 0.203605 40.000000
3.560292 -0.743422 0.203790 28.000000
3.561903 -0.755168 0.203975 30.000000
3.559570 -0.766093 0.203975 39.000000
3.557203 -0.777010 0.203975 34.000000
3.554802 -0.787919 0.203975 47.000000
3.554317 -0.799259 0.204067 33.000000
3.554771 -0.810826 0.204206 36.000000
3.555187 -0.822402 0.204345 31.000000
3.550701 -0.832850 0.204252 32.000000
3.551045 -0.844432 0.204391 30.000000
3.554265 -0.856725 0.204668 33.000000
3.548708 -0.866915 0.204530 37.000000
3.546032 -0.877798 0.204530 29.000000
3.542353 -0.888430 0.204483 37.000000
3.537674 -0.898802 0.204391 31.000000
3.537803 -0.910398 0.204530 39.000000
3.528226 -0.919486 0.204206 18.000000
3.535048 -0.932852 0.204668 37.000000
3.538925 -0.945495 0.204992 29.000000
3.530222 -0.954785 0.204715 22.000000
3.536912 -0.968246 0.205177 30.000000
3.534887 -0.979359 0.205223 34.000000
3.537638 -0.991815 0.205501 30.000000
3.530734 -1.001575 0.205316 21.000000
3.538207 -1.015430 0.205824 31.000000
3.537953 -1.027115 0.205963 39.000000
3.539578 -1.039370 0.206194 40.000000
3.541161 -1.051645 0.206425 45.000000
3.540789 -1.063365 0.206564 45.000000
3.538465 -1.074513 0.206610 52.000000
3.533242 -1.084778 0.206518 35.000000
3.528944 -1.095317 0.206472 51.000000
3.524613 -1.105840 0.206425 29.000000
3.524061 -1.117553 0.206564 41.000000
3.527275 -1.130491 0.206888 38.000000
3.525692 -1.141922 0.206980 36.000000
3.525969 -1.153975 0.207165 33.000000
3.530949 -1.167608 0.207581 36.000000
3.533035 -1.180332 0.207859 38.000000
3.531291 -1.191804 0.207951 37.000000
3.521944 -1.200700 0.207674 21.000000
3.522022 -1.212799 0.207859 25.000000
3.517341 -1.223271 0.207812 25.000000
3.508859 -1.232403 0.207581 22.000000
3.498470 -1.240827 0.207258 15.000000
3.552957 -0.404898 0.156771 13.000000
3.552690 -0.415913 0.156805 25.000000
3.559336 -0.427765 0.157075 27.000000
3.564950 -0.439540 0.157312 35.000000
3.569534 -0.451227 0.157515 27.000000
3.571106 -0.462562 0.157617 30.000000
3.570661 -0.473647 0.157651 33.000000
3.570181 -0.484734 0.157685 44.000000
3.570657 -0.495960 0.157752 39.000000
3.561203 -0.505787 0.157482 41.000000
3.554689 -0.515992 0.157312 32.000000
3.550124 -0.526455 0.157211 34.000000
3.548492 -0.537345 0.157211 44.000000
3.543864 -0.547770 0.157109 29.000000
3.551051 -0.560042 0.157414 39.000000
3.548330 -0.570775 0.157380 56.000000
3.544590 -0.581335 0.157312 25.000000
3.542789 -0.592207 0.157312 30.000000
3.541941 -0.603241 0.157346 24.000000
3.539089 -0.613934 0.157312 30.000000
3.541125 -0.625485 0.157448 38.000000
3.540173 -0.636523 0.157482 41.000000
3.546068 -0.648821 0.157752 40.000000
3.543079 -0.659514 0.157719 36.000000
3.543984 -0.670939 0.157820 30.000000
3.546816 -0.682754 0.157989 39.000000
3.545686 -0.693824 0.158023 29.000000
3.543541 -0.704699 0.158023 35.000000
3.541362 -0.715567 0.158023 43.000000
3.537192 -0.726026 0.157956 39.000000
3.533969 -0.736670 0.157922 20.000000
3.537559 -0.748751 0.158125 39.000000
3.532314 -0.758971 0.158023 26.000000
3.529969 -0.769804 0.158023 36.000000
3.530518 -0.781279 0.158125 24.000000
3.531030 -0.792763 0.158226 33.000000
3.529556 -0.803815 0.158260 24.000000
3.532916 -0.815990 0.158463 31.000000
3.530396 -0.826825 0.158463 27.000000
3.531732 -0.838576 0.158599 35.000000
3.533029 -0.850343 0.158734 26.000000
3.526520 -0.860230 0.158599 32.000000
3.524834 -0.871285 0.158633 26.000000
3.523114 -0.882338 0.158666 29.000000
3.517484 -0.892405 0.158565 30.000000
3.519570 -0.904437 0.158734 32.000000
3.515811 -0.914979 0.158700 30.000000
3.514920 -0.926270 0.158768 27.000000
3.520753 -0.939369 0.159073 28.000000
3.519784 -0.950688 0.159140 31.000000
3.517815 -0.961745 0.159174 31.000000
3.515810 -0.972800 0.159208 29.000000
3.516659 -0.984660 0.159343 30.000000
3.516506 -0.996262 0.159445 26.000000
3.516315 -1.007872 0.159547 17.000000
3.503608 -1.015871 0.159208 22.000000
3.507188 -1.028585 0.159445 34.000000
3.506890 -1.040193 0.159547 34.000000
3.506554 -1.051809 0.159648 23.000000
3.506180 -1.063432 0.159750 31.000000
3.508634 -1.075943 0.159953 35.000000
3.509135 -1.087886 0.160088 28.000000
3.508641 -1.099544 0.160190 33.000000
3.510015 -1.111812 0.160359 37.000000
3.506588 -1.122576 0.160359 30.000000
3.503127 -1.133329 0.160359 45.000000
3.500584 -1.144381 0.160393 33.000000
3.496107 -1.154802 0.160359 31.000000
3.498236 -1.167421 0.160562 26.000000
3.498426 -1.179426 0.160698 28.000000
3.496683 -1.190798 0.160765 27.000000
3.495849 -1.202495 0.160867 29.000000
3.495919 -1.214527 0.161002 37.000000
3.495005 -1.226240 0.161104 29.000000
3.493111 -1.237624 0.161172 33.000000
3.492121 -1.249345 0.161273 13.000000
3.522076 -0.412335 0.112596 15.000000
3.535684 -0.424924 0.112921 28.000000
3.528410 -0.435037 0.112791 18.000000
3.541938 -0.447736 0.113116 25.000000
3.537573 -0.458216 0.113051 31.000000
3.533177 -0.468673 0.112986 32.000000
3.539648 -0.480584 0.113159 29.000000
3.542118 -0.491990 0.113246 25.000000
3.534653 -0.502014 0.113116 29.000000
3.534086 -0.512999 0.113137 36.000000
3.538429 -0.524717 0.113267 41.000000
3.541745 -0.536317 0.113375 21.000000
3.547000 -0.548247 0.113527 19.000000
3.548264 -0.559592 0.113592 28.000000
3.544556 -0.570159 0.113549 23.000000
3.543777 -0.581192 0.113570 36.000000
3.547894 -0.593049 0.113700 25.000000
3.539158 -0.602758 0.113549 34.000000
3.520545 -0.610714 0.113181 15.000000
3.532440 -0.623942 0.113484 19.000000
3.547238 -0.637778 0.113852 31.000000
3.542314 -0.648119 0.113787 24.000000
3.573729 -0.665193 0.114522 25.000000
3.572654 -0.676340 0.114544 27.000000
3.560744 -0.685411 0.114328 29.000000
3.584136 -0.701315 0.114890 25.000000
3.522149 -0.700432 0.113570 15.000000
3.519003 -0.711037 0.113549 15.000000
3.575571 -0.733872 0.114847 37.000000
3.552747 -0.740560 0.114393 26.000000
3.579803 -0.757658 0.115042 32.000000
3.562800 -0.765491 0.114717 24.000000
3.558481 -0.775993 0.114674 26.000000
3.549250 -0.785396 0.114522 19.000000
3.576090 -0.802842 0.115172 22.000000
3.559962 -0.810706 0.114869 17.000000
3.614935 -0.834880 0.116145 29.000000
3.611383 -0.845739 0.116124 12.000000
3.606826 -0.856353 0.116081 24.000000
3.695558 -0.889375 0.118115 19.000000
3.719038 -0.907098 0.118699 20.000000
3.763799 -0.930243 0.119759 23.000000
3.842399 -0.962161 0.121577 29.000000
3.865596 -0.980574 0.122161 30.000000
3.868379 -0.993920 0.122291 33.000000
3.877891 -1.009053 0.122573 33.000000
3.885412 -1.023744 0.122811 39.000000
3.675517 -0.980573 0.118180 14.000000
3.654150 -0.986898 0.117768 7.000000
3.930663 -0.707482 0.072979 24.000000
3.932408 -0.720258 0.073016 37.000000
3.922315 -0.730853 0.072942 39.000000
3.918090 -0.742511 0.072923 49.000000
3.908921 -0.753203 0.072858 53.000000
3.901685 -0.764230 0.072812 46.000000
3.900303 -0.776392 0.072821 49.000000
3.894962 -0.787759 0.072794 51.000000
3.896444 -0.800511 0.072831 56.000000
3.900822 -0.813891 0.072895 45.000000
3.904176 -0.827099 0.072951 34.000000
3.899665 -0.838652 0.072932 49.000000
3.900004 -0.851252 0.072960 45.000000
3.898351 -0.863430 0.072969 43.000000
3.894708 -0.875166 0.072960 50.000000
3.892980 -0.887333 0.072969 39.000000
3.894136 -0.900174 0.073006 51.000000
3.896224 -0.913258 0.073053 45.000000
3.899241 -0.926595 0.073108 38.000000
3.907073 -0.941130 0.073210 45.000000
3.917767 -0.956434 0.073339 32.000000
3.920638 -0.969890 0.073395 39.000000
3.930254 -0.985076 0.073515 44.000000
3.935935 -0.999345 0.073599 42.000000
3.937693 -1.012661 0.073645 51.000000
3.944244 -1.027258 0.073737 34.000000
3.944941 -1.040374 0.073774 35.000000
3.951392 -1.055053 0.073867 17.000000
3.961439 -0.712111 0.022885 11.000000
3.931691 -0.719231 0.022978 37.000000
3.927500 -0.730925 0.022985 29.000000
3.917378 -0.741485 0.023011 41.000000
3.905265 -0.751613 0.023044 35.000000
3.898033 -0.762632 0.023061 47.000000
3.892732 -0.774003 0.023071 44.000000
3.884458 -0.784756 0.023091 51.000000
3.882032 -0.796670 0.023091 43.000000
3.879570 -0.808576 0.023091 54.000000
3.876092 -0.820268 0.023094 50.000000
3.874535 -0.832365 0.023091 60.000000
3.872940 -0.844461 0.023087 34.000000
3.870332 -0.856339 0.023087 37.000000
3.867686 -0.868209 0.023087 44.000000
3.865979 -0.880292 0.023084 41.000000
3.866184 -0.892823 0.023074 43.000000
3.870243 -0.906274 0.023051 41.000000
3.869390 -0.918605 0.023044 47.000000
3.872387 -0.931874 0.023024 34.000000
3.874368 -0.944933 0.023008 60.000000
3.879218 -0.958732 0.022981 54.000000
3.891780 -0.974511 0.022928 40.000000
3.901374 -0.989639 0.022885 49.000000
3.908974 -1.004338 0.022849 36.000000
3.918456 -1.019596 0.022805 53.000000
3.925947 -1.034412 0.022769 34.000000
3.983631 -1.062672 0.022560 6.000000
3.984719 -0.715786 -0.027171 19.000000
3.957915 -0.723511 -0.026778 32.000000
3.944864 -0.733638 -0.026605 29.000000
3.919998 -0.741461 -0.026244 41.000000
3.892177 -0.748571 -0.025836 59.000000
3.887899 -0.760125 -0.025804 46.000000
3.876723 -0.770295 -0.025663 56.000000
3.874341 -0.782185 -0.025663 56.000000
3.871923 -0.794067 -0.025663 70.000000
3.868490 -0.805739 -0.025647 60.000000
3.865021 -0.817396 -0.025631 47.000000
3.861518 -0.829040 -0.025616 72.000000
3.857980 -0.840670 -0.025600 81.000000
3.858311 -0.853150 -0.025647 62.000000
3.853724 -0.864545 -0.025616 46.000000
3.853003 -0.876808 -0.025647 31.000000
3.851270 -0.888850 -0.025663 45.000000
3.853392 -0.901801 -0.025741 47.000000
3.854499 -0.914542 -0.025804 48.000000
3.851675 -0.926364 -0.025804 35.000000
3.855615 -0.939834 -0.025914 34.000000
3.863391 -0.954297 -0.026087 49.000000
3.873054 -0.969302 -0.026291 53.000000
3.877815 -0.983147 -0.026417 58.000000
3.890276 -0.999020 -0.026668 44.000000
3.913319 -1.017748 -0.027092 26.000000
3.923715 -1.033315 -0.027312 16.000000
3.939848 -1.050502 -0.027626 12.000000
3.947340 -0.697087 -0.074648 22.000000
3.942231 -0.708664 -0.074564 35.000000
3.931188 -0.719139 -0.074315 29.000000
3.917170 -0.729005 -0.073982 29.000000
3.900182 -0.738235 -0.073565 23.000000
3.885137 -0.747745 -0.073205 31.000000
3.875957 -0.758320 -0.073011 40.000000
3.872632 -0.770013 -0.072983 39.000000
3.868291 -0.781495 -0.072927 57.000000
3.860979 -0.792356 -0.072789 50.000000
3.854615 -0.803383 -0.072678 58.000000
3.849199 -0.814584 -0.072594 47.000000
3.844727 -0.825971 -0.072539 45.000000
3.837291 -0.836699 -0.072400 74.000000
3.837634 -0.849114 -0.072483 66.000000
3.835986 -0.861103 -0.072511 63.000000
3.838200 -0.873976 -0.072650 59.000000
3.841345 -0.887095 -0.072816 48.000000
3.843472 -0.900014 -0.072955 44.000000
3.844584 -0.912724 -0.073066 51.000000
3.846625 -0.925682 -0.073205 48.000000
3.849594 -0.938899 -0.073371 48.000000
3.856400 -0.953100 -0.073649 36.000000
3.865095 -0.967837 -0.073982 47.000000
3.878581 -0.983864 -0.074453 41.000000
3.890068 -0.999486 -0.074870 39.000000
3.902462 -1.015439 -0.075314 31.000000
3.910929 -1.030460 -0.075646 27.000000
3.927068 -1.047601 -0.076201 18.000000
3.924800 -1.059904 -0.076229 10.000000
3.939880 -0.695257 -0.124569 15.000000
3.930845 -0.706104 -0.124287 25.000000
3.920797 -0.716722 -0.123964 42.000000
3.918579 -0.728747 -0.123964 36.000000
3.912398 -0.740023 -0.123803 44.000000
3.902260 -0.750512 -0.123481 40.000000
3.894055 -0.761329 -0.123239 39.000000
3.884841 -0.771909 -0.122957 41.000000
3.874619 -0.782241 -0.122634 30.000000
3.859477 -0.791514 -0.122110 38.000000
3.846270 -0.801108 -0.121667 45.000000
3.832064 -0.810423 -0.121183 32.000000
3.826629 -0.821546 -0.121062 58.000000
3.821162 -0.832644 -0.120941 51.000000
3.816638 -0.843931 -0.120861 38.000000
3.819880 -0.856949 -0.121103 46.000000
3.820156 -0.869330 -0.121223 32.000000
3.825260 -0.882844 -0.121546 54.000000
3.830316 -0.896398 -0.121868 37.000000
3.828520 -0.908376 -0.121909 37.000000
3.835430 -0.922455 -0.122312 42.000000
3.838407 -0.935638 -0.122554 38.000000
3.837458 -0.947889 -0.122634 41.000000
3.842286 -0.961599 -0.122957 45.000000
3.848034 -0.975593 -0.123319 33.000000
3.850830 -0.988886 -0.123561 37.000000
3.860348 -1.003966 -0.124085 47.000000
3.863048 -1.017332 -0.124327 29.000000
3.877286 -1.033814 -0.125053 19.000000
3.886636 -1.049091 -0.125577 9.000000
3.972514 -0.715525 -0.174535 13.000000
3.905467 -0.715845 -0.171081 33.000000
3.901289 -0.727458 -0.170976 28.000000
3.890208 -0.737752 -0.170505 56.000000
3.881062 -0.748362 -0.170138 45.000000
3.873848 -0.759306 -0.169877 59.000000
3.863664 -0.769629 -0.169458 56.000000
3.854434 -0.780094 -0.169092 64.000000
3.846152 -0.790711 -0.168778 47.000000
3.828067 -0.799246 -0.167940 32.000000
3.828527 -0.811607 -0.168097 39.000000
3.825043 -0.823139 -0.168045 30.000000
3.824451 -0.835296 -0.168150 49.000000
3.821871 -0.847025 -0.168150 36.000000
3.823152 -0.859622 -0.168359 31.000000
3.825365 -0.872456 -0.168621 41.000000
3.830454 -0.885986 -0.169039 34.000000
3.828690 -0.897961 -0.169092 30.000000
3.828832 -0.910395 -0.169249 29.000000
3.838643 -0.925176 -0.169929 45.000000
3.842577 -0.938605 -0.170295 36.000000
3.846466 -0.952067 -0.170662 59.000000
3.846433 -0.964591 -0.170819 64.000000
3.843456 -0.976387 -0.170819 65.000000
3.853016 -0.991406 -0.171499 31.000000
3.860586 -1.005989 -0.172075 32.000000
3.860379 -1.018592 -0.172232 27.000000
3.863025 -1.031975 -0.172546 21.000000
3.877194 -1.048509 -0.173488 10.000000
3.920100 -0.691764 -0.220911 17.000000
3.906173 -0.701669 -0.220135 23.000000
3.895168 -0.712034 -0.219553 29.000000
3.887078 -0.722886 -0.219164 50.000000
3.876999 -0.733323 -0.218647 35.000000
3.868851 -0.744083 -0.218258 49.000000
3.853818 -0.753458 -0.217417 57.000000
3.844638 -0.763916 -0.216964 51.000000
3.841298 -0.775510 -0.216900 55.000000
3.830102 -0.785486 -0.216317 40.000000
3.847213 -0.801305 -0.217611 84.000000
3.828140 -0.809592 -0.216511 41.000000
3.822711 -0.820704 -0.216317 39.000000
3.832850 -0.835192 -0.217158 57.000000
3.830270 -0.846947 -0.217158 60.000000
3.854916 -0.864813 -0.218970 97.000000
3.825974 -0.870654 -0.217223 37.000000
3.823285 -0.882388 -0.217223 30.000000
3.821531 -0.894341 -0.217288 34.000000
3.826537 -0.907905 -0.217805 54.000000
3.829555 -0.921041 -0.218194 52.000000
3.836406 -0.935150 -0.218841 69.000000
3.835456 -0.947394 -0.218970 81.000000
3.841244 -0.961338 -0.219553 39.000000
3.841178 -0.973854 -0.219747 37.000000
3.843971 -0.987124 -0.220135 39.000000
3.839959 -0.998661 -0.220070 60.000000
3.849422 -1.013742 -0.220911 44.000000
3.849187 -1.026319 -0.221105 36.000000
3.867214 -1.043847 -0.222529 19.000000
3.901725 -0.690444 -0.266800 18.000000
3.895663 -0.701706 -0.266494 16.000000
3.881723 -0.711500 -0.265575 35.000000
3.877561 -0.723041 -0.265422 28.000000
3.862589 -0.732522 -0.264427 35.000000
3.858365 -0.743992 -0.264274 37.000000
3.847258 -0.754102 -0.263585 57.000000
3.842971 -0.765513 -0.263432 40.000000
3.839627 -0.777102 -0.263355 49.000000
3.837225 -0.788878 -0.263355 54.000000
3.834786 -0.800647 -0.263355 51.000000
3.835238 -0.813028 -0.263585 32.000000
3.830776 -0.824371 -0.263432 45.000000
3.828229 -0.836120 -0.263432 43.000000
3.821752 -0.846999 -0.263126 53.000000
3.816217 -0.858065 -0.262896 49.000000
3.812594 -0.869547 -0.262820 49.000000
3.811852 -0.881689 -0.262973 39.000000
3.808158 -0.893152 -0.262896 48.000000
3.808310 -0.905522 -0.263126 39.000000
3.809391 -0.918135 -0.263432 45.000000
3.819149 -0.932890 -0.264427 84.000000
3.812398 -0.943645 -0.264121 60.000000
3.814321 -0.956548 -0.264504 42.000000
3.811368 -0.968246 -0.264504 38.000000
3.813208 -0.981175 -0.264886 41.000000
3.828513 -0.997641 -0.266341 23.000000
3.833148 -1.011415 -0.266953 28.000000
3.838697 -1.025483 -0.267642 27.000000
3.848046 -1.040636 -0.268637 20.000000
3.908846 -0.678818 -0.315791 21.000000
3.900861 -0.689766 -0.315259 22.000000
3.891864 -0.700494 -0.314638 31.000000
3.878919 -0.710456 -0.313662 40.000000
3.873784 -0.721805 -0.313396 24.000000
3.859808 -0.731460 -0.312331 37.000000
3.852655 -0.742355 -0.311888 40.000000
3.841562 -0.752448 -0.311089 63.000000
3.844120 -0.765203 -0.311533 32.000000
3.839802 -0.776598 -0.311355 55.000000
3.841304 -0.789176 -0.311710 42.000000
3.842765 -0.801772 -0.312065 55.000000
3.845159 -0.814590 -0.312509 49.000000
3.842642 -0.826383 -0.312509 52.000000
3.844954 -0.839231 -0.312952 66.000000
3.855976 -0.854040 -0.314194 25.000000
3.840704 -0.863026 -0.313041 56.000000
3.840951 -0.875469 -0.313307 33.000000
3.842129 -0.888147 -0.313662 31.000000
3.833568 -0.898565 -0.313130 44.000000
3.848236 -0.914469 -0.314727 112.000000
3.842507 -0.925571 -0.314460 103.000000
3.819330 -0.932393 -0.312597 46.000000
3.816451 -0.944106 -0.312597 47.000000
3.817401 -0.956779 -0.312952 55.000000
3.814448 -0.968486 -0.312952 43.000000
3.814353 -0.980929 -0.313218 49.000000
3.824820 -0.996142 -0.314460 33.000000
3.839081 -1.012446 -0.316057 22.000000
3.836919 -1.024476 -0.316146 24.000000
3.840489 -1.038063 -0.316767 28.000000
3.850736 -1.053522 -0.318009 7.000000
3.909913 -0.691190 -0.366229 26.000000
3.896024 -0.701071 -0.365014 25.000000
3.887004 -0.711768 -0.364305 28.000000
3.881868 -0.723144 -0.364002 23.000000
3.863991 -0.732092 -0.362382 26.000000
3.856841 -0.743003 -0.361876 47.000000
3.852591 -0.754451 -0.361673 43.000000
3.850258 -0.766267 -0.361673 45.000000
3.852765 -0.779060 -0.362179 38.000000
3.852306 -0.791276 -0.362382 29.000000
3.852782 -0.803700 -0.362686 37.000000
3.853219 -0.816134 -0.362989 31.000000
3.857505 -0.829413 -0.363698 35.000000
3.860775 -0.842515 -0.364305 38.000000
3.863029 -0.855430 -0.364811 40.000000
3.855533 -0.866188 -0.364305 18.000000
3.885839 -0.885519 -0.367747 104.000000
3.869533 -0.894304 -0.366330 51.000000
3.866771 -0.906171 -0.366330 38.000000
3.858165 -0.916652 -0.365722 31.000000
3.842760 -0.925460 -0.364406 35.000000
3.835069 -0.936067 -0.363900 57.000000
3.828316 -0.946874 -0.363495 44.000000
3.823463 -0.958132 -0.363293 29.000000
3.820506 -0.969857 -0.363293 43.000000
3.820403 -0.982316 -0.363597 44.000000
3.824111 -0.995785 -0.364305 39.000000
3.826810 -1.009033 -0.364913 36.000000
3.824658 -1.021025 -0.365014 26.000000
3.825349 -1.033791 -0.365419 16.000000
3.822160 -1.045523 -0.365419 9.000000
3.900973 -0.701435 -0.412909 19.000000
3.888052 -0.711431 -0.411666 24.000000
3.873152 -0.720991 -0.410197 33.000000
3.866041 -0.731946 -0.409631 33.000000
3.858899 -0.742863 -0.409066 43.000000
3.851726 -0.753744 -0.408501 45.000000
3.849396 -0.765558 -0.408501 50.000000
3.851898 -0.778348 -0.409066 60.000000
3.858252 -0.791961 -0.410084 51.000000
3.865530 -0.805823 -0.411214 50.000000
3.875676 -0.820354 -0.412683 45.000000
3.882855 -0.834329 -0.413814 33.000000
3.888043 -0.847932 -0.414718 50.000000
3.893184 -0.861575 -0.415622 22.000000
3.895370 -0.874604 -0.416187 31.000000
3.918825 -0.892510 -0.419239 171.000000
3.903483 -0.901621 -0.417770 61.000000
3.891992 -0.911552 -0.416752 43.000000
3.879511 -0.921192 -0.415622 39.000000
3.867006 -0.930764 -0.414492 35.000000
3.859306 -0.941445 -0.413927 48.000000
3.846755 -0.950896 -0.412796 48.000000
3.839000 -0.961486 -0.412231 66.000000
3.837958 -0.973748 -0.412457 50.000000
3.835915 -0.985765 -0.412570 47.000000
3.838642 -0.999031 -0.413248 42.000000
3.840363 -1.012070 -0.413814 38.000000
3.842040 -1.025128 -0.414379 34.000000
3.852305 -1.040539 -0.415961 15.000000
3.897021 -0.701250 -0.462044 15.000000
3.895827 -0.713381 -0.462169 22.000000
3.890694 -0.724786 -0.461793 29.000000
3.881628 -0.735428 -0.460916 35.000000
3.873508 -0.746209 -0.460164 45.000000
3.867306 -0.757328 -0.459663 31.000000
3.872749 -0.770736 -0.460665 26.000000
3.875229 -0.783595 -0.461292 32.000000
3.884469 -0.797873 -0.462796 30.000000
3.897543 -0.813023 -0.464801 19.000000
3.896972 -0.825387 -0.465052 56.000000
3.907031 -0.840047 -0.466681 34.000000
3.911221 -0.853508 -0.467559 31.000000
3.908584 -0.865504 -0.467559 37.000000
3.902038 -0.876622 -0.467057 14.000000
3.916744 -0.892552 -0.469313 36.000000
3.910120 -0.903672 -0.468812 53.000000
3.905397 -0.915211 -0.468561 43.000000
3.896779 -0.925814 -0.467809 40.000000
3.885239 -0.935677 -0.466681 33.000000
3.873675 -0.945478 -0.465553 40.000000
3.862087 -0.955216 -0.464425 56.000000
3.858176 -0.966820 -0.464300 39.000000
3.856154 -0.978896 -0.464425 50.000000
3.856015 -0.991462 -0.464801 53.000000
3.858716 -1.004786 -0.465553 42.000000
3.854656 -1.016367 -0.465428 54.000000
3.883154 -1.036623 -0.469564 18.000000
3.885703 -1.050083 -0.470316 11.000000
3.936697 -0.718923 -0.516924 21.000000
3.909153 -0.726290 -0.513350 51.000000
3.908853 -0.738648 -0.513625 45.000000
3.902678 -0.749889 -0.513075 42.000000
3.895498 -0.760908 -0.512388 49.000000
3.893145 -0.772856 -0.512388 48.000000
3.892698 -0.785188 -0.512663 59.000000
3.897063 -0.798520 -0.513625 54.000000
3.906231 -0.812895 -0.515274 58.000000
3.912441 -0.826719 -0.516511 29.000000
3.911823 -0.839134 -0.516786 39.000000
3.914069 -0.852185 -0.517473 36.000000
3.912403 -0.864403 -0.517611 16.000000
3.910073 -0.901712 -0.518435 34.000000
3.911146 -0.914606 -0.518985 44.000000
3.903503 -0.925458 -0.518298 39.000000
3.897756 -0.936734 -0.517886 33.000000
3.885240 -0.946343 -0.516511 32.000000
3.879434 -0.957546 -0.516099 41.000000
3.873595 -0.968722 -0.515687 36.000000
3.869645 -0.980359 -0.515549 37.000000
3.870456 -0.993211 -0.516099 42.000000
3.860681 -1.003336 -0.515137 28.000000
3.862374 -1.016437 -0.515824 27.000000
3.860194 -1.028536 -0.515961 28.000000
3.861802 -1.041665 -0.516649 16.000000
3.916538 -0.730297 -0.562549 18.000000
3.910393 -0.741573 -0.561952 25.000000
3.916838 -0.755249 -0.563295 34.000000
3.902858 -0.764983 -0.561505 34.000000
3.888855 -0.774639 -0.559715 40.000000
3.886460 -0.786566 -0.559715 62.000000
3.893715 -0.800474 -0.561206 40.000000
3.907697 -0.815847 -0.563743 39.000000
3.913882 -0.829675 -0.565085 40.000000
3.913251 -0.842094 -0.565384 44.000000
3.926107 -0.857467 -0.567771 35.000000
3.960145 -0.877627 -0.573440 13.000000
3.949009 -0.913371 -0.572993 24.000000
3.951965 -0.926835 -0.573888 18.000000
3.938520 -0.936442 -0.572247 22.000000
3.920247 -0.944818 -0.569860 35.000000
3.905802 -0.954029 -0.568069 51.000000
3.891338 -0.963160 -0.566279 40.000000
3.875896 -0.971970 -0.564339 39.000000
3.869061 -0.982884 -0.563743 40.000000
3.862197 -0.993765 -0.563146 48.000000
3.865829 -1.007353 -0.564190 40.000000
3.871325 -1.021476 -0.565533 25.000000
3.899701 -1.041761 -0.570456 11.000000
3.944152 -0.746032 -0.616415 41.000000
3.940875 -0.757942 -0.616254 29.000000
3.930783 -0.768514 -0.614965 57.000000
3.927439 -0.780377 -0.614804 51.000000
3.924059 -0.792227 -0.614643 47.000000
3.927410 -0.805452 -0.615610 29.000000
3.929752 -0.818505 -0.616415 37.000000
3.938809 -0.833009 -0.618348 29.000000
3.939129 -0.845711 -0.618831 31.000000
3.923981 -0.855059 -0.616737 40.000000
3.947880 -0.923923 -0.623020 45.000000
3.943106 -0.935575 -0.622697 45.000000
3.938298 -0.947206 -0.622375 46.000000
3.928662 -0.957648 -0.621248 33.000000
3.916124 -0.967328 -0.619637 34.000000
3.909309 -0.978380 -0.618992 38.000000
3.900549 -0.988913 -0.618026 44.000000
3.900364 -1.001611 -0.618509 41.000000
3.898228 -1.013821 -0.618670 30.000000
3.912278 -1.030302 -0.621570 19.000000
3.969980 -0.740246 -0.670225 46.000000
3.960916 -0.751139 -0.669014 46.000000
3.951822 -0.761984 -0.667803 36.000000
3.947533 -0.773726 -0.667457 49.000000
3.937413 -0.784297 -0.666074 54.000000
3.932092 -0.795787 -0.665555 53.000000
3.933491 -0.808639 -0.666247 59.000000
3.930991 -0.820703 -0.666247 50.000000
3.939054 -0.835003 -0.668149 38.000000
3.990399 -0.858672 -0.677835 14.000000
3.969123 -0.943709 -0.677489 15.000000
3.956634 -0.953577 -0.675759 30.000000
3.935509 -0.961276 -0.672473 49.000000
3.921067 -0.970509 -0.670398 78.000000
3.924760 -0.984209 -0.671608 38.000000
3.918857 -0.995519 -0.671090 36.000000
3.912923 -1.006802 -0.670571 43.000000
3.915535 -1.020290 -0.671608 57.000000
