ply
format ascii 1.0
element vertex 1242
property float x
property float y
property float z
property float intensity
end_header
3.301581 -1.237296 0.413151 50.000000
3.294980 -1.246364 0.412830 47.000000
3.292069 -1.256822 0.412937 45.000000
3.294692 -1.269419 0.413685 77.000000
3.287075 -1.278079 0.413257 40.000000
3.281288 -1.287431 0.413044 43.000000
3.276398 -1.297126 0.412937 58.000000
3.275173 -1.308278 0.413257 41.000000
3.274833 -1.319807 0.413685 43.000000
3.274452 -1.331347 0.414112 42.000000
3.274032 -1.342896 0.414539 53.000000
3.275409 -1.355215 0.415180 51.000000
3.274905 -1.366790 0.415607 56.000000
3.278944 -1.380304 0.416568 33.000000
3.273779 -1.389968 0.416461 42.000000
3.272241 -1.401180 0.416781 38.000000
3.268840 -1.411607 0.416888 50.000000
3.264493 -1.421629 0.416888 54.000000
3.260116 -1.431637 0.416888 52.000000
3.252982 -1.440424 0.416568 47.000000
3.242192 -1.447560 0.415820 36.000000
3.240456 -1.458724 0.416141 46.000000
3.235965 -1.468659 0.416141 36.000000
3.233252 -1.479408 0.416354 47.000000
3.232310 -1.490986 0.416781 40.000000
3.228621 -1.501315 0.416888 45.000000
3.221300 -1.509947 0.416568 38.000000
3.219349 -1.521097 0.416888 38.000000
3.215565 -1.531395 0.416995 26.000000
3.202785 -1.537379 0.416034 30.000000
3.455563 -0.730776 0.371657 9.000000
3.450384 -0.740749 0.371372 32.000000
3.448096 -0.751331 0.371372 41.000000
3.448691 -0.762550 0.371657 33.000000
3.448278 -0.773562 0.371847 34.000000
3.442976 -0.783476 0.371562 48.000000
3.438616 -0.793588 0.371372 60.000000
3.429379 -0.802548 0.370708 54.000000
3.423027 -0.812147 0.370328 41.000000
3.415679 -0.821483 0.369853 41.000000
3.408306 -0.830781 0.369378 66.000000
3.405741 -0.841234 0.369378 45.000000
3.405076 -0.852161 0.369568 48.000000
3.403411 -0.862848 0.369663 57.000000
3.405569 -0.874522 0.370138 50.000000
3.403834 -0.885216 0.370233 51.000000
3.402065 -0.895908 0.370328 53.000000
3.401224 -0.906853 0.370518 66.000000
3.398426 -0.917284 0.370518 45.000000
3.397516 -0.928230 0.370708 59.000000
3.396571 -0.939179 0.370898 55.000000
3.394633 -0.949863 0.370993 64.000000
3.391703 -0.960273 0.370993 64.000000
3.391612 -0.971496 0.371278 63.000000
3.387659 -0.981620 0.371183 69.000000
3.385587 -0.992288 0.371278 76.000000
3.380618 -1.002105 0.371088 86.000000
3.379435 -1.013043 0.371278 71.000000
3.376311 -1.023406 0.371278 71.000000
3.372203 -1.033468 0.371183 59.000000
3.369968 -1.044103 0.371278 66.000000
3.366749 -1.054437 0.371278 65.000000
3.363498 -1.064762 0.371278 83.000000
3.358319 -1.074469 0.371088 61.000000
3.354060 -1.084462 0.370993 58.000000
3.345985 -1.093202 0.370518 67.000000
3.339779 -1.102527 0.370233 63.000000
3.335436 -1.112454 0.370138 71.000000
3.332951 -1.122999 0.370233 59.000000
3.330433 -1.133540 0.370328 53.000000
3.332588 -1.145692 0.370898 50.000000
3.326236 -1.154932 0.370613 37.000000
3.329254 -1.167435 0.371278 71.000000
3.324718 -1.177312 0.371183 54.000000
3.316403 -1.185832 0.370708 52.000000
3.309940 -1.194988 0.370423 70.000000
3.306258 -1.205137 0.370423 47.000000
3.302546 -1.215275 0.370423 45.000000
3.299735 -1.225747 0.370518 47.000000
3.300620 -1.237611 0.370993 54.000000
3.299601 -1.248788 0.371278 42.000000
3.299474 -1.260324 0.371657 59.000000
3.299308 -1.271872 0.372037 56.000000
3.296319 -1.282349 0.372132 57.000000
3.289588 -1.291365 0.371847 38.000000
3.285611 -1.301452 0.371847 46.000000
3.281603 -1.311526 0.371847 60.000000
3.277564 -1.321587 0.371847 59.000000
3.276260 -1.332761 0.372132 41.000000
3.273998 -1.343561 0.372322 47.000000
3.270781 -1.353980 0.372417 59.000000
3.271205 -1.365924 0.372892 57.000000
3.270669 -1.377498 0.373272 55.000000
3.266428 -1.387526 0.373272 58.000000
3.263071 -1.397933 0.373367 58.000000
3.257853 -1.407542 0.373272 40.000000
3.254432 -1.417928 0.373367 61.000000
3.254624 -1.429906 0.373842 40.000000
3.247491 -1.438676 0.373557 47.000000
3.243062 -1.448632 0.373557 42.000000
3.237695 -1.458167 0.373462 43.000000
3.235925 -1.469327 0.373747 43.000000
3.232307 -1.479661 0.373842 48.000000
3.227753 -1.489571 0.373842 52.000000
3.220459 -1.498208 0.373557 43.000000
3.214946 -1.507659 0.373462 39.000000
3.208506 -1.516665 0.373272 30.000000
3.201141 -1.525217 0.372987 43.000000
3.230552 -1.551396 0.376596 14.000000
3.234739 -1.565634 0.377546 9.000000
3.456350 -0.741384 0.327363 27.000000
3.451138 -0.751348 0.327116 29.000000
3.450763 -0.762362 0.327281 23.000000
3.449380 -0.773164 0.327363 59.000000
3.452823 -0.785069 0.327858 34.000000
3.447485 -0.794986 0.327611 53.000000
3.436296 -0.803516 0.326869 59.000000
3.422600 -0.855890 0.326786 57.000000
3.417060 -0.865652 0.326539 57.000000
3.419214 -0.877370 0.326951 60.000000
3.415542 -0.887605 0.326869 68.000000
3.410875 -0.897572 0.326704 63.000000
3.407143 -0.907776 0.326621 59.000000
3.400493 -0.917186 0.326291 67.000000
3.400547 -0.928402 0.326539 55.000000
3.395761 -0.938299 0.326374 78.000000
3.392867 -0.948713 0.326374 57.000000
3.389940 -0.959118 0.326374 58.000000
3.388898 -0.970062 0.326539 64.000000
3.385906 -0.980454 0.326539 72.000000
3.380296 -1.023954 0.327116 87.000000
3.378091 -1.034612 0.327199 59.000000
3.373949 -1.044676 0.327116 70.000000
3.373581 -1.055915 0.327363 63.000000
3.364625 -1.064456 0.326869 59.000000
3.359445 -1.074166 0.326704 69.000000
3.356134 -1.084468 0.326704 60.000000
3.350896 -1.094141 0.326539 70.000000
3.351309 -1.105665 0.326869 61.000000
3.350738 -1.116887 0.327116 65.000000
3.349184 -1.127798 0.327281 48.000000
3.350425 -1.139673 0.327693 60.000000
3.347856 -1.150271 0.327776 59.000000
3.345253 -1.160863 0.327858 46.000000
3.342616 -1.171451 0.327941 51.000000
3.337127 -1.181035 0.327776 68.000000
3.331612 -1.190597 0.327611 40.000000
3.325131 -1.199797 0.327363 52.000000
3.320498 -1.209652 0.327281 62.000000
3.315836 -1.219489 0.327199 47.000000
3.307407 -1.227921 0.326786 52.000000
3.301759 -1.237363 0.326621 49.000000
3.300743 -1.248545 0.326869 46.000000
3.301552 -1.260443 0.327281 58.000000
3.302319 -1.272358 0.327693 46.000000
3.303044 -1.284290 0.328106 54.000000
3.300944 -1.295146 0.328271 44.000000
3.300661 -1.306735 0.328600 53.000000
3.295711 -1.316485 0.328518 53.000000
3.288884 -1.325472 0.328271 57.000000
3.282956 -1.334805 0.328106 44.000000
3.278845 -1.344871 0.328106 47.000000
3.274704 -1.354924 0.328106 50.000000
3.274210 -1.366500 0.328435 41.000000
3.271839 -1.377312 0.328600 46.000000
3.272185 -1.389291 0.329013 46.000000
3.267907 -1.399324 0.329013 47.000000
3.264513 -1.409738 0.329095 40.000000
3.257432 -1.418553 0.328848 44.000000
3.253977 -1.428941 0.328930 48.000000
3.248667 -1.438513 0.328848 60.000000
3.249698 -1.450912 0.329342 43.000000
3.242505 -1.459647 0.329095 47.000000
3.243457 -1.472060 0.329590 46.000000
3.236206 -1.480760 0.329342 40.000000
3.232553 -1.491099 0.329425 46.000000
3.227060 -1.500589 0.329342 52.000000
3.220636 -1.509636 0.329178 56.000000
3.209682 -1.516529 0.328600 31.000000
3.200516 -1.524226 0.328188 30.000000
3.197621 -1.534900 0.328353 27.000000
3.448331 -0.741562 0.284801 29.000000
3.447989 -0.752563 0.284942 40.000000
3.442742 -0.762491 0.284730 41.000000
3.439414 -0.772832 0.284659 30.000000
3.440917 -0.784265 0.284942 40.000000
3.440439 -0.795267 0.285083 43.000000
3.438954 -0.806046 0.285154 61.000000
3.437435 -0.816823 0.285224 62.000000
3.439762 -0.828531 0.285578 44.000000
3.437204 -0.839080 0.285578 50.000000
3.429772 -0.848425 0.285224 51.000000
3.423282 -0.857975 0.284942 69.000000
3.414832 -0.867003 0.284518 57.000000
3.412156 -0.877475 0.284518 50.000000
3.404621 -0.886684 0.284165 71.000000
3.398991 -0.896363 0.283953 56.000000
3.397189 -0.907044 0.284024 86.000000
3.392464 -0.916942 0.283883 60.000000
3.392522 -0.928134 0.284094 64.000000
3.389658 -0.938538 0.284094 62.000000
3.385802 -0.948664 0.284024 58.000000
3.382876 -0.959047 0.284024 62.000000
3.383753 -0.970520 0.284306 66.000000
3.380760 -0.980896 0.284306 63.000000
3.377735 -0.991264 0.284306 66.000000
3.379459 -1.003039 0.284659 75.000000
3.376366 -1.013403 0.284659 88.000000
3.373241 -1.023757 0.284659 76.000000
3.368177 -1.033516 0.284518 80.000000
3.362132 -1.042959 0.284306 78.000000
3.358917 -1.053269 0.284306 87.000000
3.352816 -1.062666 0.284094 90.000000
3.346690 -1.072035 0.283883 84.000000
3.343385 -1.082298 0.283883 61.000000
3.342894 -1.093479 0.284094 59.000000
3.343312 -1.104981 0.284377 69.000000
3.344638 -1.116811 0.284730 77.000000
3.344031 -1.128022 0.284942 62.000000
3.345277 -1.139884 0.285295 79.000000
3.342707 -1.150466 0.285366 57.000000
3.338219 -1.160388 0.285295 44.000000
3.337467 -1.171615 0.285507 54.000000
3.331977 -1.181182 0.285366 69.000000
3.322701 -1.189384 0.284942 56.000000
3.316222 -1.198556 0.284730 43.000000
3.313467 -1.209066 0.284801 48.000000
3.307870 -1.218537 0.284659 48.000000
3.305051 -1.229027 0.284730 50.000000
3.304067 -1.240212 0.284942 44.000000
3.303045 -1.251402 0.285154 43.000000
3.307577 -1.264733 0.285789 53.000000
3.302750 -1.274516 0.285719 64.000000
3.296965 -1.283919 0.285578 57.000000
3.293010 -1.294028 0.285578 58.000000
3.291807 -1.305227 0.285789 43.000000
3.285935 -1.314579 0.285648 51.000000
3.283736 -1.325401 0.285789 41.000000
3.274111 -1.333213 0.285366 48.000000
3.274620 -1.345145 0.285719 48.000000
3.265869 -1.353278 0.285366 60.000000
3.261702 -1.363291 0.285366 48.000000
3.259343 -1.374066 0.285507 36.000000
3.256030 -1.384449 0.285578 41.000000
3.253601 -1.395217 0.285719 44.000000
3.254799 -1.407566 0.286143 53.000000
3.252294 -1.418342 0.286284 50.000000
3.252494 -1.430320 0.286637 49.000000
3.250826 -1.441504 0.286849 41.000000
3.249121 -1.452691 0.287061 55.000000
3.244649 -1.462652 0.287061 46.000000
3.244688 -1.474662 0.287414 52.000000
3.238334 -1.483779 0.287273 48.000000
3.231049 -1.492453 0.287061 57.000000
3.230073 -1.504042 0.287343 51.000000
3.224540 -1.513521 0.287273 44.000000
3.218078 -1.522554 0.287131 37.000000
3.217895 -1.534565 0.287485 31.000000
3.213171 -1.544430 0.287485 42.000000
3.210214 -1.555150 0.287626 33.000000
3.214393 -1.569365 0.288332 27.000000
3.480328 -0.724852 0.242109 24.000000
3.472228 -0.734286 0.241760 40.000000
3.469958 -0.744935 0.241760 54.000000
3.470583 -0.756215 0.241935 61.000000
3.469221 -0.767075 0.241993 24.000000
3.461007 -0.776403 0.241644 53.000000
3.458609 -0.787017 0.241644 51.000000
3.456178 -0.797625 0.241644 49.000000
3.454687 -0.808452 0.241702 30.000000
3.430258 -0.858439 0.241005 60.000000
3.423738 -0.867977 0.240773 46.000000
3.426860 -0.879968 0.241121 63.000000
3.425110 -0.890728 0.241179 68.000000
3.422362 -0.901232 0.241179 77.000000
3.418616 -0.911470 0.241121 83.000000
3.414840 -0.921694 0.241063 71.000000
3.407181 -0.930850 0.240773 92.000000
3.398536 -0.939702 0.240424 77.000000
3.390830 -0.948778 0.240134 86.000000
3.384062 -0.958089 0.239901 84.000000
3.381106 -0.968466 0.239901 88.000000
3.381954 -0.979947 0.240134 75.000000
3.370630 -1.021664 0.240192 85.000000
3.365571 -1.031415 0.240076 90.000000
3.360483 -1.041145 0.239960 88.000000
3.356320 -1.051151 0.239901 104.000000
3.353080 -1.061443 0.239901 88.000000
3.352660 -1.072638 0.240076 89.000000
3.350303 -1.083226 0.240134 109.000000
3.349811 -1.094430 0.240308 82.000000
3.348333 -1.105328 0.240424 90.000000
3.348715 -1.116859 0.240657 89.000000
3.344326 -1.126809 0.240599 87.000000
3.340853 -1.137064 0.240599 81.000000
3.343014 -1.149256 0.240947 52.000000
3.336643 -1.158524 0.240773 60.000000
3.333073 -1.168755 0.240773 80.000000
3.329472 -1.178976 0.240773 66.000000
3.323959 -1.188512 0.240657 61.000000
3.324992 -1.200400 0.240947 56.000000
3.324107 -1.211621 0.241121 59.000000
3.316627 -1.220434 0.240889 52.000000
3.313803 -1.230952 0.240947 48.000000
3.313750 -1.242515 0.241179 47.000000
3.309922 -1.252675 0.241179 45.000000
3.306996 -1.263181 0.241237 63.000000
3.303105 -1.273320 0.241237 42.000000
3.294531 -1.281638 0.240947 54.000000
3.291513 -1.292104 0.241005 71.000000
3.292174 -1.304035 0.241296 46.000000
3.284450 -1.312647 0.241063 68.000000
3.281333 -1.323091 0.241121 55.000000
3.277258 -1.333151 0.241121 54.000000
3.273153 -1.343199 0.241121 55.000000
3.269939 -1.353617 0.241179 42.000000
3.265770 -1.363643 0.241179 40.000000
3.262491 -1.374043 0.241237 47.000000
3.263773 -1.386388 0.241586 52.000000
3.259505 -1.396395 0.241586 48.000000
3.256122 -1.406784 0.241644 49.000000
3.251791 -1.416767 0.241644 41.000000
3.250170 -1.427942 0.241818 57.000000
3.248512 -1.439120 0.241993 46.000000
3.246816 -1.450302 0.242167 56.000000
3.244172 -1.461076 0.242283 58.000000
3.245128 -1.473499 0.242632 49.000000
3.243315 -1.484695 0.242806 42.000000
3.239651 -1.495057 0.242864 40.000000
3.237765 -1.506252 0.243038 48.000000
3.237647 -1.518298 0.243329 36.000000
3.233876 -1.528651 0.243387 62.000000
3.238183 -1.542860 0.243968 37.000000
3.238834 -1.555381 0.244316 43.000000
3.232250 -1.564440 0.244200 34.000000
3.237304 -1.579165 0.244839 39.000000
3.227965 -1.586887 0.244548 22.000000
3.199824 -1.585257 0.243038 6.000000
3.495449 -0.741101 0.200831 17.000000
3.484369 -0.749933 0.200415 23.000000
3.451796 -0.754021 0.198981 42.000000
3.443615 -0.763312 0.198704 64.000000
3.447104 -0.775186 0.198981 46.000000
3.443736 -0.785536 0.198935 35.000000
3.440337 -0.795873 0.198889 60.000000
3.437879 -0.806424 0.198889 51.000000
3.438304 -0.817660 0.199028 51.000000
3.430924 -0.827036 0.198797 49.000000
3.429341 -0.837795 0.198843 83.000000
3.426754 -0.848312 0.198843 88.000000
3.423166 -0.858578 0.198797 75.000000
3.422453 -0.869568 0.198889 87.000000
3.419769 -0.880064 0.198889 85.000000
3.417053 -0.890551 0.198889 76.000000
3.415271 -0.901285 0.198935 72.000000
3.412489 -0.911758 0.198935 100.000000
3.410640 -0.922484 0.198981 88.000000
3.404903 -0.932153 0.198843 92.000000
3.401065 -0.942328 0.198797 91.000000
3.395272 -0.951950 0.198658 113.000000
3.388491 -0.961273 0.198473 136.000000
3.379764 -0.970013 0.198195 160.000000
3.374854 -0.979821 0.198103 189.000000
3.375666 -0.991295 0.198288 214.000000
3.372609 -1.001646 0.198288 210.000000
3.370477 -1.012276 0.198334 216.000000
3.368311 -1.022901 0.198380 204.000000
3.363247 -1.032645 0.198288 186.000000
3.364834 -1.044437 0.198519 153.000000
3.359707 -1.054158 0.198427 157.000000
3.360267 -1.065667 0.198612 140.000000
3.358884 -1.076580 0.198704 105.000000
3.354615 -1.086573 0.198658 110.000000
3.352215 -1.097170 0.198704 103.000000
3.347885 -1.107136 0.198658 91.000000
3.344472 -1.117401 0.198658 113.000000
3.340082 -1.127338 0.198612 97.000000
3.336607 -1.137580 0.198612 99.000000
3.331213 -1.147161 0.198519 93.000000
3.329565 -1.158031 0.198612 115.000000
3.328824 -1.169233 0.198750 86.000000
3.323338 -1.178773 0.198658 62.000000
3.323468 -1.190309 0.198843 66.000000
3.319801 -1.200500 0.198843 67.000000
3.319856 -1.212049 0.199028 45.000000
3.315184 -1.221883 0.198981 49.000000
3.308611 -1.231004 0.198843 51.000000
3.306689 -1.241851 0.198935 48.000000
3.302864 -1.251989 0.198935 49.000000
3.297141 -1.261403 0.198843 46.000000
3.297915 -1.273310 0.199074 36.000000
3.287477 -1.280886 0.198750 52.000000
3.282602 -1.290600 0.198704 57.000000
3.281413 -1.301769 0.198843 49.000000
3.275549 -1.311089 0.198750 39.000000
3.273364 -1.321879 0.198843 44.000000
3.267443 -1.331162 0.198750 53.000000
3.265191 -1.341939 0.198843 56.000000
3.267519 -1.354626 0.199166 58.000000
3.270722 -1.367725 0.199536 58.000000
3.267431 -1.378141 0.199583 49.000000
3.268704 -1.390503 0.199860 44.000000
3.263504 -1.400131 0.199814 39.000000
3.264694 -1.412516 0.200091 53.000000
3.258514 -1.421726 0.199999 53.000000
3.251394 -1.430511 0.199860 44.000000
3.249730 -1.441693 0.199999 44.000000
3.245291 -1.451657 0.199999 55.000000
3.240822 -1.461606 0.199999 42.000000
3.244508 -1.475261 0.200415 31.000000
3.237242 -1.483960 0.200276 47.000000
3.239930 -1.497235 0.200646 42.000000
3.236227 -1.507589 0.200692 37.000000
3.231586 -1.517511 0.200692 36.000000
3.232333 -1.529980 0.200970 39.000000
3.233035 -1.542469 0.201247 37.000000
3.226486 -1.551515 0.201155 31.000000
3.150685 -1.527012 0.197502 7.000000
3.456735 -0.753825 0.155484 39.000000
3.456357 -0.764859 0.155552 38.000000
3.457895 -0.776335 0.155687 30.000000
3.453548 -0.786496 0.155620 45.000000
3.453067 -0.797538 0.155687 43.000000
3.447685 -0.807444 0.155586 47.000000
3.425199 -0.857805 0.155247 83.000000
3.429332 -0.870030 0.155484 67.000000
3.424711 -0.880050 0.155417 87.000000
3.421027 -0.890300 0.155383 77.000000
3.425045 -0.902575 0.155620 105.000000
3.420328 -0.912564 0.155552 120.000000
3.413653 -0.922010 0.155417 160.000000
3.404060 -0.930633 0.155180 175.000000
3.405042 -0.942138 0.155315 197.000000
3.402135 -0.952580 0.155315 253.000000
3.400158 -0.963286 0.155349 209.000000
3.397187 -0.973713 0.155349 241.000000
3.397063 -0.984966 0.155450 215.000000
3.386897 -1.015903 0.155417 270.000000
3.383764 -1.026289 0.155417 250.000000
3.377733 -1.035786 0.155315 250.000000
3.372630 -1.045552 0.155247 268.000000
3.368453 -1.055595 0.155213 279.000000
3.363293 -1.065321 0.155146 285.000000
3.360961 -1.075939 0.155180 259.000000
3.364300 -1.088399 0.155417 208.000000
3.361895 -1.099026 0.155450 156.000000
3.358508 -1.109335 0.155450 118.000000
3.354141 -1.119317 0.155417 117.000000
3.348796 -1.128964 0.155349 102.000000
3.343425 -1.138588 0.155281 97.000000
3.338971 -1.148515 0.155247 114.000000
3.335432 -1.158753 0.155247 91.000000
3.329032 -1.167988 0.155146 105.000000
3.323549 -1.177528 0.155078 98.000000
3.319921 -1.187719 0.155078 87.000000
3.315321 -1.197559 0.155044 92.000000
3.309754 -1.207039 0.154976 73.000000
3.308849 -1.218224 0.155078 46.000000
3.305096 -1.228370 0.155078 59.000000
3.301311 -1.238504 0.155078 35.000000
3.305908 -1.251813 0.155383 63.000000
3.305786 -1.263376 0.155518 68.000000
3.305624 -1.274952 0.155654 45.000000
3.298903 -1.283999 0.155552 51.000000
3.295878 -1.294480 0.155586 43.000000
3.291892 -1.304585 0.155586 53.000000
3.286018 -1.313936 0.155518 42.000000
3.284752 -1.325133 0.155620 39.000000
3.277894 -1.334074 0.155518 51.000000
3.276559 -1.345263 0.155620 60.000000
3.276110 -1.356839 0.155755 68.000000
3.273776 -1.367655 0.155823 42.000000
3.271406 -1.378468 0.155890 36.000000
3.269922 -1.389671 0.155992 43.000000
3.268398 -1.400878 0.156094 47.000000
3.270506 -1.413676 0.156331 53.000000
3.267070 -1.424102 0.156364 42.000000
3.261770 -1.433716 0.156331 43.000000
3.261011 -1.445337 0.156466 39.000000
3.256562 -1.455335 0.156466 43.000000
3.248437 -1.463676 0.156331 58.000000
3.245751 -1.474462 0.156398 39.000000
3.242121 -1.484829 0.156432 41.000000
3.243901 -1.497702 0.156669 29.000000
3.241103 -1.508491 0.156737 50.000000
3.236460 -1.518428 0.156737 40.000000
3.231786 -1.528350 0.156737 39.000000
3.231593 -1.540408 0.156906 34.000000
3.229554 -1.551614 0.157008 20.000000
3.224779 -1.561515 0.157008 12.000000
3.487530 -0.749344 0.113051 10.000000
3.461770 -0.754936 0.112532 25.000000
3.462366 -0.766200 0.112596 28.000000
3.451219 -0.774850 0.112402 41.000000
3.448825 -0.785435 0.112402 41.000000
3.446399 -0.796012 0.112402 48.000000
3.438100 -0.805216 0.112272 45.000000
3.439505 -0.816682 0.112358 46.000000
3.433095 -0.826296 0.112272 49.000000
3.424715 -0.835405 0.112142 66.000000
3.421165 -0.845669 0.112120 75.000000
3.414675 -0.855190 0.112034 78.000000
3.413005 -0.865908 0.112055 108.000000
3.416142 -0.877866 0.112185 128.000000
3.417304 -0.889348 0.112272 152.000000
3.413592 -0.899574 0.112250 188.000000
3.410816 -0.910042 0.112250 172.000000
3.408008 -0.920502 0.112250 191.000000
3.406133 -0.931217 0.112272 219.000000
3.403260 -0.941662 0.112272 180.000000
3.399392 -0.951830 0.112250 174.000000
3.393570 -0.961438 0.112185 187.000000
3.384837 -0.970194 0.112055 240.000000
3.394329 -0.984189 0.112337 355.000000
3.387455 -0.993474 0.112250 395.000000
3.377681 -1.001874 0.112099 467.000000
3.376507 -1.012806 0.112142 400.000000
3.381995 -1.025769 0.112337 315.000000
3.373097 -1.034383 0.112207 265.000000
3.369908 -1.044726 0.112207 223.000000
3.365732 -1.054762 0.112185 223.000000
3.363434 -1.065384 0.112207 220.000000
3.359197 -1.075394 0.112185 222.000000
3.357785 -1.086309 0.112229 273.000000
3.354436 -1.096606 0.112229 290.000000
3.355803 -1.108458 0.112337 228.000000
3.359974 -1.121278 0.112510 189.000000
3.346096 -1.128071 0.112272 126.000000
3.341673 -1.138009 0.112250 126.000000
3.335330 -1.147281 0.112185 111.000000
3.333683 -1.158164 0.112229 96.000000
3.332001 -1.169047 0.112272 88.000000
3.328399 -1.179265 0.112272 108.000000
3.321941 -1.188461 0.112207 100.000000
3.318279 -1.198647 0.112207 83.000000
3.310829 -1.207453 0.112120 61.000000
3.310862 -1.218985 0.112207 78.000000
3.315542 -1.232269 0.112402 41.000000
3.308001 -1.241031 0.112315 49.000000
3.306983 -1.252235 0.112380 58.000000
3.306862 -1.263802 0.112467 43.000000
3.302969 -1.273941 0.112467 53.000000
3.299045 -1.284068 0.112467 47.000000
3.293229 -1.293453 0.112423 42.000000
3.292034 -1.304655 0.112488 44.000000
3.288944 -1.315119 0.112510 41.000000
3.284894 -1.325204 0.112510 48.000000
3.280813 -1.335275 0.112510 56.000000
3.275776 -1.344955 0.112488 42.000000
3.273482 -1.355763 0.112532 44.000000
3.269307 -1.365800 0.112532 40.000000
3.262337 -1.374659 0.112467 38.000000
3.259945 -1.385443 0.112510 56.000000
3.251084 -1.393470 0.112402 40.000000
3.246793 -1.403438 0.112402 58.000000
3.247055 -1.415388 0.112510 40.000000
3.244528 -1.426147 0.112553 54.000000
3.244709 -1.438119 0.112661 58.000000
3.244846 -1.450105 0.112770 51.000000
3.241293 -1.460463 0.112791 57.000000
3.239528 -1.471640 0.112856 50.000000
3.235907 -1.481988 0.112878 49.000000
3.228622 -1.490652 0.112813 51.000000
3.223127 -1.500129 0.112791 37.000000
3.220320 -1.510859 0.112834 64.000000
3.219285 -1.522440 0.112921 36.000000
3.215502 -1.532740 0.112943 35.000000
3.212587 -1.543463 0.112986 35.000000
3.223136 -1.560714 0.113354 15.000000
3.449637 -0.752905 0.068696 32.000000
3.445359 -0.763052 0.068677 27.000000
3.440075 -0.772960 0.068650 38.000000
3.438662 -0.783733 0.068659 42.000000
3.435267 -0.794054 0.068650 59.000000
3.429894 -0.803904 0.068622 53.000000
3.418130 -0.856665 0.068631 109.000000
3.423239 -0.869117 0.068705 153.000000
3.420556 -0.879615 0.068705 150.000000
3.420744 -0.890862 0.068733 181.000000
3.417995 -0.901352 0.068733 225.000000
3.413281 -0.911318 0.068714 178.000000
3.409504 -0.921524 0.068705 201.000000
3.406661 -0.931980 0.068705 179.000000
3.403786 -0.942427 0.068705 182.000000
3.400878 -0.952866 0.068705 209.000000
3.393129 -0.961931 0.068659 316.000000
3.418997 -0.980610 0.068936 876.000000
3.418854 -0.991931 0.068964 1340.000000
3.448416 -1.011992 0.069279 2031.000000
3.454881 -1.025413 0.069371 2312.000000
3.441184 -1.032845 0.069269 1911.000000
3.388244 -1.028291 0.068788 1221.000000
3.368822 -1.033693 0.068631 501.000000
3.382826 -1.049358 0.068798 235.000000
3.378636 -1.059432 0.068788 190.000000
3.375370 -1.069793 0.068788 193.000000
3.371120 -1.079838 0.068779 257.000000
3.367791 -1.090175 0.068779 279.000000
3.362530 -1.099880 0.068761 296.000000
3.360089 -1.110505 0.068770 257.000000
3.360460 -1.122076 0.068807 197.000000
3.352264 -1.130782 0.068761 154.000000
3.344993 -1.139771 0.068724 141.000000
3.342426 -1.150353 0.068733 115.000000
3.340770 -1.161259 0.068751 88.000000
3.337192 -1.171503 0.068751 113.000000
3.334525 -1.182070 0.068761 115.000000
3.330882 -1.192294 0.068761 109.000000
3.327209 -1.202508 0.068761 114.000000
3.325383 -1.213396 0.068779 99.000000
3.316953 -1.221863 0.068733 117.000000
3.324435 -1.236217 0.068844 52.000000
3.318755 -1.245708 0.068825 39.000000
3.305567 -1.252340 0.068733 57.000000
3.303577 -1.263190 0.068751 67.000000
3.298753 -1.272959 0.068742 45.000000
3.290173 -1.281259 0.068696 57.000000
3.289950 -1.292810 0.068733 49.000000
3.283179 -1.301791 0.068705 55.000000
3.282883 -1.313344 0.068742 48.000000
3.282548 -1.324907 0.068779 49.000000
3.277541 -1.334594 0.068770 43.000000
3.278056 -1.346544 0.068816 64.000000
3.273910 -1.356594 0.068816 57.000000
3.268810 -1.366246 0.068807 53.000000
3.270131 -1.378600 0.068862 53.000000
3.265886 -1.388626 0.068862 55.000000
3.259773 -1.397851 0.068844 64.000000
3.260057 -1.409830 0.068890 54.000000
3.259383 -1.421424 0.068927 43.000000
3.259583 -1.433431 0.068973 49.000000
3.260655 -1.445857 0.069029 41.000000
3.252552 -1.454220 0.068992 40.000000
3.252633 -1.466247 0.069038 37.000000
3.248120 -1.476220 0.069038 43.000000
3.241757 -1.485344 0.069020 51.000000
3.236277 -1.494864 0.069010 52.000000
3.230769 -1.504363 0.069001 38.000000
3.226139 -1.514268 0.069001 50.000000
3.227805 -1.527153 0.069066 45.000000
3.221299 -1.536187 0.069047 35.000000
3.223781 -1.549529 0.069121 28.000000
3.227111 -1.563337 0.069205 21.000000
3.245661 -1.584639 0.069445 7.000000
3.484054 -0.759788 0.024407 19.000000
3.471942 -0.768316 0.024440 23.000000
3.457859 -0.776339 0.024480 38.000000
3.449611 -0.785613 0.024500 48.000000
3.443286 -0.795294 0.024513 49.000000
3.443752 -0.806537 0.024503 35.000000
3.435423 -0.815715 0.024523 44.000000
3.433877 -0.826484 0.024520 64.000000
3.431324 -0.837015 0.024520 75.000000
3.431653 -0.848257 0.024510 61.000000
3.430005 -0.859024 0.024507 80.000000
3.429292 -0.870034 0.024500 81.000000
3.430481 -0.881546 0.024487 74.000000
3.420985 -0.890305 0.024510 100.000000
3.415337 -0.900033 0.024520 144.000000
3.412559 -0.910507 0.024520 123.000000
3.409750 -0.920972 0.024520 144.000000
3.408838 -0.931956 0.024513 143.000000
3.406926 -0.942676 0.024510 153.000000
3.404981 -0.953393 0.024507 167.000000
3.403965 -0.964379 0.024500 156.000000
3.400990 -0.974818 0.024500 154.000000
3.397983 -0.985247 0.024500 173.000000
3.394944 -0.995668 0.024500 171.000000
3.393791 -1.006647 0.024493 193.000000
3.391645 -1.017341 0.024490 156.000000
3.389465 -1.028031 0.024487 183.000000
3.388207 -1.039011 0.024480 172.000000
3.383093 -1.048809 0.024487 188.000000
3.377951 -1.058586 0.024493 186.000000
3.373734 -1.068643 0.024497 176.000000
3.370440 -1.078988 0.024497 187.000000
3.366162 -1.089016 0.024500 218.000000
3.369459 -1.101511 0.024477 178.000000
3.358467 -1.109337 0.024503 136.000000
3.345561 -1.116473 0.024536 111.000000
3.337381 -1.125136 0.024553 89.000000
3.334861 -1.135692 0.024550 76.000000
3.334198 -1.146892 0.024540 95.000000
3.333498 -1.158100 0.024530 77.000000
3.328985 -1.167990 0.024533 79.000000
3.324443 -1.177864 0.024536 71.000000
3.322697 -1.188731 0.024530 62.000000
3.321857 -1.199938 0.024520 75.000000
3.320039 -1.210808 0.024513 72.000000
3.316308 -1.220988 0.024513 68.000000
3.314422 -1.231853 0.024507 67.000000
3.319054 -1.245174 0.024477 45.000000
3.308672 -1.252874 0.024500 62.000000
3.314155 -1.266586 0.024467 42.000000
3.304654 -1.274590 0.024487 31.000000
3.305389 -1.286535 0.024470 46.000000
3.297702 -1.295209 0.024483 40.000000
3.291854 -1.304584 0.024490 46.000000
3.293408 -1.316902 0.024470 60.000000
3.293989 -1.328869 0.024454 43.000000
3.289897 -1.338969 0.024454 49.000000
3.286699 -1.349435 0.024450 43.000000
3.283467 -1.359895 0.024447 41.000000
3.283894 -1.371888 0.024430 51.000000
3.276905 -1.380792 0.024440 38.000000
3.272653 -1.390839 0.024440 64.000000
3.264693 -1.399298 0.024454 49.000000
3.259467 -1.408911 0.024457 32.000000
3.260630 -1.421300 0.024437 44.000000
3.257170 -1.431699 0.024434 51.000000
3.256420 -1.443305 0.024420 57.000000
3.250150 -1.452473 0.024427 58.000000
3.247503 -1.463259 0.024420 44.000000
3.246640 -1.474868 0.024407 44.000000
3.240282 -1.483990 0.024414 55.000000
3.232989 -1.492667 0.024424 44.000000
3.226581 -1.501735 0.024430 33.000000
3.224675 -1.512901 0.024420 51.000000
3.228156 -1.526632 0.024391 21.000000
3.218040 -1.533948 0.024410 30.000000
3.225039 -1.549440 0.024367 25.000000
3.222070 -1.560198 0.024361 19.000000
3.459992 -0.765033 -0.019238 40.000000
3.457628 -0.775644 -0.019238 31.000000
3.455232 -0.786249 -0.019238 40.000000
3.446959 -0.795496 -0.019144 45.000000
3.443528 -0.805839 -0.019129 50.000000
3.423972 -0.856865 -0.019019 64.000000
3.426173 -0.868595 -0.019097 72.000000
3.420588 -0.878356 -0.019050 65.000000
3.417876 -0.888846 -0.019050 85.000000
3.412233 -0.898564 -0.019003 65.000000
3.411392 -0.909543 -0.019034 89.000000
3.418239 -0.922612 -0.019191 101.000000
3.420215 -0.934412 -0.019270 113.000000
3.419259 -0.945434 -0.019301 139.000000
3.419231 -0.956728 -0.019348 121.000000
3.417242 -0.967487 -0.019364 126.000000
3.416180 -0.978517 -0.019396 137.000000
3.418924 -0.990663 -0.019490 333.000000
3.411071 -0.999741 -0.019411 1173.000000
3.415657 -1.012475 -0.019537 1245.000000
3.417323 -1.024386 -0.019615 1356.000000
3.372063 -1.022099 -0.018924 864.000000
3.380383 -1.035956 -0.019113 344.000000
3.370503 -1.044250 -0.019003 157.000000
3.367283 -1.054586 -0.019003 164.000000
3.360219 -1.063704 -0.018940 131.000000
3.360749 -1.075227 -0.019003 108.000000
3.353629 -1.084302 -0.018940 97.000000
3.355989 -1.096449 -0.019034 72.000000
3.347862 -1.105173 -0.018956 69.000000
3.342559 -1.114806 -0.018924 79.000000
3.336281 -1.124097 -0.018877 54.000000
3.332816 -1.134327 -0.018877 54.000000
3.334994 -1.146498 -0.018971 62.000000
3.334294 -1.157708 -0.019019 63.000000
3.329783 -1.167601 -0.019003 66.000000
3.331840 -1.179815 -0.019097 55.000000
3.331029 -1.191041 -0.019144 62.000000
3.327359 -1.201255 -0.019144 62.000000
3.328355 -1.213170 -0.019223 39.000000
3.327433 -1.224412 -0.019270 56.000000
3.327410 -1.236008 -0.019333 50.000000
3.326411 -1.247264 -0.019380 47.000000
3.316958 -1.255339 -0.019286 38.000000
3.316827 -1.266937 -0.019348 49.000000
3.316656 -1.278546 -0.019411 65.000000
3.314582 -1.289441 -0.019443 38.000000
3.311541 -1.299969 -0.019458 57.000000
3.308466 -1.310491 -0.019474 45.000000
3.307216 -1.321748 -0.019521 43.000000
3.300363 -1.330766 -0.019474 38.000000
3.299043 -1.342016 -0.019521 52.000000
3.289361 -1.349853 -0.019427 51.000000
3.283356 -1.359173 -0.019396 41.000000
3.281016 -1.370011 -0.019427 48.000000
3.277719 -1.380459 -0.019443 52.000000
3.272548 -1.390117 -0.019427 48.000000
3.267349 -1.399756 -0.019411 45.000000
3.263039 -1.409774 -0.019411 44.000000
3.257782 -1.419379 -0.019396 42.000000
3.253412 -1.429367 -0.019396 58.000000
3.249926 -1.439746 -0.019411 47.000000
3.243668 -1.448895 -0.019380 52.000000
3.243766 -1.460893 -0.019458 40.000000
3.242910 -1.472492 -0.019521 43.000000
3.236559 -1.481601 -0.019490 30.000000
3.233814 -1.492362 -0.019521 36.000000
3.231940 -1.503541 -0.019568 41.000000
3.230027 -1.514724 -0.019615 39.000000
3.226269 -1.525054 -0.019631 45.000000
3.227893 -1.537956 -0.019741 29.000000
3.220456 -1.546553 -0.019694 32.000000
3.217495 -1.557297 -0.019725 36.000000
3.232472 -1.576807 -0.020071 8.000000
3.438420 -0.760909 -0.061135 42.000000
3.436069 -0.771454 -0.061135 42.000000
3.438560 -0.783101 -0.061273 35.000000
3.438089 -0.794095 -0.061329 46.000000
3.434664 -0.804412 -0.061301 39.000000
3.437043 -0.816099 -0.061440 39.000000
3.432579 -0.826172 -0.061384 38.000000
3.431971 -0.837173 -0.061440 48.000000
3.439091 -0.850093 -0.061717 43.000000
3.431618 -0.859428 -0.061579 42.000000
3.427996 -0.869706 -0.061551 32.000000
3.415629 -0.877734 -0.061273 50.000000
3.423563 -0.890975 -0.061579 43.000000
3.422746 -0.901983 -0.061634 43.000000
3.417065 -0.911707 -0.061551 45.000000
3.410392 -0.921145 -0.061440 25.000000
3.411407 -0.932657 -0.061551 32.000000
3.408529 -0.943119 -0.061551 43.000000
3.407545 -0.954110 -0.061606 46.000000
3.395945 -0.962110 -0.061357 28.000000
3.411237 -0.977751 -0.061884 27.000000
3.420703 -0.991827 -0.062245 36.000000
3.417644 -1.002317 -0.062245 45.000000
3.430846 -1.017624 -0.062716 36.000000
3.436327 -1.030727 -0.062966 32.000000
3.423581 -1.038367 -0.062689 40.000000
3.418468 -1.048280 -0.062633 49.000000
3.423830 -1.061424 -0.062883 40.000000
3.412925 -1.069534 -0.062661 39.000000
3.408675 -1.079698 -0.062633 30.000000
3.408203 -1.091064 -0.062716 57.000000
3.401986 -1.100593 -0.062633 40.000000
3.400494 -1.111645 -0.062689 52.000000
3.389473 -1.119567 -0.062467 43.000000
3.386023 -1.129961 -0.062467 45.000000
3.379698 -1.139386 -0.062383 53.000000
3.377133 -1.150072 -0.062411 37.000000
3.370752 -1.159453 -0.062328 50.000000
3.373790 -1.172083 -0.062522 42.000000
3.368291 -1.181767 -0.062467 60.000000
3.367477 -1.193095 -0.062550 39.000000
3.364742 -1.203757 -0.062578 44.000000
3.357272 -1.212717 -0.062467 50.000000
3.356354 -1.224038 -0.062550 38.000000
3.360088 -1.237090 -0.062772 36.000000
3.357213 -1.247741 -0.062800 47.000000
3.369282 -1.263999 -0.063271 39.000000
3.374738 -1.277866 -0.063549 41.000000
3.383876 -1.293205 -0.063937 34.000000
3.384556 -1.305378 -0.064076 30.000000
3.376809 -1.314306 -0.063965 37.000000
3.403469 -1.336709 -0.064881 22.000000
3.370540 -1.335737 -0.064020 28.000000
3.352502 -1.340509 -0.063604 37.000000
3.353009 -1.352657 -0.063743 23.000000
3.335879 -1.357666 -0.063354 22.000000
3.560988 -1.079386 -0.113283 37.000000
3.568167 -1.093528 -0.113727 48.000000
3.555252 -1.101511 -0.113323 40.000000
3.557577 -1.114206 -0.113565 48.000000
3.548426 -1.123305 -0.113323 35.000000
3.534495 -1.130836 -0.112880 50.000000
3.525305 -1.139829 -0.112638 55.000000
3.516093 -1.148777 -0.112396 57.000000
3.507808 -1.157992 -0.112195 48.000000
3.502343 -1.168116 -0.112114 51.000000
3.494009 -1.177260 -0.111913 52.000000
3.490381 -1.187974 -0.111913 48.000000
3.486720 -1.198677 -0.111913 58.000000
3.483026 -1.209368 -0.111913 53.000000
3.479299 -1.220048 -0.111913 39.000000
3.476481 -1.231050 -0.111953 46.000000
3.471748 -1.241374 -0.111913 51.000000
3.468862 -1.252358 -0.111953 47.000000
3.466882 -1.263680 -0.112034 53.000000
3.464864 -1.275000 -0.112114 39.000000
3.470302 -1.289104 -0.112517 42.000000
3.477557 -1.303956 -0.113001 65.000000
3.484754 -1.318864 -0.113485 51.000000
3.493758 -1.334542 -0.114049 49.000000
3.501767 -1.349928 -0.114573 70.000000
3.506921 -1.364288 -0.114976 58.000000
3.511089 -1.378328 -0.115339 54.000000
3.511488 -1.390934 -0.115540 31.000000
3.509988 -1.402813 -0.115661 28.000000
3.577030 -1.074237 -0.158729 16.000000
3.573718 -1.085206 -0.158729 26.000000
3.567508 -1.095286 -0.158572 25.000000
3.565084 -1.106522 -0.158625 42.000000
3.559767 -1.116857 -0.158520 53.000000
3.545851 -1.124456 -0.157944 69.000000
3.549994 -1.137765 -0.158363 94.000000
3.528434 -1.142810 -0.157369 66.000000
3.519216 -1.151768 -0.157054 47.000000
3.504287 -1.158800 -0.156426 33.000000
3.500715 -1.169546 -0.156426 47.000000
3.490487 -1.178047 -0.156060 37.000000
3.486856 -1.188750 -0.156060 36.000000
3.481304 -1.198792 -0.155955 36.000000
3.476666 -1.209139 -0.155903 41.000000
3.477652 -1.221453 -0.156165 50.000000
3.472947 -1.231783 -0.156112 32.000000
3.471972 -1.243441 -0.156269 55.000000
3.470959 -1.255105 -0.156426 40.000000
3.466154 -1.265406 -0.156374 36.000000
3.464129 -1.276724 -0.156479 51.000000
3.466749 -1.289781 -0.156845 53.000000
3.466515 -1.301814 -0.157054 26.000000
3.473712 -1.316687 -0.157683 64.000000
3.480850 -1.331616 -0.158311 63.000000
3.487929 -1.346602 -0.158939 45.000000
3.494018 -1.361281 -0.159514 40.000000
3.500050 -1.376010 -0.160090 41.000000
3.500453 -1.388581 -0.160352 41.000000
3.493395 -1.398202 -0.160195 23.000000
3.552615 -1.076847 -0.203505 35.000000
3.553111 -1.088911 -0.203764 42.000000
3.548800 -1.099512 -0.203699 41.000000
3.547314 -1.110991 -0.203829 42.000000
3.537230 -1.119760 -0.203376 58.000000
3.528075 -1.128781 -0.202988 55.000000
3.519848 -1.138064 -0.202664 55.000000
3.511598 -1.147308 -0.202341 62.000000
3.509956 -1.158702 -0.202470 78.000000
3.501652 -1.167885 -0.202147 57.000000
3.495215 -1.177667 -0.201952 57.000000
3.489697 -1.187741 -0.201823 56.000000
3.486036 -1.198442 -0.201823 53.000000
3.484228 -1.209786 -0.201952 72.000000
3.484267 -1.221791 -0.202211 88.000000
3.479562 -1.232141 -0.202147 39.000000
3.482342 -1.245163 -0.202599 45.000000
3.481322 -1.256858 -0.202794 40.000000
3.483075 -1.269584 -0.203182 46.000000
3.481036 -1.280953 -0.203311 46.000000
3.473348 -1.290236 -0.203052 40.000000
3.461899 -1.298083 -0.202535 78.000000
3.461633 -1.310111 -0.202794 58.000000
3.462258 -1.322506 -0.203117 45.000000
3.460978 -1.334199 -0.203311 62.000000
3.465238 -1.348068 -0.203894 43.000000
3.473161 -1.363434 -0.204735 43.000000
3.476383 -1.377024 -0.205252 42.000000
3.476775 -1.389535 -0.205576 34.000000
3.471570 -1.399822 -0.205511 28.000000
3.493140 -1.420997 -0.207323 11.000000
3.571453 -1.072564 -0.248888 18.000000
3.553834 -1.079175 -0.247740 32.000000
3.548600 -1.089488 -0.247587 24.000000
3.535717 -1.097417 -0.246822 39.000000
3.528528 -1.107067 -0.246516 43.000000
3.516560 -1.115177 -0.245827 36.000000
3.512173 -1.125656 -0.245750 41.000000
3.509652 -1.136733 -0.245827 49.000000
3.505200 -1.147185 -0.245750 56.000000
3.500717 -1.157621 -0.245674 49.000000
3.495258 -1.167724 -0.245520 50.000000
3.491658 -1.178442 -0.245520 41.000000
3.488027 -1.189149 -0.245520 53.000000
3.481534 -1.198871 -0.245291 56.000000
3.475013 -1.208565 -0.245061 53.000000
3.470348 -1.218891 -0.244985 54.000000
3.471292 -1.231197 -0.245367 40.000000
3.472192 -1.243520 -0.245750 45.000000
3.473049 -1.255860 -0.246133 49.000000
3.473864 -1.268218 -0.246516 45.000000
3.469021 -1.278525 -0.246439 39.000000
3.467886 -1.290204 -0.246669 77.000000
3.466712 -1.301888 -0.246898 101.000000
3.456174 -1.310046 -0.246362 45.000000
3.453070 -1.320999 -0.246439 54.000000
3.447141 -1.330869 -0.246286 54.000000
3.446758 -1.342885 -0.246592 34.000000
3.456542 -1.358921 -0.247740 40.000000
3.468115 -1.375764 -0.249042 25.000000
3.457397 -1.383807 -0.248506 38.000000
3.467930 -1.400376 -0.249730 31.000000
3.519027 -1.433562 -0.254323 12.000000
3.543785 -1.075515 -0.292280 23.000000
3.541420 -1.086674 -0.292369 34.000000
3.535216 -1.096648 -0.292103 58.000000
3.528033 -1.106297 -0.291748 38.000000
3.521774 -1.116212 -0.291482 48.000000
3.517385 -1.126707 -0.291393 50.000000
3.510121 -1.136266 -0.291038 60.000000
3.504725 -1.146410 -0.290861 56.000000
3.504029 -1.158095 -0.291127 43.000000
3.504238 -1.170102 -0.291482 46.000000
3.503463 -1.181803 -0.291748 45.000000
3.504535 -1.194152 -0.292192 46.000000
3.504622 -1.206196 -0.292546 48.000000
3.503727 -1.217923 -0.292813 43.000000
3.508432 -1.231637 -0.293611 113.000000
3.497127 -1.239732 -0.292901 38.000000
3.483930 -1.247097 -0.292014 33.000000
3.488518 -1.260828 -0.292813 73.000000
3.482762 -1.270841 -0.292635 58.000000
3.479781 -1.281865 -0.292724 75.000000
3.474899 -1.292187 -0.292635 57.000000
3.469053 -1.302142 -0.292458 61.000000
3.462247 -1.311720 -0.292192 61.000000
3.458207 -1.322335 -0.292192 60.000000
3.452275 -1.332221 -0.292014 53.000000
3.449100 -1.343168 -0.292103 49.000000
3.454233 -1.357387 -0.292990 37.000000
3.453756 -1.369447 -0.293345 43.000000
3.451388 -1.380777 -0.293522 40.000000
3.455448 -1.394716 -0.294321 36.000000
3.456687 -1.407565 -0.294853 16.000000
3.469857 -1.425356 -0.296539 6.000000
3.562827 -1.069301 -0.340719 23.000000
3.559530 -1.080227 -0.340719 36.000000
3.555248 -1.090851 -0.340617 28.000000
3.546183 -1.099986 -0.340010 37.000000
3.538994 -1.109671 -0.339605 39.000000
3.533676 -1.119923 -0.339403 38.000000
3.525486 -1.129243 -0.338897 44.000000
3.520112 -1.139441 -0.338694 37.000000
3.513762 -1.149309 -0.338390 45.000000
3.508330 -1.159459 -0.338188 34.000000
3.509475 -1.171791 -0.338694 33.000000
3.512463 -1.184777 -0.339403 35.000000
3.515404 -1.197791 -0.340111 41.000000
3.518299 -1.210835 -0.340820 42.000000
3.523966 -1.224886 -0.341832 37.000000
3.531457 -1.239643 -0.343047 43.000000
3.528575 -1.250803 -0.343148 162.000000
3.523784 -1.261288 -0.343047 75.000000
3.505862 -1.267025 -0.341529 40.000000
3.493546 -1.274708 -0.340617 44.000000
3.486818 -1.284390 -0.340314 39.000000
3.480063 -1.294042 -0.340010 55.000000
3.472351 -1.303315 -0.339605 73.000000
3.466475 -1.313258 -0.339403 51.000000
3.461500 -1.323531 -0.339301 60.000000
3.455567 -1.333429 -0.339099 39.000000
3.451459 -1.344024 -0.339099 41.000000
3.448246 -1.354971 -0.339200 43.000000
3.450547 -1.368108 -0.339909 33.000000
3.441715 -1.376842 -0.339403 42.000000
3.451315 -1.392975 -0.340921 19.000000
3.449790 -1.404682 -0.341225 17.000000
3.548550 -1.076288 -0.383861 20.000000
3.558530 -1.091249 -0.385443 37.000000
3.555165 -1.102162 -0.385443 61.000000
3.540390 -1.109497 -0.384087 49.000000
3.533181 -1.119153 -0.383635 52.000000
3.525945 -1.128775 -0.383182 53.000000
3.518685 -1.138363 -0.382730 53.000000
3.521786 -1.151315 -0.383522 49.000000
3.522954 -1.163673 -0.384087 43.000000
3.530678 -1.178251 -0.385443 57.000000
3.536461 -1.192253 -0.386573 36.000000
3.538429 -1.205019 -0.387252 42.000000
3.541293 -1.218132 -0.388043 51.000000
3.545985 -1.231927 -0.389060 37.000000
3.547814 -1.244774 -0.389738 40.000000
3.567391 -1.263951 -0.392564 142.000000
3.538239 -1.265850 -0.389512 66.000000
3.527797 -1.274336 -0.388721 37.000000
3.511737 -1.280726 -0.387252 62.000000
3.503129 -1.289777 -0.386686 50.000000
3.503813 -1.302250 -0.387252 32.000000
3.484917 -1.307407 -0.385443 62.000000
3.484606 -1.319501 -0.385895 36.000000
3.477757 -1.329121 -0.385556 47.000000
3.473663 -1.339784 -0.385556 59.000000
3.477869 -1.353679 -0.386573 52.000000
3.473700 -1.364343 -0.386573 40.000000
3.469498 -1.374993 -0.386573 46.000000
3.477256 -1.390428 -0.388043 29.000000
3.461917 -1.396628 -0.386686 43.000000
3.453935 -1.405744 -0.386234 13.000000
3.556850 -1.091342 -0.431839 21.000000
3.554433 -1.102542 -0.431964 22.000000
3.545353 -1.111663 -0.431212 33.000000
3.549493 -1.124930 -0.432215 35.000000
3.543190 -1.134907 -0.431839 44.000000
3.542523 -1.146688 -0.432215 61.000000
3.544647 -1.159400 -0.432967 53.000000
3.545784 -1.171824 -0.433593 46.000000
3.550642 -1.185522 -0.434721 45.000000
3.553570 -1.198628 -0.435599 40.000000
3.555511 -1.211442 -0.436351 58.000000
3.560221 -1.225248 -0.437479 32.000000
3.562069 -1.238117 -0.438231 42.000000
3.561062 -1.250024 -0.438607 50.000000
3.585267 -1.270879 -0.442367 115.000000
3.544918 -1.268845 -0.437479 55.000000
3.532610 -1.276682 -0.436351 42.000000
3.520287 -1.284456 -0.435223 36.000000
3.513537 -1.294222 -0.434847 49.000000
3.503040 -1.302577 -0.433969 35.000000
3.496240 -1.312273 -0.433593 40.000000
3.490342 -1.322291 -0.433343 49.000000
3.484415 -1.332285 -0.433092 78.000000
3.479385 -1.342612 -0.432967 52.000000
3.478024 -1.354359 -0.433343 49.000000
3.474776 -1.365386 -0.433468 47.000000
3.471493 -1.376405 -0.433593 41.000000
3.470939 -1.388522 -0.434095 22.000000
3.473104 -1.401761 -0.434972 23.000000
3.588089 -1.111005 -0.482837 35.000000
3.576156 -1.119345 -0.481600 57.000000
3.577427 -1.131805 -0.482287 36.000000
3.569221 -1.141266 -0.481600 45.000000
3.564760 -1.151907 -0.481463 58.000000
3.563093 -1.163453 -0.481738 44.000000
3.562328 -1.175310 -0.482150 50.000000
3.563404 -1.187800 -0.482837 50.000000
3.562559 -1.199676 -0.483250 49.000000
3.568239 -1.213791 -0.484624 36.000000
3.574802 -1.228274 -0.486136 34.000000
3.577567 -1.241509 -0.487098 27.000000
3.573741 -1.252479 -0.487098 23.000000
3.572683 -1.264429 -0.487510 23.000000
3.573451 -1.277051 -0.488198 38.000000
3.563926 -1.285990 -0.487373 38.000000
3.549726 -1.293188 -0.485861 48.000000
3.539235 -1.301678 -0.484899 41.000000
3.526868 -1.309426 -0.483662 40.000000
3.521907 -1.319893 -0.483524 49.000000
3.511356 -1.328238 -0.482562 50.000000
3.503563 -1.337591 -0.482013 36.000000
3.493898 -1.346196 -0.481188 56.000000
3.488828 -1.356550 -0.481050 66.000000
3.484650 -1.367247 -0.481050 45.000000
3.477676 -1.376837 -0.480638 50.000000
3.474355 -1.387868 -0.480776 36.000000
3.481105 -1.402964 -0.482425 32.000000
3.642559 -1.130542 -0.536888 19.000000
3.615484 -1.134319 -0.533159 30.000000
3.632725 -1.151975 -0.536441 21.000000
3.585855 -1.149246 -0.529578 41.000000
3.567259 -1.155371 -0.527191 52.000000
3.566517 -1.167232 -0.527639 50.000000
3.562920 -1.178168 -0.527639 52.000000
3.560226 -1.189407 -0.527788 38.000000
3.564056 -1.202851 -0.528981 34.000000
3.570645 -1.217286 -0.530622 33.000000
3.572504 -1.230165 -0.531518 35.000000
3.575252 -1.243391 -0.532562 45.000000
3.577951 -1.256646 -0.533606 28.000000
3.568487 -1.265635 -0.532711 9.000000
3.574604 -1.292547 -0.534949 34.000000
3.558545 -1.299103 -0.533010 40.000000
3.545264 -1.306598 -0.531518 38.000000
3.533823 -1.314712 -0.530324 47.000000
3.522367 -1.322769 -0.529131 48.000000
3.511819 -1.331118 -0.528086 30.000000
3.504025 -1.340474 -0.527489 53.000000
3.494360 -1.349082 -0.526594 35.000000
3.497576 -1.362666 -0.527788 32.000000
3.491539 -1.372667 -0.527489 48.000000
3.493745 -1.385923 -0.528534 27.000000
3.500494 -1.401041 -0.530324 24.000000
3.514519 -1.419172 -0.533308 12.000000
3.627173 -1.136011 -0.581620 26.000000
3.615203 -1.144452 -0.580170 32.000000
3.622954 -1.159148 -0.582103 20.000000
3.570551 -1.154464 -0.573727 42.000000
3.568868 -1.166026 -0.574049 37.000000
3.562463 -1.176041 -0.573566 40.000000
3.571009 -1.191026 -0.575660 42.000000
3.580431 -1.206389 -0.577915 41.000000
3.586056 -1.220549 -0.579526 31.000000
3.593494 -1.235397 -0.581459 34.000000
3.601807 -1.250625 -0.583553 36.000000
3.586777 -1.257749 -0.581620 14.000000
3.580619 -1.292719 -0.582587 25.000000
3.577564 -1.304036 -0.582748 38.000000
3.567062 -1.312619 -0.581620 34.000000
3.554692 -1.320463 -0.580170 45.000000
3.542308 -1.328243 -0.578721 33.000000
3.525294 -1.334212 -0.576465 36.000000
3.518418 -1.343965 -0.575982 32.000000
3.505991 -1.351557 -0.574532 46.000000
3.500908 -1.361949 -0.574371 48.000000
3.493039 -1.371240 -0.573727 49.000000
3.501661 -1.387040 -0.575982 32.000000
3.512968 -1.404004 -0.578721 18.000000
3.637308 -1.153427 -0.631136 18.000000
3.621558 -1.160676 -0.628887 35.000000
3.607672 -1.168446 -0.626985 28.000000
3.590964 -1.175224 -0.624563 35.000000
3.580795 -1.184073 -0.623352 37.000000
3.581816 -1.196612 -0.624217 47.000000
3.575328 -1.206651 -0.623698 59.000000
3.578136 -1.219837 -0.624909 87.000000
3.593004 -1.237217 -0.628368 36.000000
3.590122 -1.248558 -0.628541 18.000000
3.511328 -1.281882 -0.617472 14.000000
3.568380 -1.315109 -0.628887 37.000000
3.561559 -1.325021 -0.628368 46.000000
3.547333 -1.332136 -0.626466 65.000000
3.541388 -1.342315 -0.626120 58.000000
3.532653 -1.351415 -0.625255 51.000000
3.522977 -1.360120 -0.624217 35.000000
3.516951 -1.370208 -0.623871 47.000000
3.519148 -1.383512 -0.625082 35.000000
3.511225 -1.392850 -0.624390 16.000000
3.507849 -1.403982 -0.624563 17.000000
3.617396 -1.134329 -0.672390 19.000000
3.628889 -1.150174 -0.675341 29.000000
3.624408 -1.161002 -0.675157 29.000000
3.626439 -1.173933 -0.676263 49.000000
3.627491 -1.186581 -0.677186 41.000000
3.627566 -1.198939 -0.677924 44.000000
3.628531 -1.211619 -0.678846 64.000000
3.628522 -1.224003 -0.679584 59.000000
3.630332 -1.237032 -0.680691 40.000000
3.628378 -1.248804 -0.681059 53.000000
3.625458 -1.260252 -0.681244 39.000000
3.583202 -1.319975 -0.677555 33.000000
3.583742 -1.332675 -0.678477 43.000000
3.576876 -1.342627 -0.677924 45.000000
3.566307 -1.351156 -0.676632 33.000000
3.560308 -1.361389 -0.676263 44.000000
3.549697 -1.369828 -0.674972 45.000000
3.543646 -1.379998 -0.674603 45.000000
3.543969 -1.392661 -0.675526 51.000000
3.541507 -1.404252 -0.675894 50.000000
3.547220 -1.419128 -0.677924 41.000000
3.600264 -1.453185 -0.689545 23.000000
3.639792 -1.141937 -0.723616 10.000000
3.637206 -1.153394 -0.723813 23.000000
3.633651 -1.164548 -0.723813 25.000000
3.626329 -1.174483 -0.723028 24.000000
3.631097 -1.188345 -0.724793 22.000000
3.627434 -1.199479 -0.724793 42.000000
3.627457 -1.211844 -0.725578 43.000000
3.628368 -1.224534 -0.726558 40.000000
3.625523 -1.235976 -0.726754 38.000000
3.626350 -1.248688 -0.727735 37.000000
3.620650 -1.259164 -0.727343 52.000000
3.626022 -1.273512 -0.729304 22.000000
3.589498 -1.322884 -0.725774 25.000000
3.581746 -1.332524 -0.724989 38.000000
3.574886 -1.342473 -0.724401 45.000000
3.571668 -1.353782 -0.724597 52.000000
3.571162 -1.366133 -0.725381 37.000000
3.564209 -1.376024 -0.724793 44.000000
3.557229 -1.385886 -0.724205 38.000000
3.554786 -1.397509 -0.724597 42.000000
3.549570 -1.408048 -0.724401 30.000000
3.545233 -1.418931 -0.724401 35.000000
