ply
format ascii 1.0
element vertex 1247
property float x
property float y
property float z
property float intensity
end_header
3.309014 -1.381697 0.551916 20.000000
3.315707 -1.396449 0.553632 30.000000
3.312318 -1.407002 0.553775 25.000000
3.395569 -0.783630 0.494733 23.000000
3.397976 -0.795174 0.495388 32.000000
3.396485 -0.805824 0.495519 36.000000
3.389177 -0.815081 0.494864 29.000000
3.390513 -0.826414 0.495388 40.000000
3.382187 -0.835385 0.494602 29.000000
3.380570 -0.845999 0.494733 47.000000
3.380841 -0.857097 0.495126 39.000000
3.382037 -0.868452 0.495650 46.000000
3.377438 -0.878325 0.495388 48.000000
3.380479 -0.890198 0.496174 40.000000
3.375816 -0.900054 0.495912 47.000000
3.372082 -0.910148 0.495781 50.000000
3.374055 -0.921796 0.496437 45.000000
3.375989 -0.933465 0.497092 42.000000
3.375019 -0.944352 0.497354 40.000000
3.377828 -0.956323 0.498140 55.000000
3.373926 -0.966409 0.498009 46.000000
3.372849 -0.977307 0.498271 42.000000
3.369835 -0.987650 0.498271 30.000000
3.367740 -0.998266 0.498402 59.000000
3.362762 -1.008024 0.498140 41.000000
3.363448 -1.019487 0.498664 41.000000
3.360305 -1.029801 0.498664 38.000000
3.364705 -1.042453 0.499713 38.000000
3.364329 -1.053660 0.500106 39.000000
3.363916 -1.064875 0.500499 40.000000
3.360633 -1.075190 0.500499 37.000000
3.354489 -1.084580 0.500106 49.000000
3.349261 -1.094250 0.499844 44.000000
3.350595 -1.106075 0.500499 31.000000
3.350007 -1.117291 0.500892 36.000000
3.344685 -1.126930 0.500630 59.000000
3.346843 -1.139103 0.501416 35.000000
3.348020 -1.150978 0.502071 50.000000
3.350092 -1.163195 0.502858 50.000000
3.349313 -1.174452 0.503251 34.000000
3.341957 -1.183398 0.502727 46.000000
3.338310 -1.193646 0.502727 32.000000
3.339295 -1.205566 0.503382 47.000000
3.336512 -1.216144 0.503513 48.000000
3.338347 -1.228430 0.504299 40.000000
3.337351 -1.239702 0.504692 40.000000
3.334460 -1.250283 0.504823 51.000000
3.338026 -1.263315 0.505872 45.000000
3.335060 -1.273904 0.506003 41.000000
3.333911 -1.285200 0.506396 38.000000
3.335496 -1.297579 0.507182 45.000000
3.330576 -1.307444 0.507051 39.000000
3.329315 -1.318751 0.507444 42.000000
3.326174 -1.329327 0.507575 44.000000
3.323918 -1.340267 0.507837 31.000000
3.319791 -1.350459 0.507837 53.000000
3.316549 -1.361014 0.507968 44.000000
3.308694 -1.369665 0.507444 39.000000
3.307221 -1.380956 0.507837 34.000000
3.311191 -1.394560 0.509017 34.000000
3.315109 -1.408201 0.510196 27.000000
3.318063 -1.421489 0.511245 23.000000
3.313686 -1.431662 0.511245 36.000000
3.312913 -1.443406 0.511769 30.000000
3.315731 -1.456754 0.512817 24.000000
3.391137 -0.727433 0.449701 26.000000
3.388889 -0.737834 0.449701 28.000000
3.387579 -0.748441 0.449820 35.000000
3.393018 -0.760565 0.450772 50.000000
3.392606 -0.771411 0.451010 29.000000
3.389255 -0.781593 0.450891 23.000000
3.396511 -0.794245 0.452080 44.000000
3.389227 -0.803518 0.451485 38.000000
3.390608 -0.814839 0.451961 40.000000
3.390021 -0.825707 0.452199 51.000000
3.379760 -0.834202 0.451247 41.000000
3.376221 -0.844327 0.451128 59.000000
3.372652 -0.854437 0.451010 36.000000
3.369053 -0.864534 0.450891 61.000000
3.368307 -0.875365 0.451128 45.000000
3.365606 -0.885695 0.451128 44.000000
3.362873 -0.896016 0.451128 39.000000
3.360108 -0.906329 0.451128 50.000000
3.360185 -0.917417 0.451485 55.000000
3.362140 -0.929042 0.452080 53.000000
3.360231 -0.939620 0.452199 51.000000
3.360199 -0.950734 0.452556 49.000000
3.357266 -0.961039 0.452556 44.000000
3.354302 -0.971334 0.452556 56.000000
3.357024 -0.983293 0.453269 46.000000
3.353991 -0.993588 0.453269 46.000000
3.349025 -1.003304 0.453031 52.000000
3.350683 -1.015011 0.453626 55.000000
3.350401 -1.026158 0.453983 62.000000
3.352929 -1.038192 0.454696 46.000000
3.354466 -1.049955 0.455291 47.000000
3.352176 -1.060541 0.455410 51.000000
3.349852 -1.071122 0.455529 44.000000
3.348440 -1.082004 0.455766 47.000000
3.343217 -1.091656 0.455529 48.000000
3.344567 -1.103462 0.456123 51.000000
3.341166 -1.113718 0.456123 36.000000
3.341498 -1.125229 0.456599 42.000000
3.341790 -1.136753 0.457075 50.000000
3.342044 -1.148290 0.457550 46.000000
3.343196 -1.160164 0.458145 43.000000
3.340558 -1.170743 0.458264 54.000000
3.336014 -1.180655 0.458145 53.000000
3.334247 -1.191552 0.458383 51.000000
3.332443 -1.202449 0.458621 49.000000
3.329672 -1.213007 0.458740 47.000000
3.330594 -1.224929 0.459334 57.000000
3.324959 -1.234450 0.459096 34.000000
3.326735 -1.246734 0.459810 61.000000
3.326610 -1.258338 0.460286 54.000000
3.320879 -1.267831 0.460048 66.000000
3.326239 -1.281580 0.461237 36.000000
3.325994 -1.293217 0.461713 38.000000
3.321086 -1.303052 0.461594 49.000000
3.321690 -1.315061 0.462188 42.000000
3.313951 -1.323774 0.461713 46.000000
3.315400 -1.336159 0.462426 57.000000
3.314045 -1.347446 0.462783 42.000000
3.312652 -1.358736 0.463140 67.000000
3.305715 -1.367755 0.462783 59.000000
3.307001 -1.380183 0.463497 38.000000
3.308243 -1.392632 0.464210 42.000000
3.313096 -1.406652 0.465399 39.000000
3.307852 -1.416419 0.465280 47.000000
3.304402 -1.426954 0.465399 52.000000
3.303651 -1.438670 0.465875 35.000000
3.298312 -1.448400 0.465756 35.000000
3.290221 -1.456905 0.465280 26.000000
3.286643 -1.467397 0.465399 32.000000
3.278503 -1.475844 0.464924 18.000000
3.271247 -1.484666 0.464567 12.000000
3.385513 -0.747940 0.406850 25.000000
3.385143 -0.758758 0.407064 35.000000
3.383769 -0.769360 0.407171 31.000000
3.387205 -0.781079 0.407811 36.000000
3.386729 -0.791920 0.408025 39.000000
3.383316 -0.802077 0.407918 45.000000
3.381807 -0.812686 0.408025 38.000000
3.380263 -0.823293 0.408132 44.000000
3.374826 -0.832944 0.407811 45.000000
3.372254 -0.843294 0.407811 51.000000
3.369652 -0.853636 0.407811 51.000000
3.368943 -0.864465 0.408025 42.000000
3.370124 -0.875797 0.408452 54.000000
3.370306 -0.886892 0.408772 45.000000
3.373333 -0.898764 0.409413 44.000000
3.375360 -0.910404 0.409947 58.000000
3.376387 -0.921803 0.410374 55.000000
3.373544 -0.932157 0.410374 36.000000
3.373540 -0.943307 0.410695 45.000000
3.369674 -0.953381 0.410588 37.000000
3.363865 -0.962893 0.410268 43.000000
3.359941 -0.972933 0.410161 52.000000
3.358848 -0.983795 0.410374 54.000000
3.356767 -0.994378 0.410481 56.000000
3.353701 -1.004672 0.410481 50.000000
3.349651 -1.014668 0.410374 38.000000
3.347473 -1.025231 0.410481 45.000000
3.345262 -1.035790 0.410588 54.000000
3.343017 -1.046345 0.410695 51.000000
3.339791 -1.056597 0.410695 56.000000
3.339375 -1.067747 0.411015 44.000000
3.338922 -1.078904 0.411335 42.000000
3.339376 -1.090378 0.411762 46.000000
3.336960 -1.100929 0.411869 59.000000
3.337339 -1.112420 0.412296 52.000000
3.334853 -1.122971 0.412403 40.000000
3.336098 -1.134798 0.412937 54.000000
3.336363 -1.146320 0.413364 33.000000
3.334708 -1.157203 0.413578 43.000000
3.331142 -1.167428 0.413578 54.000000
3.328483 -1.177974 0.413685 38.000000
3.323917 -1.187846 0.413578 57.000000
3.324933 -1.199726 0.414112 49.000000
3.322170 -1.210261 0.414219 46.000000
3.321241 -1.221478 0.414539 40.000000
3.319343 -1.232354 0.414752 44.000000
3.319270 -1.243928 0.415180 51.000000
3.321018 -1.256216 0.415820 44.000000
3.317148 -1.266399 0.415820 43.000000
3.313247 -1.276570 0.415820 52.000000
3.316728 -1.289612 0.416675 37.000000
3.314608 -1.300508 0.416888 49.000000
3.314300 -1.312136 0.417315 48.000000
3.308412 -1.321560 0.417102 45.000000
3.308953 -1.333563 0.417636 56.000000
3.307609 -1.344832 0.417956 45.000000
3.305307 -1.355728 0.418170 37.000000
3.306644 -1.368143 0.418810 53.000000
3.306102 -1.379814 0.419237 37.000000
3.306435 -1.391880 0.419771 50.000000
3.312216 -1.406293 0.420946 40.000000
3.309714 -1.417231 0.421160 39.000000
3.305350 -1.427378 0.421160 40.000000
3.303690 -1.438703 0.421480 44.000000
3.297440 -1.448032 0.421266 35.000000
3.294800 -1.458947 0.421480 47.000000
3.293032 -1.470265 0.421800 35.000000
3.289412 -1.480769 0.421907 33.000000
3.286665 -1.491676 0.422121 36.000000
3.287498 -1.504235 0.422761 31.000000
3.292798 -1.518896 0.423936 25.000000
3.289926 -1.529830 0.424149 26.000000
3.302321 -1.547936 0.426178 11.000000
3.342580 -0.771457 0.361970 6.000000
3.377033 -0.790316 0.365579 31.000000
3.375562 -0.800903 0.365674 46.000000
3.363409 -0.808930 0.364724 28.000000
3.366715 -0.820658 0.365294 50.000000
3.364181 -0.830983 0.365294 49.000000
3.360651 -0.841059 0.365199 48.000000
3.356124 -0.850877 0.365009 39.000000
3.354462 -0.861416 0.365104 45.000000
3.353731 -0.872204 0.365294 51.000000
3.353927 -0.883249 0.365579 48.000000
3.356973 -0.895071 0.366149 52.000000
3.356134 -0.905884 0.366339 49.000000
3.358141 -0.917486 0.366814 56.000000
3.357229 -0.928315 0.367004 67.000000
3.355325 -0.938878 0.367099 49.000000
3.354344 -0.949709 0.367288 55.000000
3.350458 -0.959722 0.367194 49.000000
3.348454 -0.970273 0.367288 57.000000
3.345461 -0.980542 0.367288 51.000000
3.343392 -0.991083 0.367383 66.000000
3.344150 -1.002478 0.367763 48.000000
3.340106 -1.012445 0.367668 67.000000
3.340791 -1.023853 0.368048 50.000000
3.338586 -1.034392 0.368143 62.000000
3.341097 -1.046413 0.368713 62.000000
3.340718 -1.057559 0.368998 43.000000
3.340302 -1.068712 0.369283 49.000000
3.336061 -1.078649 0.369188 43.000000
3.335575 -1.089805 0.369473 57.000000
3.335052 -1.100969 0.369758 53.000000
3.335436 -1.112454 0.370138 32.000000
3.329177 -1.121729 0.369853 43.000000
3.328548 -1.132899 0.370138 43.000000
3.329764 -1.144722 0.370613 33.000000
3.329998 -1.156237 0.370993 51.000000
3.327375 -1.166777 0.371088 60.000000
3.321903 -1.176316 0.370898 63.000000
3.319216 -1.186836 0.370993 47.000000
3.315559 -1.197014 0.370993 34.000000
3.311871 -1.207180 0.370993 51.000000
3.308151 -1.217335 0.370993 59.000000
3.304401 -1.227479 0.370993 34.000000
3.302485 -1.238309 0.371183 46.000000
3.305188 -1.250900 0.371847 59.000000
3.302264 -1.261389 0.371942 51.000000
3.300237 -1.272230 0.372132 41.000000
3.304669 -1.285594 0.372987 58.000000
3.301636 -1.296090 0.373082 41.000000
3.299496 -1.306946 0.373272 47.000000
3.299168 -1.318539 0.373652 60.000000
3.296031 -1.329027 0.373747 59.000000
3.298394 -1.341756 0.374412 54.000000
3.297946 -1.353380 0.374792 39.000000
3.295618 -1.364252 0.374982 45.000000
3.299686 -1.377806 0.375836 65.000000
3.300949 -1.390239 0.376406 54.000000
3.298501 -1.401138 0.376596 51.000000
3.298763 -1.413209 0.377071 48.000000
3.298981 -1.425296 0.377546 31.000000
3.293680 -1.435013 0.377451 42.000000
3.289262 -1.445111 0.377451 53.000000
3.283903 -1.454792 0.377356 49.000000
3.283060 -1.466483 0.377736 60.000000
3.283993 -1.479000 0.378306 48.000000
3.281253 -1.489890 0.378496 34.000000
3.277572 -1.500364 0.378591 37.000000
3.276569 -1.512080 0.378971 29.000000
3.271012 -1.521706 0.378876 48.000000
3.269032 -1.533001 0.379161 47.000000
3.270615 -1.545999 0.379825 29.000000
3.262261 -1.554314 0.379446 34.000000
3.279017 -1.574651 0.381725 10.000000
3.359040 -0.818121 0.320932 17.000000
3.359417 -0.829139 0.321179 41.000000
3.357824 -0.839684 0.321261 41.000000
3.356198 -0.850226 0.321344 27.000000
3.355505 -0.861015 0.321509 32.000000
3.355741 -0.872058 0.321756 48.000000
3.354977 -0.882856 0.321921 46.000000
3.351290 -0.892888 0.321839 55.000000
3.349497 -0.903425 0.321921 40.000000
3.351517 -0.915010 0.322333 57.000000
3.350615 -0.925819 0.322498 47.000000
3.351598 -0.937168 0.322828 42.000000
3.347748 -0.947175 0.322746 47.000000
3.343868 -0.957167 0.322663 52.000000
3.346659 -0.969085 0.323158 38.000000
3.346539 -0.980189 0.323405 42.000000
3.346383 -0.991301 0.323653 38.000000
3.345235 -1.002135 0.323818 40.000000
3.340237 -1.011815 0.323653 53.000000
3.342835 -1.023810 0.324147 40.000000
3.342534 -1.034945 0.324395 43.000000
3.342196 -1.046088 0.324642 39.000000
3.342772 -1.057540 0.324972 48.000000
3.338562 -1.067487 0.324890 50.000000
3.338116 -1.078644 0.325137 52.000000
3.337633 -1.089808 0.325384 49.000000
3.336167 -1.100668 0.325549 56.000000
3.336556 -1.112159 0.325879 45.000000
3.335962 -1.123344 0.326127 41.000000
3.332500 -1.133574 0.326127 48.000000
3.330891 -1.144440 0.326291 49.000000
3.328306 -1.154981 0.326374 65.000000
3.327569 -1.166175 0.326621 59.000000
3.322096 -1.175714 0.326456 42.000000
3.321289 -1.186906 0.326704 48.000000
3.319506 -1.197767 0.326869 46.000000
3.316752 -1.208287 0.326951 41.000000
3.316771 -1.219833 0.327281 62.000000
3.313013 -1.230003 0.327281 58.000000
3.312023 -1.241211 0.327528 54.000000
3.310996 -1.252424 0.327776 42.000000
3.308069 -1.262932 0.327858 51.000000
3.306039 -1.273792 0.328023 67.000000
3.305830 -1.285374 0.328353 49.000000
3.304655 -1.296602 0.328600 39.000000
3.300661 -1.306735 0.328600 44.000000
3.299413 -1.317964 0.328848 50.000000
3.296278 -1.328453 0.328930 53.000000
3.295880 -1.340061 0.329260 42.000000
3.292675 -1.350545 0.329342 39.000000
3.289437 -1.361022 0.329425 57.000000
3.289844 -1.373027 0.329837 54.000000
3.292046 -1.385821 0.330414 49.000000
3.288696 -1.396304 0.330497 47.000000
3.290809 -1.409133 0.331074 49.000000
3.291045 -1.421199 0.331486 41.000000
3.290324 -1.432881 0.331816 41.000000
3.290475 -1.444973 0.332229 39.000000
3.286937 -1.455465 0.332311 33.000000
3.284277 -1.466355 0.332476 42.000000
3.284306 -1.478470 0.332888 44.000000
3.283385 -1.490187 0.333218 54.000000
3.278797 -1.500253 0.333218 41.000000
3.276894 -1.511558 0.333466 33.000000
3.274048 -1.522445 0.333630 33.000000
3.274776 -1.535021 0.334125 44.000000
3.270952 -1.545486 0.334208 50.000000
3.267095 -1.555943 0.334290 43.000000
3.257814 -1.563802 0.333878 40.000000
3.251207 -1.572921 0.333713 30.000000
3.247262 -1.583325 0.333795 31.000000
3.227185 -1.585806 0.332394 19.000000
3.185689 -1.577563 0.329013 8.000000
3.334579 -0.846655 0.278656 6.000000
3.344526 -0.860107 0.279574 32.000000
3.342836 -0.870615 0.279645 30.000000
3.343044 -0.881628 0.279857 28.000000
3.336468 -0.890853 0.279574 24.000000
3.334682 -0.901345 0.279645 29.000000
3.337674 -0.913148 0.280069 45.000000
3.339664 -0.924713 0.280422 35.000000
3.340654 -0.936030 0.280704 38.000000
3.337766 -0.946275 0.280704 50.000000
3.337724 -0.957334 0.280916 50.000000
3.339562 -0.968958 0.281269 48.000000
3.347103 -0.982285 0.282046 39.000000
3.346943 -0.993400 0.282258 39.000000
3.341969 -1.003091 0.282117 55.000000
3.339830 -1.013629 0.282187 55.000000
3.336705 -1.023870 0.282187 56.000000
3.336406 -1.034988 0.282399 41.000000
3.333215 -1.045219 0.282399 37.000000
3.329993 -1.055440 0.282399 47.000000
3.327689 -1.065956 0.282470 50.000000
3.329149 -1.077694 0.282823 47.000000
3.329619 -1.089142 0.283106 43.000000
3.328157 -1.099977 0.283247 46.000000
3.326659 -1.110814 0.283388 47.000000
3.327961 -1.122608 0.283741 50.000000
3.321669 -1.131848 0.283529 46.000000
3.320067 -1.142682 0.283671 49.000000
3.315604 -1.152535 0.283600 64.000000
3.315818 -1.164022 0.283883 33.000000
3.317873 -1.176188 0.284306 29.000000
3.309552 -1.184682 0.283953 43.000000
3.307778 -1.195507 0.284094 49.000000
3.305032 -1.205992 0.284165 33.000000
3.302253 -1.216470 0.284236 54.000000
3.299440 -1.226943 0.284306 49.000000
3.301265 -1.239161 0.284730 50.000000
3.303045 -1.251402 0.285154 46.000000
3.307577 -1.264733 0.285789 49.000000
3.307404 -1.276310 0.286072 48.000000
3.309980 -1.288983 0.286566 35.000000
3.311581 -1.301319 0.286990 43.000000
3.311282 -1.312942 0.287273 43.000000
3.304460 -1.321984 0.287061 54.000000
3.300389 -1.332115 0.287061 39.000000
3.295362 -1.341859 0.286990 54.000000
3.290308 -1.351584 0.286919 48.000000
3.285224 -1.361290 0.286849 54.000000
3.284714 -1.372900 0.287131 49.000000
3.282325 -1.383746 0.287273 39.000000
3.280818 -1.394979 0.287485 39.000000
3.282024 -1.407395 0.287908 48.000000
3.282270 -1.419436 0.288261 44.000000
3.285215 -1.432686 0.288826 27.000000
3.281718 -1.443160 0.288897 37.000000
3.279099 -1.454029 0.289038 33.000000
3.275533 -1.464489 0.289109 40.000000
3.276482 -1.476990 0.289533 35.000000
3.274660 -1.488272 0.289745 45.000000
3.272799 -1.499557 0.289956 46.000000
3.272712 -1.511681 0.290310 41.000000
3.268963 -1.522135 0.290380 30.000000
3.266084 -1.533004 0.290522 41.000000
3.262267 -1.543443 0.290592 38.000000
3.259318 -1.554303 0.290733 35.000000
3.257231 -1.565590 0.290945 38.000000
3.257800 -1.578184 0.291369 30.000000
3.258322 -1.590795 0.291793 25.000000
3.249846 -1.599023 0.291510 43.000000
3.247606 -1.610315 0.291722 32.000000
3.236403 -1.617152 0.291228 28.000000
3.231426 -1.627073 0.291228 23.000000
3.221081 -1.634273 0.290804 7.000000
3.346272 -0.892173 0.236765 14.000000
3.340628 -0.901655 0.236591 37.000000
3.339772 -0.912426 0.236707 33.000000
3.344654 -0.924797 0.237171 46.000000
3.344685 -0.935861 0.237346 32.000000
3.344680 -0.946934 0.237520 31.000000
3.340799 -0.956916 0.237462 26.000000
3.340724 -0.967995 0.237636 38.000000
3.343487 -0.979925 0.237985 41.000000
3.340465 -0.990178 0.237985 50.000000
3.337411 -1.000422 0.237985 46.000000
3.333371 -1.010366 0.237927 57.000000
3.333119 -1.021466 0.238101 61.000000
3.333784 -1.032869 0.238333 59.000000
3.328694 -1.042495 0.238217 60.000000
3.324528 -1.052401 0.238159 53.000000
3.325087 -1.063813 0.238391 56.000000
3.328456 -1.076160 0.238798 65.000000
3.330833 -1.088227 0.239146 62.000000
3.328426 -1.098754 0.239204 53.000000
3.325987 -1.109276 0.239263 60.000000
3.327298 -1.121070 0.239553 52.000000
3.321953 -1.130629 0.239437 53.000000
3.317524 -1.140490 0.239379 52.000000
3.314953 -1.150990 0.239437 52.000000
3.314232 -1.162147 0.239611 43.000000
3.311592 -1.172642 0.239669 58.000000
3.310799 -1.183805 0.239843 59.000000
3.307152 -1.193957 0.239843 62.000000
3.307225 -1.205466 0.240076 59.000000
3.309132 -1.217676 0.240424 55.000000
3.305381 -1.227822 0.240424 58.000000
3.305337 -1.239359 0.240657 43.000000
3.303386 -1.250201 0.240773 52.000000
3.302333 -1.261399 0.240947 42.000000
3.301242 -1.272602 0.241121 56.000000
3.297322 -1.282724 0.241121 54.000000
3.296159 -1.293929 0.241296 52.000000
3.297742 -1.306242 0.241644 45.000000
3.298354 -1.318206 0.241935 52.000000
3.298923 -1.330186 0.242225 43.000000
3.300375 -1.342558 0.242573 34.000000
3.300858 -1.354573 0.242864 47.000000
3.297610 -1.365075 0.242922 44.000000
3.293406 -1.375186 0.242922 53.000000
3.288252 -1.384896 0.242864 56.000000
3.283987 -1.394977 0.242864 48.000000
3.279692 -1.405046 0.242864 56.000000
3.276282 -1.415497 0.242922 37.000000
3.273755 -1.426340 0.243038 43.000000
3.273933 -1.438385 0.243329 42.000000
3.272243 -1.449636 0.243503 58.000000
3.274160 -1.462519 0.243909 36.000000
3.278760 -1.476658 0.244490 53.000000
3.278759 -1.488774 0.244781 40.000000
3.277807 -1.500489 0.245013 48.000000
3.275907 -1.511793 0.245187 45.000000
3.275779 -1.523942 0.245478 66.000000
3.273800 -1.535257 0.245652 44.000000
3.268172 -1.544867 0.245594 35.000000
3.264318 -1.555316 0.245652 43.000000
3.263131 -1.567052 0.245884 53.000000
3.263699 -1.579666 0.246233 42.000000
3.259734 -1.590109 0.246291 32.000000
3.254840 -1.600102 0.246291 60.000000
3.252600 -1.611410 0.246465 44.000000
3.248001 -1.634030 0.246814 40.000000
3.245645 -1.645342 0.246988 25.000000
3.246804 -1.658471 0.247395 30.000000
3.247914 -1.671623 0.247801 23.000000
3.243657 -1.682039 0.247859 36.000000
3.262370 -1.704467 0.249428 7.000000
3.342366 -0.937135 0.196115 19.000000
3.336592 -0.946568 0.195976 24.000000
3.337513 -0.957901 0.196161 25.000000
3.335518 -0.968414 0.196207 45.000000
3.329656 -0.977800 0.196069 35.000000
3.326640 -0.988010 0.196069 28.000000
3.332205 -1.000795 0.196485 51.000000
3.332942 -1.012173 0.196670 60.000000
3.331731 -1.022979 0.196762 50.000000
3.329531 -1.033492 0.196808 49.000000
3.328251 -1.044299 0.196901 59.000000
3.325032 -1.054505 0.196901 42.000000
3.321781 -1.064702 0.196901 38.000000
3.319449 -1.075195 0.196947 46.000000
3.318034 -1.085995 0.197040 50.000000
3.317532 -1.097109 0.197178 48.000000
3.318888 -1.108863 0.197410 45.000000
3.311684 -1.117764 0.197225 43.000000
3.307294 -1.127596 0.197178 57.000000
3.304764 -1.138063 0.197225 50.000000
3.301257 -1.148196 0.197225 42.000000
3.301489 -1.159642 0.197410 50.000000
3.298857 -1.170099 0.197456 34.000000
3.296192 -1.180551 0.197502 34.000000
3.304768 -1.195070 0.198103 31.000000
3.305779 -1.206914 0.198334 44.000000
3.309560 -1.219812 0.198704 32.000000
3.306738 -1.230308 0.198750 38.000000
3.300142 -1.239394 0.198612 51.000000
3.296324 -1.249513 0.198612 46.000000
3.294342 -1.260333 0.198704 56.000000
3.283004 -1.267559 0.198334 59.000000
3.276306 -1.276538 0.198195 47.000000
3.272375 -1.286583 0.198195 47.000000
3.266555 -1.295881 0.198103 34.000000
3.269984 -1.308863 0.198473 40.000000
3.267806 -1.319637 0.198565 35.000000
3.266518 -1.330786 0.198704 48.000000
3.274432 -1.345734 0.199305 60.000000
3.280440 -1.359978 0.199814 51.000000
3.279939 -1.371576 0.199999 41.000000
3.281239 -1.383960 0.200276 48.000000
3.279736 -1.395192 0.200415 41.000000
3.278194 -1.406428 0.200553 41.000000
3.273864 -1.416479 0.200553 38.000000
3.266756 -1.425319 0.200415 52.000000
3.261453 -1.434932 0.200369 43.000000
3.260689 -1.446551 0.200553 33.000000
3.262619 -1.459401 0.200877 45.000000
3.261769 -1.471045 0.201062 38.000000
3.259969 -1.482285 0.201201 46.000000
3.258131 -1.493527 0.201339 63.000000
3.257161 -1.505191 0.201524 39.000000
3.257056 -1.517284 0.201756 32.000000
3.251482 -1.526845 0.201709 46.000000
3.250394 -1.538522 0.201894 32.000000
3.249266 -1.550206 0.202079 40.000000
3.248996 -1.562330 0.202310 38.000000
3.245986 -1.573162 0.202403 26.000000
3.247428 -1.586180 0.202726 27.000000
3.247028 -1.598339 0.202958 22.000000
3.241215 -1.607850 0.202911 42.000000
3.244310 -1.621804 0.203328 32.000000
3.242888 -1.633546 0.203512 23.000000
3.250333 -1.649813 0.204160 22.000000
3.248815 -1.661596 0.204345 24.000000
3.241925 -1.670640 0.204252 32.000000
3.243878 -1.684259 0.204622 29.000000
3.238696 -1.694203 0.204622 21.000000
3.234367 -1.704597 0.204668 9.000000
3.320182 -0.973718 0.152844 33.000000
3.315263 -0.983331 0.152776 29.000000
3.326590 -0.997806 0.153284 45.000000
3.325425 -1.008588 0.153352 41.000000
3.325182 -1.019665 0.153453 36.000000
3.322038 -1.029861 0.153453 28.000000
3.325538 -1.042141 0.153690 42.000000
3.325184 -1.053245 0.153792 58.000000
3.317178 -1.061917 0.153622 45.000000
3.308199 -1.070243 0.153419 57.000000
3.309650 -1.081940 0.153588 42.000000
3.307264 -1.092403 0.153622 58.000000
3.313377 -1.105709 0.153961 51.000000
3.309968 -1.115869 0.153961 62.000000
3.309368 -1.126985 0.154062 50.000000
3.309675 -1.138434 0.154198 69.000000
3.306166 -1.148583 0.154198 71.000000
3.306399 -1.160044 0.154333 52.000000
3.299999 -1.169181 0.154232 58.000000
3.298278 -1.179973 0.154299 52.000000
3.295583 -1.190426 0.154333 53.000000
3.288159 -1.199161 0.154198 52.000000
3.289154 -1.210971 0.154367 54.000000
3.283550 -1.220359 0.154299 57.000000
3.282597 -1.231481 0.154401 49.000000
3.279739 -1.241900 0.154435 29.000000
3.278713 -1.253027 0.154536 52.000000
3.279516 -1.264879 0.154706 52.000000
3.277483 -1.275659 0.154773 47.000000
3.274484 -1.286074 0.154807 42.000000
3.273310 -1.297219 0.154909 55.000000
3.273027 -1.308740 0.155044 64.000000
3.277337 -1.322141 0.155349 48.000000
3.277894 -1.334074 0.155518 50.000000
3.277483 -1.345643 0.155654 38.000000
3.277956 -1.357604 0.155823 45.000000
3.277465 -1.369196 0.155958 51.000000
3.273248 -1.379245 0.155958 43.000000
3.271761 -1.390453 0.156060 41.000000
3.266561 -1.400091 0.156026 39.000000
3.261333 -1.409709 0.155992 38.000000
3.259741 -1.420907 0.156094 46.000000
3.259941 -1.432912 0.156263 43.000000
3.254616 -1.442501 0.156229 33.000000
3.255649 -1.454927 0.156432 57.000000
3.251170 -1.464908 0.156432 45.000000
3.249390 -1.476116 0.156534 51.000000
3.247572 -1.487327 0.156635 63.000000
3.248438 -1.499798 0.156838 45.000000
3.245634 -1.510600 0.156906 40.000000
3.244603 -1.522249 0.157041 41.000000
3.247145 -1.535615 0.157312 37.000000
3.247831 -1.548151 0.157515 60.000000
3.244868 -1.558974 0.157583 44.000000
3.245466 -1.571535 0.157786 47.000000
3.238834 -1.580608 0.157719 49.000000
3.236660 -1.591861 0.157820 36.000000
3.233552 -1.602671 0.157888 28.000000
3.229513 -1.613030 0.157922 32.000000
3.223657 -1.622481 0.157888 26.000000
3.223120 -1.634625 0.158057 22.000000
3.208301 -1.639502 0.157685 13.000000
3.237908 -1.667184 0.159005 7.000000
3.354248 -1.017363 0.111709 21.000000
3.324345 -1.019450 0.111103 41.000000
3.321201 -1.029644 0.111103 40.000000
3.321843 -1.041023 0.111190 38.000000
3.324353 -1.053019 0.111320 32.000000
3.314441 -1.061082 0.111168 42.000000
3.314975 -1.072475 0.111255 42.000000
3.305967 -1.080778 0.111125 32.000000
3.304535 -1.091542 0.111168 33.000000
3.305912 -1.103256 0.111276 46.000000
3.289247 -1.108926 0.110973 25.000000
3.299081 -1.123520 0.111276 54.000000
3.293727 -1.132986 0.111233 39.000000
3.286458 -1.141775 0.111147 51.000000
3.285770 -1.152844 0.111211 35.000000
3.279390 -1.161919 0.111147 32.000000
3.276752 -1.172311 0.111168 32.000000
3.276901 -1.183715 0.111255 48.000000
3.275133 -1.194448 0.111298 45.000000
3.275206 -1.205871 0.111385 53.000000
3.278989 -1.218697 0.111558 54.000000
3.279916 -1.230505 0.111666 36.000000
3.284541 -1.243746 0.111861 47.000000
3.287248 -1.256313 0.112012 52.000000
3.288975 -1.268549 0.112142 58.000000
3.280409 -1.276822 0.112034 34.000000
3.280199 -1.288341 0.112120 40.000000
3.279949 -1.299870 0.112207 43.000000
3.272233 -1.308443 0.112120 49.000000
3.270057 -1.319224 0.112164 52.000000
3.268773 -1.330380 0.112229 47.000000
3.260976 -1.338884 0.112142 44.000000
3.262396 -1.351176 0.112272 52.000000
3.258235 -1.361179 0.112272 43.000000
3.250358 -1.369617 0.112185 51.000000
3.248902 -1.380754 0.112250 39.000000
3.242812 -1.389928 0.112207 45.000000
3.241286 -1.401060 0.112272 42.000000
3.246139 -1.414989 0.112488 50.000000
3.244528 -1.426147 0.112553 51.000000
3.245623 -1.438524 0.112683 57.000000
3.251236 -1.452958 0.112921 40.000000
3.249498 -1.464157 0.112986 56.000000
3.247722 -1.475359 0.113051 57.000000
3.245908 -1.486564 0.113116 58.000000
3.234977 -1.493584 0.112964 36.000000
3.232192 -1.504345 0.113008 46.000000
3.231183 -1.515951 0.113094 43.000000
3.229228 -1.527139 0.113159 29.000000
3.228139 -1.538758 0.113246 40.000000
3.233317 -1.553414 0.113484 19.000000
3.234836 -1.566374 0.113635 23.000000
3.229116 -1.575853 0.113614 33.000000
3.235034 -1.591044 0.113873 22.000000
3.589643 -1.101477 0.070768 15.000000
3.544225 -1.099444 0.070361 25.000000
3.507442 -1.099837 0.070037 28.000000
3.500238 -1.109384 0.070000 16.000000
3.362550 -1.077092 0.068696 36.000000
3.338300 -1.080625 0.068492 40.000000
3.324515 -1.087441 0.068391 39.000000
3.313568 -1.095124 0.068317 44.000000
3.304502 -1.103384 0.068261 35.000000
3.305838 -1.115116 0.068307 46.000000
3.300508 -1.124607 0.068289 42.000000
3.300825 -1.136030 0.068326 53.000000
3.299213 -1.146808 0.068344 53.000000
3.295679 -1.156925 0.068344 53.000000
3.294942 -1.168033 0.068372 55.000000
3.291342 -1.178136 0.068372 54.000000
3.289593 -1.188908 0.068391 77.000000
3.285930 -1.198995 0.068391 46.000000
3.278483 -1.207688 0.068354 47.000000
3.280386 -1.219832 0.068409 43.000000
3.280373 -1.231296 0.068446 60.000000
3.283125 -1.243835 0.068511 52.000000
3.283030 -1.255331 0.068548 53.000000
3.281029 -1.266117 0.068566 43.000000
3.277129 -1.276177 0.068566 49.000000
3.277851 -1.288054 0.068613 56.000000
3.276673 -1.299211 0.068640 40.000000
3.270814 -1.308514 0.068622 42.000000
3.263076 -1.317045 0.068585 45.000000
3.261798 -1.328182 0.068613 56.000000
3.259558 -1.338943 0.068631 50.000000
3.259130 -1.350468 0.068668 54.000000
3.259584 -1.362389 0.068714 42.000000
3.255389 -1.372383 0.068714 44.000000
3.251163 -1.382364 0.068714 62.000000
3.251502 -1.394303 0.068761 63.000000
3.247209 -1.404272 0.068761 68.000000
3.246552 -1.415827 0.068798 41.000000
3.244023 -1.426586 0.068816 47.000000
3.240545 -1.436937 0.068825 45.000000
3.237947 -1.447688 0.068844 40.000000
3.243517 -1.462137 0.068946 52.000000
3.239927 -1.472495 0.068955 43.000000
3.242666 -1.485761 0.069029 46.000000
3.238093 -1.495703 0.069029 44.000000
3.231676 -1.504785 0.069010 34.000000
3.235190 -1.518518 0.069094 31.000000
3.232324 -1.529292 0.069112 29.000000
3.225812 -1.538340 0.069094 33.000000
3.207559 -1.541730 0.068955 24.000000
3.616173 -1.120983 0.023678 23.000000
3.596493 -1.126994 0.023734 37.000000
3.577764 -1.133196 0.023787 34.000000
3.552364 -1.137162 0.023863 44.000000
3.523167 -1.139753 0.023953 52.000000
3.451210 -1.128207 0.024192 30.000000
3.373661 -1.114350 0.024450 23.000000
3.339869 -1.114575 0.024556 34.000000
3.321270 -1.119710 0.024609 47.000000
3.305512 -1.125708 0.024653 40.000000
3.296369 -1.133894 0.024672 37.000000
3.288151 -1.142362 0.024689 38.000000
3.284631 -1.152445 0.024689 57.000000
3.281080 -1.162517 0.024689 36.000000
3.277498 -1.172577 0.024689 36.000000
3.273885 -1.182627 0.024689 46.000000
3.275879 -1.194720 0.024669 44.000000
3.274075 -1.205454 0.024662 42.000000
3.275986 -1.217582 0.024643 50.000000
3.273171 -1.227978 0.024639 51.000000
3.270324 -1.238368 0.024636 42.000000
3.268378 -1.249109 0.024629 49.000000
3.268263 -1.260568 0.024616 44.000000
3.264380 -1.270589 0.024616 42.000000
3.263259 -1.281694 0.024606 42.000000
3.263960 -1.293540 0.024590 56.000000
3.264620 -1.305402 0.024573 55.000000
3.261527 -1.315786 0.024570 46.000000
3.263033 -1.328046 0.024550 35.000000
3.258018 -1.337671 0.024553 53.000000
3.257595 -1.349189 0.024540 55.000000
3.258054 -1.361103 0.024523 36.000000
3.257550 -1.372644 0.024510 39.000000
3.254244 -1.383023 0.024507 53.000000
3.255501 -1.395362 0.024487 46.000000
3.253959 -1.406532 0.024477 41.000000
3.254213 -1.418505 0.024460 55.000000
3.253508 -1.430091 0.024447 53.000000
3.253677 -1.442090 0.024430 36.000000
3.248324 -1.451658 0.024434 37.000000
3.254797 -1.466543 0.024394 32.000000
3.259388 -1.480654 0.024361 77.000000
3.253012 -1.489815 0.024367 45.000000
3.242978 -1.497275 0.024387 31.000000
3.231115 -1.503844 0.024414 23.000000
3.244595 -1.522238 0.024347 36.000000
3.234485 -1.529622 0.024367 34.000000
3.174704 -1.513309 0.024570 7.000000
3.623196 -1.110398 -0.023102 25.000000
3.613087 -1.119437 -0.022993 39.000000
3.609636 -1.130516 -0.022993 34.000000
3.592805 -1.137359 -0.022773 36.000000
3.579776 -1.145329 -0.022616 42.000000
3.562926 -1.151998 -0.022396 47.000000
3.544169 -1.157953 -0.022144 53.000000
3.535853 -1.167253 -0.022066 58.000000
3.506646 -1.169552 -0.021642 55.000000
3.486934 -1.174875 -0.021375 63.000000
3.361212 -1.143995 -0.019348 26.000000
3.336885 -1.147148 -0.019003 43.000000
3.317292 -1.151803 -0.018736 38.000000
3.306195 -1.159327 -0.018610 33.000000
3.295083 -1.166794 -0.018485 45.000000
3.288663 -1.175888 -0.018437 46.000000
3.285040 -1.185972 -0.018437 65.000000
3.281386 -1.196045 -0.018437 40.000000
3.273010 -1.204379 -0.018359 39.000000
3.269300 -1.214415 -0.018359 34.000000
3.271175 -1.226546 -0.018453 57.000000
3.274878 -1.239408 -0.018579 77.000000
3.268258 -1.248379 -0.018532 64.000000
3.268144 -1.259839 -0.018594 61.000000
3.263332 -1.269497 -0.018579 56.000000
3.260353 -1.279868 -0.018594 48.000000
3.261988 -1.292075 -0.018689 62.000000
3.259866 -1.302819 -0.018720 62.000000
3.258635 -1.313936 -0.018767 69.000000
3.255515 -1.324304 -0.018783 64.000000
3.253287 -1.335045 -0.018814 58.000000
3.251947 -1.346167 -0.018861 46.000000
3.251492 -1.357679 -0.018924 45.000000
3.252840 -1.369977 -0.019019 58.000000
3.254143 -1.382296 -0.019113 57.000000
3.259997 -1.396606 -0.019286 47.000000
3.266711 -1.411361 -0.019474 43.000000
3.270614 -1.424971 -0.019615 38.000000
3.277212 -1.439826 -0.019804 30.000000
3.274608 -1.450684 -0.019835 44.000000
3.270142 -1.460724 -0.019835 32.000000
3.269291 -1.472392 -0.019898 30.000000
3.262938 -1.481588 -0.019867 33.000000
3.247468 -1.486596 -0.019678 17.000000
3.602935 -1.104781 -0.067988 24.000000
3.601438 -1.116421 -0.068044 30.000000
3.594180 -1.126270 -0.067933 26.000000
3.576412 -1.132768 -0.067517 34.000000
3.564351 -1.140995 -0.067267 46.000000
3.551322 -1.148851 -0.066989 49.000000
3.541129 -1.157569 -0.066795 55.000000
3.536611 -1.168115 -0.066767 46.000000
3.524476 -1.176114 -0.066518 38.000000
3.516115 -1.185326 -0.066379 61.000000
3.509623 -1.195142 -0.066296 64.000000
3.490813 -1.200707 -0.065852 60.000000
3.424786 -1.189780 -0.064020 34.000000
3.373008 -1.183420 -0.062605 30.000000
3.345803 -1.185424 -0.061912 42.000000
3.321442 -1.188282 -0.061301 42.000000
3.303677 -1.193377 -0.060885 46.000000
3.290608 -1.200086 -0.060608 35.000000
3.282219 -1.208450 -0.060469 38.000000
3.274748 -1.217122 -0.060358 36.000000
3.268191 -1.226111 -0.060275 51.000000
3.260674 -1.234717 -0.060164 55.000000
3.250333 -1.242219 -0.059969 30.000000
3.251171 -1.253982 -0.060108 43.000000
3.246377 -1.263589 -0.060080 31.000000
3.239693 -1.272447 -0.059997 29.000000
3.244139 -1.285692 -0.060247 40.000000
3.242036 -1.296381 -0.060302 34.000000
3.241752 -1.307816 -0.060413 44.000000
3.245132 -1.320767 -0.060635 42.000000
3.246614 -1.332993 -0.060802 26.000000
3.250822 -1.346387 -0.061051 34.000000
3.257746 -1.360974 -0.061384 29.000000
3.256319 -1.372126 -0.061468 40.000000
3.254854 -1.383282 -0.061551 39.000000
3.254271 -1.394835 -0.061662 35.000000
3.223363 -1.393319 -0.060857 16.000000
3.591519 -1.112752 -0.114855 15.000000
3.577600 -1.120479 -0.114412 24.000000
3.583671 -1.134467 -0.114815 27.000000
3.564948 -1.140582 -0.114170 33.000000
3.551925 -1.148439 -0.113767 43.000000
3.546485 -1.158710 -0.113686 40.000000
3.535323 -1.167079 -0.113364 46.000000
3.528883 -1.176971 -0.113243 40.000000
3.520521 -1.186196 -0.113041 40.000000
3.511190 -1.195059 -0.112799 36.000000
3.506562 -1.205500 -0.112759 42.000000
3.495296 -1.213630 -0.112437 49.000000
3.478356 -1.219718 -0.111872 48.000000
3.468005 -1.228048 -0.111590 65.000000
3.437878 -1.229259 -0.110462 47.000000
3.408716 -1.230637 -0.109373 48.000000
3.364560 -1.226371 -0.107640 38.000000
3.315773 -1.220120 -0.105706 52.000000
3.297028 -1.224718 -0.105061 47.000000
3.282964 -1.230968 -0.104617 34.000000
3.267958 -1.236789 -0.104134 46.000000
3.263215 -1.246452 -0.104093 33.000000
3.260308 -1.256817 -0.104134 34.000000
3.263886 -1.269713 -0.104456 41.000000
3.260906 -1.280085 -0.104496 47.000000
3.261607 -1.291924 -0.104698 38.000000
3.259484 -1.302666 -0.104779 24.000000
3.258252 -1.313781 -0.104899 39.000000
3.256057 -1.324525 -0.104980 35.000000
3.256600 -1.336405 -0.105182 38.000000
3.245100 -1.343331 -0.104859 32.000000
3.261247 -1.361753 -0.105746 17.000000
3.593286 -1.103192 -0.159985 23.000000
3.576530 -1.110071 -0.159253 23.000000
3.565484 -1.118649 -0.158834 34.000000
3.555372 -1.127471 -0.158468 53.000000
3.551896 -1.138374 -0.158468 48.000000
3.536985 -1.145576 -0.157840 42.000000
3.534403 -1.156733 -0.157892 70.000000
3.530837 -1.167571 -0.157892 73.000000
3.517766 -1.175236 -0.157369 52.000000
3.505627 -1.183152 -0.156897 43.000000
3.501035 -1.193579 -0.156845 42.000000
3.495469 -1.203665 -0.156740 25.000000
3.487986 -1.213072 -0.156531 31.000000
3.472940 -1.219800 -0.155903 29.000000
3.468240 -1.230115 -0.155851 31.000000
3.461629 -1.239741 -0.155694 45.000000
3.452174 -1.248320 -0.155380 39.000000
3.442699 -1.256852 -0.155066 47.000000
3.429456 -1.263957 -0.154542 48.000000
3.403096 -1.266123 -0.153286 39.000000
3.369276 -1.265332 -0.151612 30.000000
3.327088 -1.261163 -0.149466 38.000000
3.308278 -1.265660 -0.148628 41.000000
3.293199 -1.271491 -0.148000 37.000000
3.299520 -1.285573 -0.148576 32.000000
3.304855 -1.299341 -0.149099 37.000000
3.331489 -1.321616 -0.150827 24.000000
3.337619 -1.335909 -0.151402 30.000000
3.400183 -1.373044 -0.155170 27.000000
3.413529 -1.390622 -0.156165 24.000000
3.444351 -1.415502 -0.158154 16.000000
3.594136 -1.101489 -0.206547 21.000000
3.574535 -1.107488 -0.205447 21.000000
3.556837 -1.113974 -0.204476 48.000000
3.547695 -1.123074 -0.204088 44.000000
3.532827 -1.130302 -0.203311 45.000000
3.526495 -1.140214 -0.203117 50.000000
3.519186 -1.149788 -0.202858 44.000000
3.510904 -1.159015 -0.202535 70.000000
3.508278 -1.170096 -0.202599 63.000000
3.501835 -1.179898 -0.202405 58.000000
3.497254 -1.190314 -0.202341 49.000000
3.491698 -1.200389 -0.202211 49.000000
3.484228 -1.209786 -0.201952 47.000000
3.477676 -1.219479 -0.201758 57.000000
3.476740 -1.231142 -0.201952 69.000000
3.472007 -1.241467 -0.201888 85.000000
3.471936 -1.253469 -0.202147 39.000000
3.469949 -1.264798 -0.202276 35.000000
3.468862 -1.276472 -0.202470 36.000000
3.468671 -1.288499 -0.202729 47.000000
3.462833 -1.298433 -0.202599 34.000000
3.457900 -1.308698 -0.202535 70.000000
3.463190 -1.322862 -0.203182 108.000000
3.444218 -1.327736 -0.202147 54.000000
3.432689 -1.335401 -0.201629 39.000000
3.435078 -1.348480 -0.202082 45.000000
3.442985 -1.363791 -0.202923 52.000000
3.447124 -1.377681 -0.203505 42.000000
3.452136 -1.391983 -0.204152 41.000000
3.458016 -1.406705 -0.204864 41.000000
3.475840 -1.426402 -0.206417 28.000000
3.462228 -1.433241 -0.205770 6.000000
3.548600 -1.089488 -0.247587 27.000000
3.542383 -1.099484 -0.247358 24.000000
3.534236 -1.108856 -0.246975 28.000000
3.528917 -1.119091 -0.246822 29.000000
3.517870 -1.127480 -0.246209 37.000000
3.512497 -1.137654 -0.246056 47.000000
3.505200 -1.147185 -0.245750 48.000000
3.495983 -1.156057 -0.245291 65.000000
3.491474 -1.166462 -0.245214 52.000000
3.487879 -1.177168 -0.245214 48.000000
3.479532 -1.186256 -0.244832 32.000000
3.479648 -1.198223 -0.245138 45.000000
3.474072 -1.208238 -0.244985 39.000000
3.477875 -1.221531 -0.245597 66.000000
3.476931 -1.233195 -0.245827 42.000000
3.474070 -1.244192 -0.245903 50.000000
3.468360 -1.254167 -0.245750 47.000000
3.464497 -1.264802 -0.245750 48.000000
3.462471 -1.276114 -0.245903 53.000000
3.457605 -1.286383 -0.245827 42.000000
3.449908 -1.295584 -0.245520 37.000000
3.459904 -1.311458 -0.246669 87.000000
3.451208 -1.320287 -0.246286 67.000000
3.447141 -1.330869 -0.246286 66.000000
3.446758 -1.342885 -0.246592 56.000000
3.442622 -1.353453 -0.246592 36.000000
3.447722 -1.367682 -0.247358 29.000000
3.447213 -1.379734 -0.247664 36.000000
3.453135 -1.394407 -0.248506 29.000000
3.451612 -1.406122 -0.248735 41.000000
3.448204 -1.417084 -0.248812 26.000000
3.452131 -1.431090 -0.249501 19.000000
3.554269 -1.078698 -0.293256 16.000000
3.568082 -1.094858 -0.294853 33.000000
3.558047 -1.103733 -0.294232 35.000000
3.559396 -1.116135 -0.294676 19.000000
3.526521 -1.117717 -0.291925 57.000000
3.517385 -1.126707 -0.291393 65.000000
3.508225 -1.135652 -0.290861 45.000000
3.499045 -1.144551 -0.290328 45.000000
3.492680 -1.154343 -0.290062 56.000000
3.485343 -1.163790 -0.289707 55.000000
3.485531 -1.175752 -0.290062 63.000000
3.485679 -1.187725 -0.290417 42.000000
3.482019 -1.198413 -0.290417 59.000000
3.487733 -1.212362 -0.291304 47.000000
3.491516 -1.225697 -0.292014 48.000000
3.493372 -1.238400 -0.292546 53.000000
3.501747 -1.253477 -0.293700 133.000000
3.487581 -1.260489 -0.292724 38.000000
3.492119 -1.274257 -0.293522 43.000000
3.504081 -1.290819 -0.295031 81.000000
3.482367 -1.294966 -0.293345 45.000000
3.482108 -1.307044 -0.293700 70.000000
3.473424 -1.315955 -0.293256 58.000000
3.468440 -1.326250 -0.293168 65.000000
3.460638 -1.335450 -0.292813 55.000000
3.451884 -1.344253 -0.292369 58.000000
3.448671 -1.355201 -0.292458 54.000000
3.449126 -1.367611 -0.292901 51.000000
3.452312 -1.381147 -0.293611 42.000000
3.452677 -1.393597 -0.294055 51.000000
3.457610 -1.407940 -0.294942 25.000000
3.460644 -1.421570 -0.295652 26.000000
3.471909 -1.438664 -0.297160 13.000000
3.557626 -1.079649 -0.340516 18.000000
3.554297 -1.090559 -0.340516 23.000000
3.557587 -1.103519 -0.341225 36.000000
3.547539 -1.112347 -0.340516 31.000000
3.535573 -1.120523 -0.339605 25.000000
3.526433 -1.129546 -0.338998 38.000000
3.520112 -1.139441 -0.338694 39.000000
3.513762 -1.149309 -0.338390 45.000000
3.503607 -1.157900 -0.337682 41.000000
3.500038 -1.168644 -0.337682 33.000000
3.498322 -1.180011 -0.337884 30.000000
3.496568 -1.191380 -0.338087 41.000000
3.497601 -1.203719 -0.338593 39.000000
3.502350 -1.217381 -0.339504 42.000000
3.503293 -1.229766 -0.340010 37.000000
3.511694 -1.244825 -0.341326 41.000000
3.514416 -1.257938 -0.342035 59.000000
3.535806 -1.277836 -0.344768 175.000000
3.501958 -1.277775 -0.341529 68.000000
3.490552 -1.285764 -0.340719 35.000000
3.477265 -1.293002 -0.339706 54.000000
3.470488 -1.302617 -0.339403 46.000000
3.460892 -1.311145 -0.338795 51.000000
3.456853 -1.321756 -0.338795 46.000000
3.446284 -1.329851 -0.338087 37.000000
3.437552 -1.338614 -0.337581 43.000000
3.437133 -1.350608 -0.337985 42.000000
3.438523 -1.363345 -0.338593 36.000000
3.441715 -1.376842 -0.339403 37.000000
3.438397 -1.387766 -0.339504 46.000000
3.452554 -1.405807 -0.341529 29.000000
3.497925 -1.436789 -0.346995 14.000000
3.507288 -1.453222 -0.348513 11.000000
3.563706 -1.104810 -0.386460 29.000000
3.556507 -1.114550 -0.386008 40.000000
3.552124 -1.125155 -0.385895 63.000000
3.542032 -1.133927 -0.385104 55.000000
3.530028 -1.142035 -0.384087 50.000000
3.515176 -1.149153 -0.382730 62.000000
3.506916 -1.158374 -0.382165 55.000000
3.500519 -1.168183 -0.381826 46.000000
3.501626 -1.180505 -0.382391 52.000000
3.504571 -1.193485 -0.383182 36.000000
3.510288 -1.207464 -0.384313 43.000000
3.518768 -1.222468 -0.385782 50.000000
3.524376 -1.236548 -0.386912 37.000000
3.531804 -1.251338 -0.388269 40.000000
3.538239 -1.265850 -0.389512 43.000000
3.554897 -1.284128 -0.391999 159.000000
3.529472 -1.287196 -0.389399 51.000000
3.518980 -1.295615 -0.388608 54.000000
3.501019 -1.301211 -0.386912 45.000000
3.489568 -1.309153 -0.386008 42.000000
3.474385 -1.315629 -0.384652 37.000000
3.461052 -1.322734 -0.383522 55.000000
3.456050 -1.332989 -0.383409 51.000000
3.452870 -1.343946 -0.383522 42.000000
3.453355 -1.356349 -0.384087 60.000000
3.455643 -1.369501 -0.384878 59.000000
3.456960 -1.382310 -0.385556 50.000000
3.459153 -1.395512 -0.386347 51.000000
3.467739 -1.411363 -0.387930 23.000000
3.472584 -1.425771 -0.389060 21.000000
3.491141 -1.445925 -0.391886 9.000000
3.552538 -1.101955 -0.431713 17.000000
3.565235 -1.117890 -0.433844 23.000000
3.555168 -1.126727 -0.432967 35.000000
3.549804 -1.137024 -0.432716 37.000000
3.543467 -1.146993 -0.432340 47.000000
3.534273 -1.156011 -0.431588 49.000000
3.529768 -1.166537 -0.431463 52.000000
3.522408 -1.176105 -0.430961 42.000000
3.521604 -1.187856 -0.431337 36.000000
3.525456 -1.201212 -0.432340 43.000000
3.531137 -1.215248 -0.433593 35.000000
3.542387 -1.231283 -0.435599 34.000000
3.549828 -1.246085 -0.437103 42.000000
3.548794 -1.257963 -0.437479 33.000000
3.562667 -1.275192 -0.439860 41.000000
3.556872 -1.285442 -0.439609 126.000000
3.554776 -1.297028 -0.439860 50.000000
3.541469 -1.304501 -0.438607 48.000000
3.520710 -1.309142 -0.436351 41.000000
3.507387 -1.316453 -0.435097 54.000000
3.497765 -1.325100 -0.434345 28.000000
3.476074 -1.329099 -0.431964 40.000000
3.471054 -1.339400 -0.431839 68.000000
3.461381 -1.347884 -0.431087 37.000000
3.462770 -1.360673 -0.431839 25.000000
3.461347 -1.372386 -0.432215 49.000000
3.463569 -1.385576 -0.433092 42.000000
3.459302 -1.396196 -0.433092 36.000000
3.462354 -1.409793 -0.434095 33.000000
3.603569 -1.127928 -0.485586 27.000000
3.589704 -1.135690 -0.484074 31.000000
3.572051 -1.142172 -0.482013 40.000000
3.562875 -1.151297 -0.481188 48.000000
3.554619 -1.160685 -0.480501 52.000000
3.547279 -1.170343 -0.479951 38.000000
3.546490 -1.182160 -0.480363 48.000000
3.545663 -1.193984 -0.480776 44.000000
3.543859 -1.205494 -0.481050 37.000000
3.543890 -1.217649 -0.481600 47.000000
3.551367 -1.232414 -0.483250 35.000000
3.558786 -1.247236 -0.484899 31.000000
3.561479 -1.260462 -0.485861 38.000000
3.575316 -1.277718 -0.488472 17.000000
3.569516 -1.288008 -0.488198 23.000000
3.562756 -1.297936 -0.487785 38.000000
3.555038 -1.307492 -0.487235 37.000000
3.537082 -1.313220 -0.485174 36.000000
3.520980 -1.319545 -0.483387 48.000000
3.507651 -1.326836 -0.482013 40.000000
3.495235 -1.334410 -0.480776 56.000000
3.484656 -1.342634 -0.479813 38.000000
3.475904 -1.351523 -0.479126 37.000000
3.473586 -1.362904 -0.479401 51.000000
3.478597 -1.377202 -0.480776 36.000000
3.479874 -1.390073 -0.481600 45.000000
3.483861 -1.404075 -0.482837 31.000000
3.483207 -1.416250 -0.483387 33.000000
3.488010 -1.430689 -0.484761 8.000000
3.630581 -1.139050 -0.535546 8.000000
3.583708 -1.136447 -0.528683 32.000000
3.565137 -1.142613 -0.526296 33.000000
3.566319 -1.155067 -0.527042 27.000000
3.558059 -1.164466 -0.526296 45.000000
3.551653 -1.174447 -0.525848 50.000000
3.553660 -1.187216 -0.526744 40.000000
3.552812 -1.199060 -0.527191 28.000000
3.557541 -1.212823 -0.528534 41.000000
3.559414 -1.225662 -0.529429 40.000000
3.560307 -1.238199 -0.530175 44.000000
3.563023 -1.251408 -0.531219 46.000000
3.573147 -1.267286 -0.533457 39.000000
3.599035 -1.288902 -0.538231 15.000000
3.588272 -1.309945 -0.537784 22.000000
3.573101 -1.316847 -0.535993 29.000000
3.555141 -1.322636 -0.533755 43.000000
3.538106 -1.328674 -0.531667 48.000000
3.522916 -1.335320 -0.529877 47.000000
3.508643 -1.342239 -0.528235 74.000000
3.499895 -1.351218 -0.527489 54.000000
3.480990 -1.356210 -0.525102 22.000000
3.481415 -1.368690 -0.525848 49.000000
3.481795 -1.381187 -0.526594 35.000000
3.500494 -1.401041 -0.530324 26.000000
3.495263 -1.411403 -0.530175 32.000000
3.501907 -1.426593 -0.531965 18.000000
3.607676 -1.142068 -0.578882 14.000000
3.593815 -1.149822 -0.577110 22.000000
3.586514 -1.159627 -0.576465 28.000000
3.583878 -1.170931 -0.576626 27.000000
3.570897 -1.178826 -0.575016 47.000000
3.559774 -1.187277 -0.573727 58.000000
3.567338 -1.201976 -0.575660 44.000000
3.574845 -1.216732 -0.577593 39.000000
3.593494 -1.235397 -0.581459 32.000000
3.589687 -1.246415 -0.581459 38.000000
3.600747 -1.262649 -0.584037 22.000000
3.602438 -1.275668 -0.585003 32.000000
3.580955 -1.317733 -0.584037 43.000000
3.577821 -1.329057 -0.584198 30.000000
3.567258 -1.337601 -0.583070 26.000000
3.552984 -1.344695 -0.581298 29.000000
3.539623 -1.352067 -0.579687 37.000000
3.529012 -1.360434 -0.578560 43.000000
3.515625 -1.367675 -0.576949 50.000000
3.510493 -1.378094 -0.576788 45.000000
3.505331 -1.388494 -0.576626 41.000000
3.501971 -1.399608 -0.576788 35.000000
3.519628 -1.419206 -0.580654 28.000000
3.562793 -1.449340 -0.589030 9.000000
3.615930 -1.158874 -0.627849 25.000000
3.609546 -1.169053 -0.627330 38.000000
3.604070 -1.179509 -0.626985 27.000000
3.590147 -1.187162 -0.625082 32.000000
3.565000 -1.191000 -0.621104 25.000000
3.578128 -1.207595 -0.624217 41.000000
3.580933 -1.220790 -0.625428 56.000000
3.586484 -1.234974 -0.627158 86.000000
3.582679 -1.245972 -0.627158 41.000000
3.581628 -1.257936 -0.627676 27.000000
3.593335 -1.324298 -0.633557 17.000000
3.574484 -1.329825 -0.630790 42.000000
3.561166 -1.337326 -0.629060 44.000000
3.548757 -1.345105 -0.627503 66.000000
3.533573 -1.351767 -0.625428 63.000000
3.521139 -1.359411 -0.623871 38.000000
3.516033 -1.369851 -0.623698 32.000000
3.516398 -1.382432 -0.624563 39.000000
3.525875 -1.398656 -0.627158 29.000000
3.527969 -1.412027 -0.628368 23.000000
3.545542 -1.431688 -0.632519 17.000000
3.656059 -1.158789 -0.680691 16.000000
3.635639 -1.164601 -0.677370 34.000000
3.634854 -1.176658 -0.677924 39.000000
3.629359 -1.187193 -0.677555 36.000000
3.620100 -1.196471 -0.676448 61.000000
3.617345 -1.207883 -0.676632 47.000000
3.610828 -1.218032 -0.676079 51.000000
3.609865 -1.230056 -0.676632 52.000000
3.615368 -1.244324 -0.678477 41.000000
3.603179 -1.252505 -0.676817 46.000000
3.613229 -1.268438 -0.679584 44.000000
3.613025 -1.280831 -0.680322 17.000000
3.587426 -1.334046 -0.679215 37.000000
3.575036 -1.341936 -0.677555 38.000000
3.571821 -1.353246 -0.677739 32.000000
3.552965 -1.358580 -0.674788 37.000000
3.548780 -1.369474 -0.674788 38.000000
3.548225 -1.381782 -0.675526 41.000000
3.543969 -1.392661 -0.675526 40.000000
3.540593 -1.403890 -0.675710 50.000000
3.534445 -1.414015 -0.675341 52.000000
3.531912 -1.425588 -0.675710 33.000000
3.543906 -1.443091 -0.679030 15.000000
3.639076 -1.153987 -0.724205 24.000000
3.630849 -1.163651 -0.723224 37.000000
3.626329 -1.174483 -0.723028 34.000000
3.620844 -1.184993 -0.722636 27.000000
