ply
format ascii 1.0
element vertex 1249
property float x
property float y
property float z
property float intensity
end_header
3.311965 -1.528438 0.605559 25.000000
3.310843 -1.540259 0.606179 36.000000
3.307891 -1.551248 0.606489 29.000000
3.309368 -1.564346 0.607573 24.000000
3.304553 -1.574491 0.607573 33.000000
3.302379 -1.585905 0.608037 27.000000
3.301944 -1.598182 0.608812 11.000000
3.447753 -0.773444 0.544339 12.000000
3.440538 -0.782922 0.543624 17.000000
3.435226 -0.792807 0.543195 19.000000
3.430851 -0.802892 0.542909 16.000000
3.418741 -0.811132 0.541479 20.000000
3.416236 -0.821617 0.541479 25.000000
3.419469 -0.833498 0.542337 15.000000
3.418818 -0.844459 0.542623 27.000000
3.424853 -0.857103 0.543910 42.000000
3.427004 -0.868821 0.544625 24.000000
3.431033 -0.881052 0.545626 38.000000
3.426398 -0.891077 0.545340 30.000000
3.420777 -0.900829 0.544911 32.000000
3.412259 -0.909792 0.544053 31.000000
3.400851 -0.917938 0.542766 30.000000
3.396109 -0.927846 0.542480 29.000000
3.389430 -0.937207 0.541908 30.000000
3.388445 -0.948134 0.542194 40.000000
3.389330 -0.959602 0.542766 24.000000
3.394934 -0.972446 0.544053 35.000000
3.398590 -0.984783 0.545054 46.000000
3.401252 -0.996873 0.545912 33.000000
3.396280 -1.006742 0.545626 34.000000
3.396019 -1.018008 0.546055 26.000000
3.391933 -1.028136 0.545912 36.000000
3.391602 -1.039406 0.546340 27.000000
3.386506 -1.049221 0.546055 24.000000
3.377603 -1.057833 0.545197 32.000000
3.368680 -1.066400 0.544339 26.000000
3.371049 -1.078538 0.545197 27.000000
3.365841 -1.088266 0.544911 23.000000
3.363427 -1.098895 0.545054 31.000000
3.356280 -1.107969 0.544482 31.000000
3.355682 -1.119199 0.544911 26.000000
3.359737 -1.132014 0.546055 21.000000
3.361870 -1.144228 0.546912 39.000000
3.358344 -1.154537 0.546912 29.000000
3.360397 -1.166780 0.547770 34.000000
3.360538 -1.178393 0.548342 20.000000
3.361572 -1.190348 0.549057 38.000000
3.364428 -1.202986 0.550058 34.000000
3.361653 -1.213638 0.550201 36.000000
3.359774 -1.224623 0.550487 36.000000
3.360645 -1.236632 0.551202 32.000000
3.356836 -1.246937 0.551202 31.000000
3.357629 -1.258965 0.551916 40.000000
3.351899 -1.268561 0.551630 48.000000
3.343368 -1.277074 0.550916 37.000000
3.341281 -1.288036 0.551202 26.000000
3.340081 -1.299357 0.551630 30.000000
3.336079 -1.309598 0.551630 30.000000
3.329285 -1.318734 0.551202 23.000000
3.321546 -1.327474 0.550630 30.000000
3.320213 -1.338768 0.551059 43.000000
3.317006 -1.349320 0.551202 32.000000
3.314683 -1.360241 0.551488 35.000000
3.307750 -1.369269 0.551059 31.000000
3.298967 -1.377506 0.550344 37.000000
3.299286 -1.389540 0.551059 21.000000
3.294096 -1.399269 0.550916 29.000000
3.289788 -1.409368 0.550916 15.000000
3.290901 -1.421808 0.551773 26.000000
3.287431 -1.432292 0.551916 32.000000
3.288459 -1.444758 0.552774 27.000000
3.292156 -1.458446 0.554061 24.000000
3.291281 -1.470152 0.554633 20.000000
3.292171 -1.482680 0.555491 28.000000
3.289409 -1.493591 0.555777 24.000000
3.289312 -1.505734 0.556492 30.000000
3.288272 -1.517476 0.557064 28.000000
3.283601 -1.527557 0.557064 26.000000
3.279795 -1.538044 0.557207 36.000000
3.276851 -1.548944 0.557492 25.000000
3.272977 -1.559415 0.557635 27.000000
3.272639 -1.571590 0.558350 21.000000
3.267802 -1.581623 0.558350 12.000000
3.264714 -1.592508 0.558636 11.000000
3.453516 -0.774721 0.501940 9.000000
3.408591 -0.775630 0.496174 18.000000
3.401365 -0.784968 0.495519 25.000000
3.399906 -0.795626 0.495650 27.000000
3.399378 -0.806511 0.495912 23.000000
3.396888 -0.816936 0.495912 23.000000
3.398218 -0.828293 0.496437 36.000000
3.400473 -0.839904 0.497092 40.000000
3.398842 -0.850574 0.497223 35.000000
3.405826 -0.863434 0.498533 40.000000
3.405082 -0.874373 0.498795 47.000000
3.400464 -0.884316 0.498533 29.000000
3.394859 -0.893986 0.498140 29.000000
3.389227 -0.903631 0.497747 34.000000
3.376868 -0.911440 0.496437 40.000000
3.372143 -0.921273 0.496174 30.000000
3.366434 -0.930822 0.495781 23.000000
3.366426 -0.941947 0.496174 41.000000
3.363521 -0.952271 0.496174 33.000000
3.363443 -0.963405 0.496568 28.000000
3.358567 -0.973167 0.496305 42.000000
3.360322 -0.984861 0.496961 46.000000
3.357285 -0.995166 0.496961 28.000000
3.351367 -1.004607 0.496568 33.000000
3.347320 -1.014596 0.496437 31.000000
3.347983 -1.026023 0.496961 35.000000
3.348607 -1.037464 0.497485 30.000000
3.350139 -1.049214 0.498140 46.000000
3.347849 -1.059787 0.498271 30.000000
3.353080 -1.072773 0.499451 41.000000
3.352602 -1.083970 0.499844 35.000000
3.355858 -1.096406 0.500761 30.000000
3.350595 -1.106075 0.500499 36.000000
3.348126 -1.116663 0.500630 41.000000
3.348443 -1.128196 0.501154 32.000000
3.342150 -1.137505 0.500761 32.000000
3.332082 -1.145497 0.499844 32.000000
3.330425 -1.156365 0.500106 35.000000
3.324991 -1.165920 0.499844 41.000000
3.322333 -1.176447 0.499975 32.000000
3.318708 -1.186634 0.499975 47.000000
3.315052 -1.196810 0.499975 33.000000
3.314158 -1.207994 0.500368 35.000000
3.322531 -1.222608 0.502071 36.000000
3.315977 -1.231759 0.501678 34.000000
3.316823 -1.243668 0.502334 31.000000
3.319482 -1.256295 0.503251 35.000000
3.315613 -1.266473 0.503251 23.000000
3.313561 -1.277353 0.503513 35.000000
3.310551 -1.287872 0.503644 41.000000
3.305661 -1.297660 0.503513 34.000000
3.304430 -1.308891 0.503906 43.000000
3.300398 -1.319023 0.503906 38.000000
3.295417 -1.328771 0.503775 32.000000
3.293161 -1.339622 0.504037 28.000000
3.290870 -1.350472 0.504299 24.000000
3.285795 -1.360183 0.504168 33.000000
3.279777 -1.369493 0.503906 23.000000
3.276474 -1.379934 0.504037 38.000000
3.275875 -1.391530 0.504561 26.000000
3.275235 -1.403136 0.505085 29.000000
3.274555 -1.414751 0.505610 34.000000
3.273834 -1.426375 0.506134 19.000000
3.273073 -1.438007 0.506658 28.000000
3.276803 -1.451657 0.507837 29.000000
3.275955 -1.463321 0.508362 29.000000
3.273258 -1.474179 0.508624 33.000000
3.270525 -1.485034 0.508886 27.000000
3.269559 -1.496712 0.509410 38.000000
3.264052 -1.506320 0.509279 18.000000
3.257617 -1.515491 0.509017 34.000000
3.252953 -1.525478 0.509017 31.000000
3.249154 -1.535874 0.509148 39.000000
3.246216 -1.546688 0.509410 32.000000
3.241456 -1.556640 0.509410 29.000000
3.241126 -1.568738 0.510065 19.000000
3.233625 -1.577370 0.509672 29.000000
3.252791 -1.599095 0.513210 10.000000
3.415086 -0.743528 0.452912 16.000000
3.406971 -0.752719 0.452199 30.000000
3.398832 -0.761866 0.451485 34.000000
3.399384 -0.772950 0.451842 52.000000
3.394093 -0.782707 0.451485 59.000000
3.385875 -0.791762 0.450772 48.000000
3.370869 -0.799172 0.449226 33.000000
3.378056 -0.811827 0.450415 51.000000
3.375550 -0.822187 0.450415 34.000000
3.373011 -0.832539 0.450415 40.000000
3.373331 -0.843605 0.450772 47.000000
3.378428 -0.855899 0.451723 19.000000
3.367130 -0.864041 0.450653 24.000000
3.372152 -0.876363 0.451604 47.000000
3.361765 -0.884685 0.450653 28.000000
3.354237 -0.893718 0.450058 36.000000
3.348603 -0.903230 0.449701 43.000000
3.342942 -0.912715 0.449345 33.000000
3.341084 -0.923231 0.449464 37.000000
3.343973 -0.935080 0.450177 34.000000
3.337267 -0.944254 0.449701 20.000000
3.343901 -0.957218 0.450891 39.000000
3.339995 -0.967196 0.450772 29.000000
3.337965 -0.977718 0.450891 47.000000
3.335901 -0.988235 0.451010 38.000000
3.330951 -0.997896 0.450772 52.000000
3.323123 -1.006673 0.450177 33.000000
3.321917 -1.017444 0.450415 28.000000
3.314037 -1.026164 0.449820 37.000000
3.315612 -1.037808 0.450415 41.000000
3.312412 -1.047975 0.450415 40.000000
3.316748 -1.060549 0.451366 39.000000
3.321983 -1.073465 0.452437 26.000000
3.323394 -1.085191 0.453031 34.000000
3.325707 -1.097246 0.453745 35.000000
3.323267 -1.107758 0.453864 29.000000
3.321735 -1.118582 0.454102 30.000000
3.317348 -1.128448 0.453983 39.000000
3.310113 -1.137331 0.453507 42.000000
3.304732 -1.146830 0.453269 39.000000
3.298387 -1.155979 0.452912 33.000000
3.290144 -1.164438 0.452318 41.000000
3.287492 -1.174861 0.452437 32.000000
3.285740 -1.185614 0.452674 39.000000
3.286752 -1.197387 0.453269 48.000000
3.286791 -1.208835 0.453745 47.000000
3.283998 -1.219258 0.453864 33.000000
3.283961 -1.230720 0.454339 33.000000
3.286672 -1.243246 0.455172 42.000000
3.284698 -1.254031 0.455410 40.000000
3.280834 -1.264103 0.455410 24.000000
3.284345 -1.277038 0.456361 50.000000
3.281336 -1.287471 0.456480 30.000000
3.281064 -1.298993 0.456956 46.000000
3.276141 -1.308685 0.456837 35.000000
3.265663 -1.316134 0.456004 49.000000
3.265290 -1.327641 0.456480 35.000000
3.261201 -1.337653 0.456480 45.000000
3.254329 -1.346514 0.456123 36.000000
3.255682 -1.358784 0.456837 46.000000
3.254243 -1.369921 0.457194 37.000000
3.252767 -1.381062 0.457550 22.000000
3.253992 -1.393378 0.458264 36.000000
3.248791 -1.402961 0.458145 29.000000
3.245381 -1.413318 0.458264 25.000000
3.244667 -1.424863 0.458740 28.000000
3.240280 -1.434811 0.458740 30.000000
3.245838 -1.449195 0.460048 28.000000
3.243187 -1.459961 0.460286 35.000000
3.242310 -1.471544 0.460761 35.000000
3.245907 -1.485200 0.461832 49.000000
3.243139 -1.495982 0.462069 28.000000
3.238534 -1.505925 0.462069 33.000000
3.234798 -1.516275 0.462188 36.000000
3.226539 -1.524496 0.461713 34.000000
3.219157 -1.533108 0.461356 32.000000
3.209067 -1.540401 0.460642 27.000000
3.207902 -1.551967 0.461118 20.000000
3.206696 -1.563541 0.461594 36.000000
3.202775 -1.573809 0.461713 43.000000
3.205941 -1.587591 0.462783 31.000000
3.205498 -1.599635 0.463378 35.000000
3.206786 -1.612582 0.464210 33.000000
3.214225 -1.628691 0.465875 31.000000
3.432481 -0.747284 0.411762 11.000000
3.391338 -0.749227 0.407491 26.000000
3.378352 -0.757235 0.406316 40.000000
3.376982 -0.767817 0.406423 36.000000
3.366860 -0.776385 0.405569 28.000000
3.360590 -0.785805 0.405142 40.000000
3.350423 -0.794276 0.404288 30.000000
3.348938 -0.804783 0.404394 28.000000
3.350317 -0.815995 0.404821 35.000000
3.345867 -0.825794 0.404608 41.000000
3.341389 -0.835572 0.404394 40.000000
3.338810 -0.845819 0.404394 30.000000
3.335236 -0.855811 0.404288 27.000000
3.340293 -0.868041 0.405142 26.000000
3.337614 -0.878285 0.405142 46.000000
3.330100 -0.887240 0.404608 28.000000
3.330242 -0.898230 0.404928 42.000000
3.328430 -0.908704 0.405035 28.000000
3.321793 -0.917852 0.404608 31.000000
3.324706 -0.929646 0.405249 35.000000
3.318969 -0.939029 0.404928 39.000000
3.317028 -0.949481 0.405035 35.000000
3.317920 -0.960760 0.405462 32.000000
3.315911 -0.971214 0.405569 37.000000
3.311962 -0.981100 0.405462 29.000000
3.312746 -0.992398 0.405889 37.000000
3.306831 -1.001692 0.405569 29.000000
3.303743 -1.011832 0.405569 37.000000
3.303472 -1.022846 0.405889 26.000000
3.303165 -1.033867 0.406210 39.000000
3.299978 -1.043996 0.406210 43.000000
3.298653 -1.054721 0.406423 52.000000
3.300132 -1.066366 0.406957 41.000000
3.294955 -1.075868 0.406744 41.000000
3.290694 -1.085660 0.406637 48.000000
3.285462 -1.095121 0.406423 40.000000
3.280202 -1.104561 0.406210 43.000000
3.277739 -1.114940 0.406316 48.000000
3.272423 -1.124344 0.406103 40.000000
3.270836 -1.135031 0.406316 50.000000
3.275783 -1.148021 0.407278 38.000000
3.264748 -1.155411 0.406423 24.000000
3.273359 -1.169772 0.407811 40.000000
3.270690 -1.180147 0.407918 26.000000
3.267054 -1.190176 0.407918 23.000000
3.268053 -1.201910 0.408452 35.000000
3.261554 -1.210892 0.408132 34.000000
3.256892 -1.220543 0.408025 38.000000
3.255922 -1.231585 0.408345 50.000000
3.247484 -1.239795 0.407811 40.000000
3.246449 -1.250825 0.408132 36.000000
3.245376 -1.261860 0.408452 33.000000
3.239638 -1.271084 0.408239 41.000000
3.239421 -1.282482 0.408666 47.000000
3.236395 -1.292783 0.408772 34.000000
3.236102 -1.304193 0.409200 38.000000
3.236690 -1.315988 0.409734 40.000000
3.239996 -1.328931 0.410588 26.000000
3.234986 -1.338485 0.410481 35.000000
3.234534 -1.349936 0.410908 39.000000
3.232210 -1.360625 0.411122 32.000000
3.233511 -1.372867 0.411762 33.000000
3.231112 -1.383563 0.411976 23.000000
3.233242 -1.396230 0.412724 34.000000
3.232589 -1.407731 0.413151 36.000000
3.227345 -1.417242 0.413044 29.000000
3.224800 -1.427942 0.413257 32.000000
3.224035 -1.439451 0.413685 25.000000
3.218697 -1.448927 0.413578 26.000000
3.211520 -1.457562 0.413257 36.000000
3.209746 -1.468649 0.413578 38.000000
3.207031 -1.479323 0.413791 43.000000
3.207886 -1.491671 0.414432 32.000000
3.210497 -1.504882 0.415286 31.000000
3.206764 -1.515149 0.415393 27.000000
3.200305 -1.524125 0.415180 40.000000
3.200992 -1.536519 0.415820 32.000000
3.189103 -1.542867 0.414966 20.000000
3.172737 -1.546978 0.413578 15.000000
3.178684 -1.561967 0.414859 26.000000
3.166749 -1.568182 0.414005 16.000000
3.173488 -1.583662 0.415393 23.000000
3.161508 -1.589817 0.414539 9.000000
3.334253 -0.758773 0.360925 21.000000
3.332880 -0.769222 0.361020 19.000000
3.332443 -0.779897 0.361210 15.000000
3.322285 -0.788281 0.360450 33.000000
3.319851 -0.798470 0.360450 20.000000
3.316419 -0.808416 0.360355 25.000000
3.316822 -0.819302 0.360640 31.000000
3.313327 -0.829232 0.360545 46.000000
3.309803 -0.839149 0.360450 32.000000
3.305284 -0.848805 0.360260 37.000000
3.304592 -0.859442 0.360450 30.000000
3.299051 -0.868817 0.360165 28.000000
3.299256 -0.879703 0.360450 37.000000
3.296541 -0.889820 0.360450 49.000000
3.290915 -0.899144 0.360165 44.000000
3.287181 -0.908971 0.360070 38.000000
3.287253 -0.919855 0.360355 39.000000
3.285374 -0.930207 0.360450 37.000000
3.285376 -0.941103 0.360735 37.000000
3.282473 -0.951178 0.360735 38.000000
3.281450 -0.961804 0.360925 25.000000
3.279438 -0.972149 0.361020 36.000000
3.278348 -0.982777 0.361210 38.000000
3.277223 -0.993407 0.361400 34.000000
3.277967 -1.004622 0.361780 30.000000
3.268213 -1.012614 0.361115 50.000000
3.266041 -1.022933 0.361210 29.000000
3.263836 -1.033249 0.361305 42.000000
3.260651 -1.043257 0.361305 43.000000
3.262172 -1.054785 0.361780 33.000000
3.258920 -1.064789 0.361780 42.000000
3.252802 -1.073846 0.361495 29.000000
3.257992 -1.086653 0.362350 33.000000
3.256530 -1.097278 0.362540 38.000000
3.254091 -1.107584 0.362635 29.000000
3.245970 -1.115946 0.362160 32.000000
3.245352 -1.126878 0.362445 21.000000
3.244698 -1.137816 0.362730 38.000000
3.238377 -1.146770 0.362445 41.000000
3.238593 -1.158039 0.362825 43.000000
3.234089 -1.167632 0.362730 33.000000
3.229556 -1.177207 0.362635 38.000000
3.227798 -1.187797 0.362825 42.000000
3.218539 -1.195616 0.362255 33.000000
3.215788 -1.205834 0.362350 27.000000
3.216729 -1.217455 0.362825 39.000000
3.210188 -1.226253 0.362540 40.000000
3.212914 -1.238600 0.363204 38.000000
3.216522 -1.251336 0.363964 33.000000
3.214521 -1.261925 0.364154 38.000000
3.220816 -1.275811 0.365199 39.000000
3.217812 -1.286055 0.365294 37.000000
3.215698 -1.296665 0.365484 33.000000
3.215393 -1.308024 0.365864 39.000000
3.208602 -1.316750 0.365579 37.000000
3.209147 -1.328490 0.366054 33.000000
3.205975 -1.338712 0.366149 45.000000
3.198182 -1.346997 0.365769 35.000000
3.197700 -1.358358 0.366149 47.000000
3.193518 -1.368162 0.366149 35.000000
3.194789 -1.380321 0.366719 37.000000
3.193277 -1.391307 0.367004 33.000000
3.184436 -1.399097 0.366529 34.000000
3.181039 -1.409263 0.366624 45.000000
3.177610 -1.419422 0.366719 25.000000
3.175963 -1.430389 0.367004 30.000000
3.167934 -1.438481 0.366624 41.000000
3.168032 -1.450264 0.367099 28.000000
3.169896 -1.462894 0.367763 35.000000
3.169004 -1.474291 0.368143 35.000000
3.166269 -1.484851 0.368333 40.000000
3.164399 -1.495833 0.368618 36.000000
3.157997 -1.504679 0.368428 28.000000
3.154263 -1.514791 0.368523 44.000000
3.150498 -1.524894 0.368618 43.000000
3.141330 -1.532372 0.368143 29.000000
3.141975 -1.544636 0.368713 28.000000
3.139898 -1.555593 0.368998 28.000000
3.141346 -1.568329 0.369663 23.000000
3.298312 -0.749920 0.314747 15.000000
3.303764 -0.761828 0.315407 26.000000
3.305293 -0.772868 0.315737 21.000000
3.302906 -0.783005 0.315737 22.000000
3.303395 -0.793834 0.315984 33.000000
3.301913 -0.804201 0.316066 33.000000
3.302333 -0.815044 0.316314 47.000000
3.296916 -0.824446 0.316066 31.000000
3.291473 -0.833822 0.315819 36.000000
3.282143 -0.842182 0.315242 32.000000
3.282437 -0.852999 0.315489 44.000000
3.280768 -0.863319 0.315572 39.000000
3.280030 -0.873894 0.315737 30.000000
3.279258 -0.884472 0.315901 48.000000
3.275568 -0.894266 0.315819 42.000000
3.270887 -0.903780 0.315654 44.000000
3.271938 -0.914885 0.315984 32.000000
3.268157 -0.924647 0.315901 47.000000
3.265305 -0.934669 0.315901 42.000000
3.260508 -0.944128 0.315737 59.000000
3.258552 -0.954407 0.315819 39.000000
3.256564 -0.964683 0.315901 41.000000
3.257408 -0.975814 0.316231 40.000000
3.255352 -0.986092 0.316314 36.000000
3.255171 -0.996950 0.316561 43.000000
3.251145 -1.006637 0.316479 32.000000
3.248041 -1.016607 0.316479 42.000000
3.244907 -1.026567 0.316479 43.000000
3.244590 -1.037428 0.316726 33.000000
3.247081 -1.049217 0.317221 56.000000
3.242900 -1.058864 0.317138 46.000000
3.235851 -1.067559 0.316809 36.000000
3.236342 -1.078742 0.317138 36.000000
3.230184 -1.087712 0.316891 33.000000
3.227775 -1.097938 0.316973 26.000000
3.227219 -1.108807 0.317221 49.000000
3.220036 -1.117396 0.316891 39.000000
3.220355 -1.128588 0.317221 36.000000
3.222513 -1.140458 0.317716 46.000000
3.216184 -1.149333 0.317468 32.000000
3.216393 -1.160548 0.317798 53.000000
3.209071 -1.169046 0.317468 42.000000
3.203599 -1.178197 0.317303 41.000000
3.202772 -1.189061 0.317551 50.000000
3.200975 -1.199581 0.317716 30.000000
3.200076 -1.210454 0.317963 31.000000
3.200072 -1.221688 0.318293 41.000000
3.200958 -1.233292 0.318705 32.000000
3.199946 -1.244190 0.318953 57.000000
3.197042 -1.254366 0.319035 41.000000
3.195031 -1.264902 0.319200 40.000000
3.186508 -1.272850 0.318788 47.000000
3.183512 -1.282992 0.318870 23.000000
3.183254 -1.294255 0.319200 41.000000
3.178346 -1.303637 0.319117 48.000000
3.179857 -1.315668 0.319612 39.000000
3.179484 -1.326954 0.319942 38.000000
3.175398 -1.336702 0.319942 53.000000
3.178621 -1.349554 0.320602 49.000000
3.175381 -1.359692 0.320684 30.000000
3.171195 -1.369428 0.320684 34.000000
3.166979 -1.379150 0.320684 40.000000
3.162733 -1.388860 0.320684 37.000000
3.154812 -1.396942 0.320354 53.000000
3.155061 -1.408646 0.320767 35.000000
3.149816 -1.417910 0.320684 49.000000
3.145451 -1.427567 0.320684 30.000000
3.137432 -1.435551 0.320354 39.000000
3.133918 -1.445588 0.320437 41.000000
3.129468 -1.455196 0.320437 36.000000
3.125891 -1.465213 0.320519 42.000000
3.122282 -1.475222 0.320602 34.000000
3.125839 -1.488652 0.321344 53.000000
3.128444 -1.501685 0.322004 38.000000
3.129205 -1.513881 0.322498 38.000000
3.131712 -1.526969 0.323158 40.000000
3.132379 -1.539207 0.323653 39.000000
3.124963 -1.547483 0.323405 23.000000
3.125551 -1.559734 0.323900 35.000000
3.109176 -1.563494 0.322828 20.000000
3.070586 -1.555904 0.319695 7.000000
3.235691 -0.737561 0.270040 11.000000
3.251880 -0.751747 0.271382 23.000000
3.255386 -0.763084 0.271805 35.000000
3.254971 -0.773528 0.271947 27.000000
3.256462 -0.784444 0.272229 25.000000
3.253071 -0.794194 0.272158 29.000000
3.251587 -0.804410 0.272229 26.000000
3.254910 -0.815835 0.272653 30.000000
3.250458 -0.825327 0.272512 23.000000
3.249843 -0.835792 0.272653 34.000000
3.252090 -0.847013 0.273006 43.000000
3.253335 -0.858003 0.273288 29.000000
3.256470 -0.869522 0.273712 31.000000
3.255713 -0.880028 0.273854 35.000000
3.252998 -0.890013 0.273854 34.000000
3.252175 -0.900520 0.273995 27.000000
3.244594 -0.909149 0.273642 32.000000
3.243709 -0.919643 0.273783 24.000000
3.245667 -0.930964 0.274136 28.000000
3.233215 -0.938140 0.273430 35.000000
3.231278 -0.948336 0.273500 38.000000
3.231223 -0.959096 0.273712 38.000000
3.229221 -0.969291 0.273783 30.000000
3.233869 -0.981508 0.274348 49.000000
3.231796 -0.991717 0.274419 35.000000
3.230644 -1.002218 0.274560 45.000000
3.231361 -1.013317 0.274842 29.000000
3.229188 -1.023527 0.274913 29.000000
3.221283 -1.031910 0.274560 31.000000
3.218102 -1.041788 0.274560 30.000000
3.215838 -1.051965 0.274630 26.000000
3.208807 -1.060576 0.274348 26.000000
3.199861 -1.068521 0.273924 44.000000
3.188060 -1.075467 0.273288 34.000000
3.187578 -1.086207 0.273500 38.000000
3.189891 -1.097927 0.273924 25.000000
3.183681 -1.106727 0.273712 37.000000
3.184035 -1.117809 0.273995 39.000000
3.186233 -1.129570 0.274419 39.000000
3.185570 -1.140348 0.274630 42.000000
3.189562 -1.152826 0.275195 29.000000
3.185073 -1.162264 0.275125 39.000000
3.177748 -1.170652 0.274842 29.000000
3.177882 -1.181785 0.275125 36.000000
3.176109 -1.192230 0.275266 37.000000
3.175235 -1.203028 0.275478 43.000000
3.176189 -1.214543 0.275831 38.000000
3.175240 -1.225358 0.276043 34.000000
3.171465 -1.235094 0.276043 33.000000
3.173232 -1.247005 0.276467 26.000000
3.165682 -1.255265 0.276184 21.000000
3.165521 -1.266452 0.276467 29.000000
3.165321 -1.277650 0.276749 33.000000
3.163234 -1.288107 0.276890 30.000000
3.159268 -1.297806 0.276890 39.000000
3.158036 -1.308637 0.277102 28.000000
3.150325 -1.316782 0.276820 41.000000
3.144431 -1.325666 0.276679 37.000000
3.144940 -1.337257 0.277032 29.000000
3.141739 -1.347292 0.277102 34.000000
3.137591 -1.356925 0.277102 34.000000
3.138900 -1.368935 0.277526 42.000000
3.135599 -1.378960 0.277597 29.000000
3.131354 -1.388573 0.277597 24.000000
3.135276 -1.401835 0.278232 27.000000
3.130960 -1.411447 0.278232 31.000000
3.132973 -1.423933 0.278727 33.000000
3.128590 -1.433539 0.278727 39.000000
3.121459 -1.441876 0.278515 32.000000
3.120639 -1.453129 0.278797 26.000000
3.123391 -1.466084 0.279362 18.000000
3.108959 -1.470971 0.278585 34.000000
3.107133 -1.481789 0.278797 39.000000
3.105270 -1.492610 0.279009 39.000000
3.100676 -1.502130 0.279009 27.000000
3.102328 -1.514697 0.279504 33.000000
3.104828 -1.527728 0.280069 26.000000
3.099233 -1.536804 0.279998 21.000000
3.100750 -1.549424 0.280492 27.000000
3.093309 -1.557585 0.280281 21.000000
3.082288 -1.563910 0.279786 17.000000
3.278529 -0.746019 0.230898 9.000000
3.265525 -0.753603 0.230259 22.000000
3.258337 -0.762480 0.229969 34.000000
3.257926 -0.772934 0.230085 18.000000
3.247774 -0.781058 0.229620 25.000000
3.245363 -0.791018 0.229620 32.000000
3.236136 -0.799294 0.229214 40.000000
3.233669 -0.809219 0.229214 24.000000
3.231171 -0.819136 0.229214 25.000000
3.227676 -0.828797 0.229155 31.000000
3.226084 -0.838947 0.229214 30.000000
3.227357 -0.849857 0.229446 40.000000
3.227628 -0.860527 0.229620 37.000000
3.225936 -0.870685 0.229678 39.000000
3.222287 -0.880315 0.229620 41.000000
3.221496 -0.890729 0.229736 39.000000
3.214902 -0.899532 0.229504 44.000000
3.212127 -0.909391 0.229504 31.000000
3.209322 -0.919241 0.229504 44.000000
3.207446 -0.929361 0.229562 35.000000
3.208411 -0.940320 0.229794 25.000000
3.206469 -0.950443 0.229852 32.000000
3.204494 -0.960562 0.229911 38.000000
3.208219 -0.972417 0.230317 30.000000
3.204266 -0.981962 0.230259 35.000000
3.207914 -0.993857 0.230666 34.000000
3.204849 -1.003694 0.230666 52.000000
3.204610 -1.014426 0.230840 31.000000
3.207187 -1.026079 0.231188 42.000000
3.201175 -1.034992 0.231014 37.000000
3.199882 -1.045428 0.231130 39.000000
3.198556 -1.055866 0.231247 28.000000
3.191514 -1.064411 0.231014 53.000000
3.188233 -1.074197 0.231014 35.000000
3.183032 -1.083330 0.230898 41.000000
3.176862 -1.092116 0.230724 32.000000
3.178211 -1.103495 0.231014 37.000000
3.177637 -1.114232 0.231188 42.000000
3.174204 -1.123976 0.231188 35.000000
3.173560 -1.134717 0.231363 34.000000
3.171942 -1.145127 0.231479 46.000000
3.170290 -1.155537 0.231595 44.000000
3.169540 -1.166292 0.231769 39.000000
3.164076 -1.175315 0.231653 42.000000
3.158585 -1.184316 0.231537 29.000000
3.156804 -1.194707 0.231653 37.000000
3.145664 -1.201536 0.231188 25.000000
3.147552 -1.213336 0.231537 49.000000
3.141023 -1.221901 0.231363 44.000000
3.133543 -1.230072 0.231130 31.000000
3.136251 -1.242254 0.231537 38.000000
3.132425 -1.251870 0.231537 31.000000
3.127644 -1.261101 0.231479 35.000000
3.134856 -1.275206 0.232176 39.000000
3.131853 -1.285196 0.232234 30.000000
3.127895 -1.294799 0.232234 24.000000
3.130356 -1.307082 0.232641 34.000000
3.130931 -1.318618 0.232931 33.000000
3.130546 -1.329779 0.233163 33.000000
3.136546 -1.343703 0.233802 24.000000
3.127826 -1.351339 0.233512 40.000000
3.125496 -1.361726 0.233628 41.000000
3.121304 -1.371309 0.233628 34.000000
3.117082 -1.380878 0.233628 38.000000
3.111008 -1.389620 0.233512 23.000000
3.110371 -1.400798 0.233744 37.000000
3.109694 -1.411986 0.233977 39.000000
3.109886 -1.423598 0.234267 38.000000
3.102785 -1.431877 0.234093 38.000000
3.101998 -1.443074 0.234325 39.000000
3.100267 -1.453856 0.234499 39.000000
3.093085 -1.462080 0.234325 35.000000
3.095794 -1.474999 0.234790 28.000000
3.086755 -1.482328 0.234499 37.000000
3.087584 -1.494402 0.234848 37.000000
3.091060 -1.507807 0.235371 29.000000
3.090003 -1.519045 0.235603 32.000000
3.089800 -1.530734 0.235894 28.000000
3.092235 -1.543775 0.236358 28.000000
3.085700 -1.552357 0.236242 24.000000
3.089827 -1.566331 0.236823 32.000000
3.080562 -1.573532 0.236532 16.000000
3.085484 -1.588002 0.237171 7.000000
3.234970 -0.748436 0.189133 28.000000
3.230713 -0.757901 0.189041 23.000000
3.223513 -0.766655 0.188810 30.000000
3.222117 -0.776775 0.188856 39.000000
3.220690 -0.786894 0.188902 24.000000
3.209532 -0.794613 0.188486 26.000000
3.215801 -0.806641 0.188902 20.000000
3.208469 -0.815274 0.188671 37.000000
3.204986 -0.824865 0.188625 43.000000
3.208240 -0.836204 0.188902 31.000000
3.203728 -0.845533 0.188810 24.000000
3.203049 -0.855874 0.188902 26.000000
3.207159 -0.867520 0.189226 28.000000
3.201591 -0.876565 0.189087 25.000000
3.203701 -0.887715 0.189318 38.000000
3.200963 -0.897540 0.189318 26.000000
3.194349 -0.906267 0.189133 15.000000
3.190593 -0.915787 0.189087 17.000000
3.183931 -0.924459 0.188902 21.000000
3.181080 -0.934222 0.188902 29.000000
3.178199 -0.943977 0.188902 24.000000
3.175288 -0.953724 0.188902 30.000000
3.182862 -0.966650 0.189411 30.000000
3.171287 -0.973775 0.188995 35.000000
3.182596 -0.987937 0.189688 37.000000
3.212912 -1.008152 0.191307 35.000000
3.243134 -1.028563 0.192925 18.000000
3.205715 -1.027542 0.191260 33.000000
3.204448 -1.037988 0.191353 38.000000
3.179410 -1.040674 0.190289 46.000000
3.194225 -1.056377 0.191168 34.000000
3.190021 -1.065855 0.191122 28.000000
3.182950 -1.074361 0.190937 35.000000
3.186258 -1.086375 0.191260 22.000000
3.173464 -1.092896 0.190798 34.000000
3.188968 -1.109184 0.191723 25.000000
3.203459 -1.125246 0.192601 29.000000
3.206583 -1.137404 0.192925 28.000000
3.206841 -1.148582 0.193110 21.000000
3.219273 -1.164185 0.193896 30.000000
3.214748 -1.173714 0.193849 34.000000
3.214882 -1.184952 0.194034 34.000000
3.211231 -1.194809 0.194034 29.000000
3.203809 -1.203252 0.193849 25.000000
3.186090 -1.207769 0.193156 28.000000
3.158109 -1.208266 0.191954 40.000000
3.145999 -1.214714 0.191538 29.000000
3.134810 -1.221461 0.191168 18.000000
3.127329 -1.229612 0.190983 29.000000
3.117970 -1.236992 0.190705 29.000000
3.108595 -1.244327 0.190428 17.000000
3.099205 -1.251616 0.190151 20.000000
3.101827 -1.263754 0.190474 21.000000
3.105328 -1.276300 0.190844 24.000000
3.094937 -1.283145 0.190521 33.000000
3.104812 -1.298410 0.191214 24.000000
3.100814 -1.307930 0.191214 20.000000
3.097706 -1.317827 0.191260 23.000000
3.109257 -1.334015 0.192046 34.000000
3.097814 -1.340377 0.191676 30.000000
3.101013 -1.353068 0.192046 29.000000
3.103248 -1.365389 0.192370 33.000000
3.090826 -1.371260 0.191954 22.000000
3.090252 -1.382367 0.192139 26.000000
3.085086 -1.391431 0.192093 32.000000
3.075345 -1.398410 0.191815 18.000000
3.084664 -1.414078 0.192509 19.000000
3.073056 -1.420185 0.192139 23.000000
3.078646 -1.434243 0.192647 20.000000
3.079657 -1.446227 0.192925 23.000000
3.069788 -1.453106 0.192647 26.000000
3.077038 -1.468105 0.193248 21.000000
3.063515 -1.473212 0.192786 18.000000
3.069770 -1.487829 0.193341 35.000000
3.077759 -1.503374 0.193988 19.000000
3.056997 -1.504873 0.193156 11.000000
3.063106 -1.519568 0.193711 24.000000
3.061111 -1.530298 0.193849 14.000000
3.042125 -1.532496 0.193110 12.000000
3.029391 -1.537755 0.192694 9.000000
3.217358 -0.900822 0.148815 3.000000
3.566862 -1.069905 0.161781 21.000000
3.587471 -1.088097 0.162627 24.000000
3.606093 -1.105840 0.163406 25.000000
3.597910 -1.115418 0.163237 37.000000
3.592564 -1.125853 0.163169 34.000000
3.581471 -1.134455 0.162898 84.000000
3.583684 -1.147266 0.163101 59.000000
3.581098 -1.158563 0.163135 41.000000
3.573728 -1.168301 0.163000 41.000000
3.580565 -1.182709 0.163372 47.000000
3.579764 -1.194638 0.163474 58.000000
3.577029 -1.205935 0.163507 73.000000
3.578988 -1.218837 0.163711 53.000000
3.576177 -1.230136 0.163744 46.000000
3.569554 -1.240118 0.163643 55.000000
3.565733 -1.251063 0.163643 61.000000
3.560936 -1.261663 0.163609 51.000000
3.559871 -1.273592 0.163711 49.000000
3.553127 -1.283489 0.163609 54.000000
3.551051 -1.295069 0.163677 53.000000
3.550812 -1.307338 0.163812 39.000000
3.553342 -1.320664 0.164049 51.000000
3.559566 -1.335422 0.164421 41.000000
3.559191 -1.347752 0.164557 48.000000
3.569042 -1.364019 0.165065 24.000000
3.574166 -1.378560 0.165403 60.000000
3.572713 -1.390606 0.165505 46.000000
3.571221 -1.402657 0.165606 63.000000
3.571546 -1.415448 0.165776 45.000000
3.562547 -1.424543 0.165606 53.000000
3.570208 -1.440328 0.166046 34.000000
3.530598 -1.436955 0.164760 9.000000
3.480165 -1.441377 0.163237 4.000000
3.661904 -1.098309 0.118591 11.000000
3.643209 -1.104901 0.118245 14.000000
3.616859 -1.109046 0.117725 29.000000
3.614395 -1.120433 0.117747 29.000000
3.605215 -1.129724 0.117617 38.000000
3.596013 -1.138970 0.117487 54.000000
3.593454 -1.150302 0.117509 65.000000
3.583249 -1.159169 0.117357 79.000000
3.581577 -1.170777 0.117401 47.000000
3.575120 -1.180820 0.117336 64.000000
3.564841 -1.189570 0.117184 53.000000
3.561175 -1.200501 0.117184 54.000000
3.555582 -1.210777 0.117141 53.000000
3.552796 -1.222004 0.117163 54.000000
3.553753 -1.234537 0.117271 57.000000
3.547118 -1.244442 0.117206 49.000000
3.545168 -1.255986 0.117249 46.000000
3.541298 -1.266856 0.117249 55.000000
3.534574 -1.276697 0.117184 50.000000
3.530640 -1.287535 0.117184 54.000000
3.526674 -1.298361 0.117184 54.000000
3.527360 -1.310914 0.117292 47.000000
3.529875 -1.324186 0.117444 53.000000
3.539822 -1.340315 0.117768 28.000000
3.541297 -1.353309 0.117898 53.000000
3.547391 -1.368121 0.118136 49.000000
3.547836 -1.380809 0.118245 49.000000
3.551028 -1.394609 0.118418 72.000000
3.549522 -1.406601 0.118483 53.000000
3.547975 -1.418597 0.118548 58.000000
3.547315 -1.430970 0.118634 55.000000
3.537352 -1.439587 0.118504 14.000000
3.621710 -1.099174 0.071045 11.000000
3.625012 -1.112334 0.071110 22.000000
3.612988 -1.120783 0.071027 31.000000
3.605716 -1.130665 0.070990 37.000000
3.598417 -1.140513 0.070953 43.000000
3.586331 -1.148801 0.070870 70.000000
3.578984 -1.158566 0.070833 59.000000
3.573512 -1.168918 0.070814 48.000000
3.564213 -1.177993 0.070759 63.000000
3.554891 -1.187021 0.070703 57.000000
3.550285 -1.197602 0.070694 67.000000
3.541862 -1.206876 0.070648 56.000000
3.539088 -1.218062 0.070657 62.000000
3.537224 -1.229571 0.070675 43.000000
3.533435 -1.240417 0.070675 61.000000
3.530555 -1.251586 0.070685 48.000000
3.527640 -1.262749 0.070694 50.000000
3.526570 -1.274585 0.070722 37.000000
3.524522 -1.286084 0.070740 54.000000
3.525251 -1.298620 0.070786 54.000000
3.525936 -1.311173 0.070833 44.000000
3.527514 -1.324093 0.070888 49.000000
3.532786 -1.338453 0.070981 38.000000
3.535201 -1.351785 0.071045 47.000000
3.540365 -1.366226 0.071138 37.000000
3.545475 -1.380711 0.071230 45.000000
3.545876 -1.393411 0.071277 70.000000
3.547161 -1.406495 0.071332 59.000000
3.545614 -1.418485 0.071360 44.000000
3.545882 -1.431228 0.071406 32.000000
3.514618 -1.431161 0.071138 11.000000
3.660308 -1.110081 0.023548 9.000000
3.632025 -1.113691 0.023634 20.000000
3.613307 -1.120096 0.023688 25.000000
3.605083 -1.129683 0.023704 29.000000
3.584438 -1.135308 0.023764 51.000000
3.575223 -1.144472 0.023784 46.000000
3.565986 -1.153590 0.023804 50.000000
3.560529 -1.163904 0.023810 39.000000
3.546495 -1.171376 0.023847 60.000000
3.540039 -1.181302 0.023857 67.000000
3.532607 -1.190881 0.023870 44.000000
3.526097 -1.200747 0.023880 41.000000
3.524288 -1.212209 0.023873 56.000000
3.519608 -1.222687 0.023877 45.000000
3.518671 -1.234472 0.023867 44.000000
3.513925 -1.244928 0.023870 52.000000
3.505380 -1.254020 0.023887 48.000000
3.500576 -1.264429 0.023890 47.000000
3.502318 -1.277216 0.023870 48.000000
3.502137 -1.289336 0.023857 44.000000
3.506602 -1.303207 0.023827 35.000000
3.511951 -1.317468 0.023794 36.000000
3.518181 -1.332129 0.023757 43.000000
3.521551 -1.345770 0.023731 39.000000
3.521139 -1.358005 0.023717 49.000000
3.516956 -1.368802 0.023717 51.000000
3.517394 -1.381411 0.023701 59.000000
3.516859 -1.393669 0.023688 46.000000
3.521853 -1.408161 0.023654 25.000000
3.519371 -1.419707 0.023648 21.000000
3.631370 -1.100728 -0.023181 15.000000
3.613637 -1.107468 -0.022945 28.000000
3.602582 -1.116181 -0.022820 27.000000
3.608682 -1.130217 -0.022977 22.000000
3.580413 -1.133435 -0.022568 33.000000
3.572158 -1.142890 -0.022490 51.000000
3.559121 -1.150767 -0.022333 49.000000
3.549871 -1.159817 -0.022239 47.000000
3.540600 -1.168821 -0.022144 47.000000
3.535100 -1.179045 -0.022113 67.000000
3.526729 -1.188288 -0.022034 68.000000
3.520227 -1.198136 -0.021987 57.000000
3.514644 -1.208280 -0.021956 61.000000
3.509975 -1.218729 -0.021940 60.000000
3.507164 -1.229822 -0.021956 60.000000
3.506202 -1.241578 -0.022003 65.000000
3.499552 -1.251319 -0.021956 72.000000
3.498517 -1.263068 -0.022003 67.000000
3.499323 -1.275508 -0.022081 65.000000
3.499146 -1.287620 -0.022144 56.000000
3.500803 -1.300438 -0.022239 60.000000
3.501478 -1.312928 -0.022317 42.000000
3.508655 -1.327913 -0.022506 49.000000
3.510168 -1.340812 -0.022600 46.000000
3.507904 -1.352294 -0.022631 56.000000
3.513057 -1.366676 -0.022788 43.000000
3.509778 -1.377813 -0.022804 57.000000
3.531562 -1.398888 -0.023244 31.000000
3.534682 -1.412685 -0.023369 30.000000
3.518276 -1.418660 -0.023165 36.000000
3.535208 -1.438115 -0.023527 29.000000
3.647444 -1.106184 -0.069181 21.000000
3.613448 -1.108001 -0.068293 30.000000
3.594754 -1.114351 -0.067850 36.000000
3.588456 -1.124478 -0.067766 33.000000
3.564023 -1.128848 -0.067156 34.000000
3.553878 -1.137646 -0.066962 36.000000
3.540859 -1.145470 -0.066684 36.000000
3.525925 -1.152604 -0.066351 47.000000
3.520474 -1.162790 -0.066296 48.000000
3.518786 -1.174217 -0.066351 50.000000
3.512325 -1.184050 -0.066268 50.000000
3.508676 -1.194820 -0.066268 54.000000
3.501213 -1.204280 -0.066157 49.000000
3.492780 -1.213377 -0.066018 68.000000
3.491871 -1.225079 -0.066101 58.000000
3.489980 -1.236453 -0.066157 61.000000
3.486171 -1.247154 -0.066157 63.000000
3.479507 -1.256826 -0.066074 59.000000
3.478453 -1.268522 -0.066157 50.000000
3.475482 -1.279533 -0.066185 56.000000
3.471541 -1.290189 -0.066185 37.000000
3.472246 -1.302588 -0.066323 54.000000
3.473843 -1.315356 -0.066490 35.000000
3.480064 -1.329930 -0.066795 39.000000
3.489026 -1.345632 -0.067184 49.000000
3.501651 -1.362851 -0.067683 34.000000
3.519787 -1.382350 -0.068349 23.000000
3.523894 -1.396454 -0.068599 29.000000
3.541872 -1.416159 -0.069265 20.000000
3.531021 -1.424402 -0.069070 29.000000
3.533116 -1.437865 -0.069265 24.000000
3.542561 -1.454387 -0.069681 5.000000
3.615932 -1.108171 -0.115742 25.000000
3.584838 -1.110681 -0.114573 45.000000
3.573786 -1.119284 -0.114251 45.000000
3.567477 -1.129338 -0.114130 67.000000
3.559238 -1.138755 -0.113928 59.000000
3.545270 -1.146287 -0.113485 53.000000
3.535088 -1.154985 -0.113203 64.000000
3.530579 -1.165512 -0.113162 76.000000
3.520352 -1.174125 -0.112880 55.000000
3.514840 -1.184281 -0.112799 70.000000
3.504569 -1.192804 -0.112517 53.000000
3.496168 -1.201926 -0.112316 62.000000
3.485857 -1.210352 -0.112034 49.000000
3.479299 -1.220048 -0.111913 53.000000
3.473656 -1.230049 -0.111832 43.000000
3.466103 -1.239355 -0.111671 49.000000
3.459465 -1.248964 -0.111550 41.000000
3.457494 -1.260257 -0.111631 38.000000
3.458300 -1.272584 -0.111832 34.000000
3.459999 -1.285276 -0.112074 44.000000
3.461653 -1.297991 -0.112316 46.000000
3.466064 -1.311789 -0.112679 46.000000
3.470424 -1.325626 -0.113041 45.000000
3.473799 -1.339143 -0.113364 65.000000
3.489228 -1.357404 -0.114210 58.000000
3.498999 -1.373580 -0.114815 46.000000
3.507773 -1.389461 -0.115379 48.000000
3.512772 -1.403926 -0.115782 46.000000
3.538100 -1.426656 -0.117072 21.000000
3.590919 -1.090423 -0.159671 23.000000
3.581829 -1.099678 -0.159357 27.000000
3.575576 -1.109775 -0.159200 27.000000
3.567390 -1.119246 -0.158939 29.000000
3.553468 -1.126868 -0.158363 40.000000
3.543336 -1.135633 -0.157997 54.000000
3.536035 -1.145269 -0.157787 69.000000
3.530606 -1.155491 -0.157683 51.000000
3.525148 -1.165691 -0.157578 62.000000
3.520608 -1.176185 -0.157526 58.000000
3.516983 -1.186980 -0.157526 51.000000
3.505762 -1.195189 -0.157107 53.000000
3.492636 -1.202690 -0.156583 25.000000
3.478553 -1.209795 -0.156008 28.000000
3.476710 -1.221123 -0.156112 39.000000
3.472947 -1.231783 -0.156112 27.000000
3.465390 -1.241087 -0.155903 28.000000
3.467202 -1.253748 -0.156217 40.000000
3.466154 -1.265406 -0.156374 43.000000
3.468815 -1.278449 -0.156740 31.000000
3.478917 -1.294304 -0.157526 51.000000
3.482410 -1.307778 -0.157944 73.000000
3.490522 -1.323053 -0.158625 47.000000
3.500439 -1.339103 -0.159410 51.000000
3.500041 -1.351274 -0.159619 41.000000
3.502393 -1.364541 -0.159985 50.000000
3.501909 -1.376740 -0.160195 40.000000
3.500453 -1.388581 -0.160352 40.000000
3.497104 -1.399685 -0.160404 42.000000
3.494646 -1.411154 -0.160509 32.000000
3.512499 -1.430905 -0.161765 18.000000
3.565984 -1.080901 -0.204411 20.000000
3.563605 -1.092129 -0.204476 37.000000
3.557378 -1.102170 -0.204282 32.000000
3.548267 -1.111289 -0.203894 41.000000
3.539133 -1.120362 -0.203505 39.000000
3.533778 -1.130606 -0.203376 46.000000
3.526495 -1.140214 -0.203117 48.000000
3.522980 -1.151028 -0.203117 50.000000
3.510904 -1.159015 -0.202535 47.000000
3.501652 -1.167885 -0.202147 49.000000
3.495215 -1.177667 -0.201952 64.000000
3.481195 -1.184846 -0.201241 36.000000
3.480374 -1.196494 -0.201435 47.000000
3.475744 -1.206839 -0.201370 55.000000
3.469201 -1.216506 -0.201176 60.000000
3.473918 -1.230142 -0.201758 81.000000
3.466369 -1.239450 -0.201499 56.000000
3.466304 -1.251435 -0.201758 51.000000
3.465261 -1.263089 -0.201952 43.000000
3.462306 -1.274059 -0.202017 37.000000
3.464929 -1.287108 -0.202470 42.000000
3.472176 -1.301938 -0.203247 43.000000
3.469099 -1.312937 -0.203311 70.000000
3.474376 -1.327136 -0.203958 70.000000
3.480530 -1.341739 -0.204670 55.000000
3.480117 -1.353858 -0.204929 49.000000
3.483378 -1.367446 -0.205447 37.000000
3.475456 -1.376657 -0.205188 54.000000
3.469362 -1.386572 -0.205058 53.000000
3.467869 -1.398329 -0.205252 21.000000
3.460789 -1.407833 -0.205058 34.000000
3.459224 -1.419581 -0.205252 24.000000
3.580550 -1.087278 -0.249884 17.000000
3.562899 -1.093873 -0.248735 22.000000
3.543336 -1.099779 -0.247434 51.000000
3.542799 -1.111539 -0.247664 38.000000
3.533670 -1.120597 -0.247204 35.000000
3.527366 -1.130520 -0.246975 46.000000
3.521035 -1.140416 -0.246745 53.000000
3.513729 -1.149974 -0.246439 40.000000
3.504504 -1.158872 -0.245980 44.000000
3.496203 -1.168040 -0.245597 38.000000
3.487879 -1.177168 -0.245214 50.000000
3.479532 -1.186256 -0.244832 36.000000
3.475877 -1.196925 -0.244832 37.000000
3.475013 -1.208565 -0.245061 37.000000
3.468467 -1.218230 -0.244832 54.000000
3.461894 -1.227867 -0.244602 43.000000
3.455294 -1.237474 -0.244372 63.000000
3.451481 -1.248069 -0.244372 44.000000
3.450446 -1.259677 -0.244602 39.000000
3.445629 -1.269912 -0.244525 48.000000
3.442652 -1.280825 -0.244602 49.000000
3.438706 -1.291381 -0.244602 34.000000
3.454309 -1.309340 -0.246209 83.000000
3.455864 -1.322067 -0.246669 46.000000
3.455513 -1.334099 -0.246975 85.000000
3.457908 -1.347225 -0.247511 46.000000
3.449118 -1.356005 -0.247128 42.000000
3.450503 -1.368785 -0.247587 27.000000
3.449065 -1.380475 -0.247817 39.000000
3.448512 -1.392542 -0.248123 34.000000
3.447918 -1.404619 -0.248429 33.000000
3.460194 -1.422007 -0.249807 10.000000
3.456737 -1.432998 -0.249884 7.000000
3.576190 -1.085353 -0.295297 21.000000
3.567130 -1.094566 -0.294764 20.000000
3.553291 -1.102257 -0.293789 33.000000
3.541339 -1.110470 -0.292990 35.000000
3.531269 -1.119222 -0.292369 32.000000
3.520230 -1.127619 -0.291659 54.000000
3.513911 -1.137493 -0.291393 44.000000
3.506618 -1.147029 -0.291038 50.000000
3.501192 -1.157157 -0.290861 52.000000
3.495735 -1.167262 -0.290683 51.000000
3.492138 -1.177981 -0.290683 43.000000
3.488507 -1.188689 -0.290683 58.000000
3.493320 -1.202304 -0.291482 57.000000
3.495260 -1.214979 -0.292014 45.000000
3.488697 -1.224707 -0.291748 26.000000
3.492433 -1.238067 -0.292458 59.000000
3.500809 -1.253141 -0.293611 82.000000
3.479150 -1.257441 -0.291925 31.000000
3.483697 -1.271183 -0.292724 51.000000
3.479781 -1.281865 -0.292724 62.000000
3.473031 -1.291493 -0.292458 62.000000
3.470918 -1.302842 -0.292635 67.000000
3.468767 -1.314190 -0.292813 54.000000
3.463789 -1.324470 -0.292724 47.000000
3.455992 -1.333656 -0.292369 67.000000
3.452812 -1.344614 -0.292458 60.000000
3.448671 -1.355201 -0.292458 62.000000
3.444497 -1.365775 -0.292458 49.000000
3.449538 -1.380037 -0.293345 36.000000
3.456371 -1.395088 -0.294410 27.000000
3.457610 -1.407940 -0.294942 27.000000
3.456038 -1.419677 -0.295208 22.000000
3.488472 -1.445529 -0.298757 7.000000
3.575716 -1.085133 -0.342440 17.000000
3.569516 -1.095223 -0.342136 22.000000
3.554736 -1.102636 -0.340921 25.000000
3.541842 -1.110563 -0.339909 31.000000
3.533676 -1.119923 -0.339403 43.000000
3.526433 -1.129546 -0.338998 43.000000
3.518218 -1.138829 -0.338492 50.000000
3.511871 -1.148691 -0.338188 40.000000
3.505496 -1.158524 -0.337884 34.000000
3.504757 -1.170218 -0.338188 41.000000
3.499264 -1.180329 -0.337985 37.000000
3.502219 -1.193303 -0.338694 54.000000
3.507950 -1.207277 -0.339706 28.000000
3.507049 -1.219012 -0.340010 43.000000
3.507987 -1.231412 -0.340516 51.000000
3.509819 -1.244161 -0.341124 48.000000
3.512543 -1.257268 -0.341832 90.000000
3.510541 -1.268714 -0.342035 100.000000
3.515979 -1.282886 -0.343047 31.000000
3.504557 -1.290918 -0.342237 55.000000
3.492187 -1.298546 -0.341326 47.000000
3.481666 -1.306808 -0.340617 65.000000
3.472988 -1.315723 -0.340111 56.000000
3.461500 -1.323531 -0.339301 40.000000
3.451854 -1.331998 -0.338694 45.000000
3.441261 -1.340057 -0.337985 51.000000
3.439911 -1.351699 -0.338289 40.000000
3.442223 -1.364811 -0.338998 35.000000
3.451877 -1.380903 -0.340516 21.000000
3.448547 -1.391859 -0.340617 36.000000
3.453475 -1.406181 -0.341630 14.000000
3.448225 -1.416392 -0.341529 9.000000
3.527183 -1.081633 -0.381713 17.000000
3.533338 -1.095392 -0.382843 40.000000
3.527116 -1.105336 -0.382504 31.000000
3.524656 -1.116452 -0.382617 42.000000
3.525945 -1.128775 -0.383182 57.000000
3.516794 -1.137752 -0.382504 41.000000
3.512342 -1.148227 -0.382391 49.000000
3.509747 -1.159309 -0.382504 52.000000
3.510886 -1.171644 -0.383069 46.000000
3.510099 -1.183362 -0.383409 51.000000
3.512095 -1.196048 -0.384087 52.000000
3.516865 -1.209727 -0.385104 38.000000
3.517830 -1.222142 -0.385669 39.000000
3.528126 -1.237864 -0.387365 63.000000
3.531804 -1.251338 -0.388269 55.000000
3.533561 -1.264176 -0.388947 69.000000
3.537142 -1.277713 -0.389851 164.000000
3.526671 -1.286175 -0.389060 51.000000
3.516182 -1.294584 -0.388269 51.000000
3.502881 -1.301903 -0.387139 58.000000
3.492359 -1.310200 -0.386347 42.000000
3.485535 -1.319853 -0.386008 34.000000
3.469404 -1.325927 -0.384539 47.000000
3.459758 -1.334419 -0.383861 45.000000
3.450093 -1.342864 -0.383182 47.000000
3.445956 -1.353443 -0.383182 51.000000
3.447330 -1.366205 -0.383861 54.000000
3.445890 -1.377882 -0.384200 46.000000
3.465603 -1.398115 -0.387139 30.000000
3.524794 -1.434592 -0.394938 13.000000
3.529567 -1.449174 -0.396068 9.000000
3.568648 -1.106947 -0.433844 22.000000
3.560501 -1.116407 -0.433217 26.000000
3.543818 -1.123133 -0.431463 33.000000
3.537520 -1.133093 -0.431087 42.000000
3.531195 -1.143025 -0.430711 37.000000
3.522957 -1.152313 -0.430084 35.000000
3.519405 -1.163116 -0.430084 52.000000
3.517702 -1.174536 -0.430335 29.000000
3.516903 -1.186272 -0.430711 39.000000
3.528274 -1.202171 -0.432716 31.000000
3.537704 -1.217506 -0.434471 34.000000
3.544262 -1.231934 -0.435849 51.000000
3.552636 -1.247070 -0.437479 52.000000
3.557210 -1.260944 -0.438607 50.000000
3.562667 -1.275192 -0.439860 66.000000
3.559671 -1.286453 -0.439985 70.000000
3.551047 -1.295669 -0.439359 46.000000
3.538676 -1.303473 -0.438231 42.000000
3.526290 -1.311214 -0.437103 41.000000
3.516677 -1.319937 -0.436351 43.000000
3.504260 -1.327559 -0.435223 53.000000
3.492756 -1.335471 -0.434220 53.000000
3.481237 -1.343325 -0.433217 61.000000
3.472476 -1.352201 -0.432591 40.000000
3.468311 -1.362848 -0.432591 45.000000
3.466881 -1.374578 -0.432967 43.000000
3.464490 -1.385944 -0.433217 28.000000
3.462062 -1.397309 -0.433468 40.000000
3.452245 -1.405681 -0.432716 20.000000
3.570485 -1.117569 -0.480776 30.000000
3.566095 -1.128219 -0.480638 47.000000
3.565447 -1.140059 -0.481050 23.000000
3.549680 -1.147032 -0.479264 39.000000
3.542378 -1.156687 -0.478714 52.000000
3.535991 -1.166618 -0.478302 53.000000
3.532396 -1.177461 -0.478302 47.000000
3.534399 -1.190189 -0.479126 54.000000
3.541983 -1.204856 -0.480776 55.000000
3.551384 -1.220225 -0.482700 39.000000
3.558853 -1.235012 -0.484349 41.000000
3.567198 -1.250185 -0.486136 40.000000
3.570816 -1.263768 -0.487235 30.000000
3.586509 -1.281719 -0.490122 13.000000
3.567653 -1.287336 -0.487923 40.000000
3.561825 -1.297597 -0.487648 30.000000
3.547602 -1.304756 -0.486136 38.000000
3.535225 -1.312530 -0.484899 46.000000
3.521907 -1.319893 -0.483524 63.000000
3.518768 -1.331042 -0.483662 43.000000
3.508190 -1.339358 -0.482700 45.000000
3.499443 -1.348333 -0.482013 37.000000
3.492521 -1.357986 -0.481600 56.000000
3.490182 -1.369418 -0.481875 54.000000
3.489648 -1.381578 -0.482425 51.000000
3.486313 -1.392645 -0.482562 45.000000
3.483861 -1.404075 -0.482837 32.000000
3.494218 -1.420728 -0.485036 18.000000
3.606992 -1.131657 -0.531816 23.000000
3.591249 -1.138836 -0.529877 33.000000
3.579262 -1.147135 -0.528534 32.000000
3.564437 -1.154458 -0.526744 35.000000
3.550540 -1.162008 -0.525102 54.000000
3.547897 -1.173206 -0.525252 40.000000
3.548033 -1.185337 -0.525848 40.000000
3.555623 -1.200008 -0.527639 41.000000
3.565965 -1.215692 -0.529877 45.000000
3.576244 -1.231452 -0.532114 34.000000
3.581790 -1.245663 -0.533606 28.000000
3.585416 -1.259265 -0.534800 40.000000
3.586195 -1.271910 -0.535546 33.000000
3.582044 -1.295234 -0.536143 21.000000
3.569693 -1.303168 -0.534800 26.000000
3.554543 -1.310014 -0.533010 46.000000
3.547726 -1.319880 -0.532562 28.000000
3.536254 -1.327979 -0.531368 42.000000
3.522916 -1.335320 -0.529877 44.000000
3.513261 -1.344004 -0.528981 31.000000
3.502663 -1.352285 -0.527937 47.000000
3.493891 -1.361231 -0.527191 44.000000
3.489698 -1.371944 -0.527191 52.000000
3.490988 -1.384830 -0.528086 36.000000
3.489477 -1.396635 -0.528534 32.000000
3.498014 -1.412513 -0.530622 17.000000
3.503738 -1.427339 -0.532264 13.000000
3.619907 -1.145942 -0.580976 20.000000
3.604155 -1.153131 -0.578882 31.000000
3.601539 -1.164487 -0.579043 25.000000
3.597012 -1.175224 -0.578882 23.000000
3.572771 -1.179445 -0.575338 44.000000
3.567264 -1.189776 -0.575016 38.000000
3.568273 -1.202291 -0.575821 45.000000
3.578582 -1.218004 -0.578237 28.000000
3.588828 -1.233792 -0.580654 22.000000
3.585958 -1.245120 -0.580815 37.000000
3.583983 -1.256769 -0.581137 29.000000
3.587553 -1.270395 -0.582426 15.000000
3.575709 -1.303360 -0.582426 30.000000
3.580029 -1.317392 -0.583875 34.000000
3.568569 -1.325619 -0.582587 35.000000
3.558941 -1.334482 -0.581620 44.000000
3.546523 -1.342249 -0.580170 38.000000
3.532247 -1.349249 -0.578398 39.000000
3.522566 -1.357948 -0.577432 49.000000
3.515625 -1.367675 -0.576949 40.000000
3.508656 -1.377373 -0.576465 50.000000
