ply
format ascii 1.0
element vertex 1241
property float x
property float y
property float z
property float intensity
end_header
3.598893 -1.261886 0.398536 34.000000
3.601574 -1.275245 0.399201 38.000000
3.601394 -1.287628 0.399581 34.000000
3.612410 -1.304075 0.401100 23.000000
3.655162 -1.332181 0.405849 13.000000
3.627699 -1.334802 0.403475 34.000000
3.703850 -1.375710 0.411643 12.000000
3.664301 -1.134612 0.352266 17.000000
3.673166 -1.149720 0.353338 24.000000
3.673422 -1.162186 0.353668 23.000000
3.672687 -1.174362 0.353916 29.000000
3.661480 -1.183171 0.353256 37.000000
3.648360 -1.191305 0.352431 33.000000
3.641849 -1.201555 0.352184 40.000000
3.636255 -1.212092 0.352019 36.000000
3.631574 -1.222924 0.351937 42.000000
3.629692 -1.234702 0.352102 45.000000
3.628715 -1.246804 0.352349 29.000000
3.620056 -1.268716 0.352266 51.000000
3.615207 -1.279483 0.352184 72.000000
3.615957 -1.292246 0.352596 51.000000
3.619474 -1.306040 0.353256 41.000000
3.619195 -1.318503 0.353586 40.000000
3.616069 -1.329945 0.353668 33.000000
3.617577 -1.343114 0.354163 35.000000
3.619039 -1.356306 0.354658 34.000000
3.616724 -1.368108 0.354823 28.000000
3.613441 -1.379553 0.354905 50.000000
3.611052 -1.391349 0.355070 36.000000
3.611410 -1.404227 0.355482 39.000000
3.619145 -1.420034 0.356554 33.000000
3.620331 -1.433332 0.357049 35.000000
3.630724 -1.450349 0.358369 22.000000
3.677094 -1.481976 0.362904 14.000000
3.676391 -1.078803 0.306342 16.000000
3.669238 -1.088943 0.306059 38.000000
3.667791 -1.100768 0.306201 37.000000
3.676806 -1.115777 0.307119 25.000000
3.665736 -1.124714 0.306554 31.000000
3.658457 -1.134774 0.306271 49.000000
3.659718 -1.147483 0.306624 46.000000
3.645720 -1.155394 0.305848 36.000000
3.641208 -1.166269 0.305777 39.000000
3.631918 -1.175594 0.305353 61.000000
3.620708 -1.184252 0.304788 49.000000
3.617059 -1.195355 0.304788 47.000000
3.599180 -1.201712 0.303729 25.000000
3.601148 -1.214659 0.304152 50.000000
3.598349 -1.226023 0.304223 43.000000
3.593627 -1.236733 0.304152 61.000000
3.591701 -1.248407 0.304294 57.000000
3.588795 -1.259750 0.304364 65.000000
3.584913 -1.270754 0.304364 62.000000
3.580998 -1.281747 0.304364 58.000000
3.575172 -1.292049 0.304223 51.000000
3.566505 -1.301304 0.303870 48.000000
3.561560 -1.311895 0.303799 38.000000
3.556584 -1.322468 0.303729 48.000000
3.549708 -1.332323 0.303517 24.000000
3.555866 -1.347091 0.304294 41.000000
3.556375 -1.359774 0.304647 33.000000
3.559633 -1.373548 0.305212 48.000000
3.556331 -1.384825 0.305283 45.000000
3.557637 -1.397916 0.305706 45.000000
3.564460 -1.413232 0.306554 56.000000
3.558255 -1.423421 0.306413 50.000000
3.553871 -1.434331 0.306413 33.000000
3.549454 -1.445227 0.306413 33.000000
3.546850 -1.456867 0.306554 25.000000
3.598584 -1.491016 0.310862 14.000000
3.536011 -0.793237 0.246117 22.000000
3.528694 -0.802973 0.245826 23.000000
3.530105 -0.814694 0.246059 22.000000
3.525645 -0.825065 0.245943 44.000000
3.523097 -0.835878 0.245943 38.000000
3.519545 -0.846449 0.245884 35.000000
3.513052 -0.856297 0.245652 36.000000
3.507501 -0.866352 0.245478 32.000000
3.510637 -0.878564 0.245826 34.000000
3.504055 -0.888348 0.245594 37.000000
3.501312 -0.899095 0.245594 35.000000
3.499504 -0.910083 0.245652 35.000000
3.493799 -0.920053 0.245478 23.000000
3.491925 -0.931024 0.245536 31.000000
3.491943 -0.942514 0.245710 42.000000
3.484220 -0.951906 0.245420 33.000000
3.483208 -0.963124 0.245536 44.000000
3.487927 -0.975958 0.246001 37.000000
3.492601 -0.988831 0.246465 32.000000
3.501067 -1.002842 0.247162 37.000000
3.503727 -1.015246 0.247511 46.000000
3.514966 -1.030203 0.248382 39.000000
3.517531 -1.042685 0.248731 25.000000
3.520053 -1.055192 0.249079 30.000000
3.524442 -1.068304 0.249544 36.000000
3.516376 -1.077649 0.249253 40.000000
3.515914 -1.089319 0.249428 42.000000
3.511602 -1.099802 0.249370 52.000000
3.508212 -1.110570 0.249370 38.000000
3.500034 -1.119806 0.249079 45.000000
3.495632 -1.130232 0.249021 39.000000
3.489301 -1.140020 0.248847 41.000000
3.481048 -1.149155 0.248556 34.000000
3.471824 -1.157933 0.248208 46.000000
3.469201 -1.168898 0.248266 39.000000
3.473159 -1.182110 0.248731 36.000000
3.473292 -1.194059 0.248963 36.000000
3.470555 -1.205037 0.249021 39.000000
3.465900 -1.215348 0.248963 31.000000
3.463096 -1.226309 0.249021 45.000000
3.458378 -1.236592 0.248963 47.000000
3.456445 -1.247874 0.249079 36.000000
3.444160 -1.255395 0.248556 40.000000
3.440292 -1.265955 0.248556 38.000000
3.436392 -1.276504 0.248556 35.000000
3.432459 -1.287041 0.248556 42.000000
3.431295 -1.298626 0.248731 43.000000
3.425430 -1.308434 0.248615 42.000000
3.426057 -1.320733 0.248905 44.000000
3.427571 -1.333410 0.249253 50.000000
3.423464 -1.343919 0.249253 45.000000
3.422109 -1.355519 0.249428 51.000000
3.417007 -1.365641 0.249370 38.000000
3.403543 -1.372384 0.248789 36.000000
3.401166 -1.383572 0.248905 44.000000
3.395058 -1.393241 0.248789 48.000000
3.388001 -1.402505 0.248615 39.000000
3.381840 -1.412123 0.248498 39.000000
3.378412 -1.422879 0.248556 31.000000
3.375868 -1.434018 0.248673 45.000000
3.374206 -1.445548 0.248847 41.000000
3.367005 -1.454705 0.248673 34.000000
3.362527 -1.465028 0.248673 35.000000
3.356188 -1.474534 0.248556 51.000000
3.351649 -1.484824 0.248556 38.000000
3.345255 -1.494285 0.248440 36.000000
3.339744 -1.504131 0.248382 43.000000
3.336023 -1.514783 0.248440 33.000000
3.333175 -1.525842 0.248556 27.000000
3.330291 -1.536898 0.248673 43.000000
3.325560 -1.547108 0.248673 34.000000
3.325317 -1.559423 0.248963 37.000000
3.321420 -1.570044 0.249021 39.000000
3.320192 -1.581945 0.249253 43.000000
3.312624 -1.590827 0.249079 34.000000
3.315814 -1.604897 0.249602 17.000000
3.534824 -0.794882 0.203143 22.000000
3.531395 -0.805502 0.203096 30.000000
3.527934 -0.816107 0.203050 27.000000
3.524441 -0.826699 0.203004 34.000000
3.521888 -0.837508 0.203004 49.000000
3.520273 -0.848543 0.203050 43.000000
3.517653 -0.859339 0.203050 45.000000
3.514031 -0.869887 0.203004 48.000000
3.512314 -0.880907 0.203050 55.000000
3.508627 -0.891432 0.203004 38.000000
3.503941 -0.901695 0.202911 47.000000
3.500191 -0.912189 0.202865 48.000000
3.495444 -0.922414 0.202773 37.000000
3.493563 -0.933391 0.202819 24.000000
3.489719 -0.943845 0.202773 39.000000
3.488734 -0.955073 0.202865 57.000000
3.487712 -0.966305 0.202958 38.000000
3.488579 -0.978078 0.203143 42.000000
3.486523 -0.989048 0.203189 47.000000
3.483472 -0.999740 0.203189 30.000000
3.479429 -1.010144 0.203143 50.000000
3.476314 -1.020815 0.203143 54.000000
3.473166 -1.031475 0.203143 45.000000
3.467114 -1.041265 0.203004 41.000000
3.468683 -1.053346 0.203235 50.000000
3.467345 -1.064569 0.203328 45.000000
3.464063 -1.075202 0.203328 38.000000
3.458842 -1.085227 0.203235 34.000000
3.453591 -1.095230 0.203143 44.000000
3.448312 -1.105211 0.203050 40.000000
3.445856 -1.116093 0.203096 48.000000
3.440516 -1.126038 0.203004 46.000000
3.437046 -1.136588 0.203004 44.000000
3.435437 -1.147760 0.203096 52.000000
3.435686 -1.159571 0.203281 51.000000
3.434949 -1.171072 0.203420 50.000000
3.431340 -1.181605 0.203420 46.000000
3.425812 -1.191471 0.203328 33.000000
3.423083 -1.202306 0.203374 44.000000
3.422203 -1.213803 0.203512 48.000000
3.419404 -1.224633 0.203559 44.000000
3.415630 -1.235118 0.203559 55.000000
3.410887 -1.245249 0.203512 39.000000
3.409862 -1.256743 0.203651 42.000000
3.406927 -1.267547 0.203697 41.000000
3.405828 -1.279046 0.203836 47.000000
3.401888 -1.289488 0.203836 41.000000
3.397916 -1.299919 0.203836 36.000000
3.396708 -1.311416 0.203975 37.000000
3.393599 -1.322193 0.204021 36.000000
3.388597 -1.332233 0.203975 33.000000
3.388208 -1.344095 0.204160 51.000000
3.384997 -1.354855 0.204206 39.000000
3.377118 -1.363739 0.204021 36.000000
3.377545 -1.375976 0.204252 45.000000
3.374231 -1.386711 0.204298 47.000000
3.372730 -1.398203 0.204437 41.000000
3.373033 -1.410469 0.204668 40.000000
3.371452 -1.421975 0.204807 41.000000
3.368912 -1.433093 0.204900 42.000000
3.368172 -1.444996 0.205084 34.000000
3.366473 -1.456512 0.205223 51.000000
3.364737 -1.468031 0.205362 42.000000
3.359302 -1.477945 0.205316 36.000000
3.351099 -1.486625 0.205131 45.000000
3.346523 -1.496899 0.205131 38.000000
3.342825 -1.507569 0.205177 44.000000
3.343641 -1.520297 0.205454 41.000000
3.345319 -1.533460 0.205778 40.000000
3.343319 -1.544972 0.205917 39.000000
3.343997 -1.557751 0.206194 39.000000
3.347341 -1.571822 0.206610 42.000000
3.342503 -1.582084 0.206610 33.000000
3.343044 -1.594910 0.206888 44.000000
3.331833 -1.602131 0.206564 27.000000
3.485199 -0.782469 0.156635 17.000000
3.528581 -0.803593 0.158226 37.000000
3.530968 -0.815540 0.158396 39.000000
3.525530 -0.825685 0.158294 29.000000
3.530759 -0.838345 0.158565 57.000000
3.529142 -0.849407 0.158599 37.000000
3.524578 -0.859756 0.158531 32.000000
3.525804 -0.871525 0.158666 51.000000
3.521175 -0.881852 0.158599 58.000000
3.515547 -0.891913 0.158497 41.000000
3.513762 -0.902944 0.158531 49.000000
3.513877 -0.914475 0.158633 36.000000
3.510088 -0.924996 0.158599 57.000000
3.511096 -0.936792 0.158734 54.000000
3.507241 -0.947298 0.158700 59.000000
3.503354 -0.957790 0.158666 44.000000
3.499436 -0.968267 0.158633 45.000000
3.492599 -0.977921 0.158497 38.000000
3.490544 -0.988904 0.158531 41.000000
3.487494 -0.999608 0.158531 44.000000
3.481531 -1.009467 0.158429 47.000000
3.478418 -1.020144 0.158429 48.000000
3.470481 -1.029389 0.158260 51.000000
3.465392 -1.039457 0.158192 49.000000
3.464099 -1.050664 0.158260 51.000000
3.462771 -1.061873 0.158328 54.000000
3.460451 -1.072788 0.158362 48.000000
3.456190 -1.083100 0.158328 45.000000
3.461426 -1.096416 0.158633 64.000000
3.460901 -1.107945 0.158734 52.000000
3.459387 -1.119173 0.158802 44.000000
3.457837 -1.130402 0.158870 46.000000
3.453404 -1.140692 0.158836 59.000000
3.453680 -1.152547 0.158971 42.000000
3.453916 -1.164415 0.159107 45.000000
3.449381 -1.174684 0.159073 37.000000
3.443871 -1.184610 0.159005 33.000000
3.439276 -1.194842 0.158971 52.000000
3.431822 -1.204064 0.158836 50.000000
3.425286 -1.213586 0.158734 47.000000
3.418724 -1.223078 0.158633 56.000000
3.414016 -1.233221 0.158599 46.000000
3.408338 -1.243005 0.158531 34.000000
3.410136 -1.255528 0.158734 33.000000
3.410952 -1.267725 0.158903 51.000000
3.417339 -1.282047 0.159276 66.000000
3.414325 -1.292879 0.159310 43.000000
3.409408 -1.302991 0.159276 40.000000
3.414719 -1.317042 0.159614 46.000000
3.412525 -1.328238 0.159682 48.000000
3.413085 -1.340528 0.159851 62.000000
3.411744 -1.352098 0.159953 51.000000
3.408507 -1.362930 0.159987 44.000000
3.403383 -1.373007 0.159953 52.000000
3.398229 -1.383065 0.159919 47.000000
3.391196 -1.392345 0.159817 58.000000
3.385062 -1.401977 0.159750 52.000000
3.381667 -1.412741 0.159784 56.000000
3.379159 -1.423886 0.159851 40.000000
3.378454 -1.435810 0.159987 55.000000
3.375870 -1.446956 0.160054 56.000000
3.374167 -1.458496 0.160156 56.000000
3.372425 -1.470039 0.160258 46.000000
3.367899 -1.480379 0.160258 44.000000
3.360600 -1.489489 0.160156 54.000000
3.357839 -1.500608 0.160224 58.000000
3.351398 -1.510082 0.160156 44.000000
3.348569 -1.521183 0.160224 49.000000
3.347521 -1.533114 0.160359 40.000000
3.345523 -1.544634 0.160461 57.000000
3.346205 -1.557422 0.160664 40.000000
3.344125 -1.568954 0.160765 39.000000
3.344717 -1.581771 0.160968 36.000000
3.342555 -1.593315 0.161070 46.000000
3.340353 -1.604861 0.161172 39.000000
3.329117 -1.612052 0.160935 12.000000
3.529740 -0.803834 0.114198 25.000000
3.531154 -0.815558 0.114284 52.000000
3.524741 -0.825477 0.114198 34.000000
3.522193 -0.836287 0.114198 39.000000
3.518638 -0.846855 0.114176 54.000000
3.519909 -0.858593 0.114263 34.000000
3.519199 -0.869867 0.114306 44.000000
3.521364 -0.881872 0.114414 35.000000
3.522518 -0.893654 0.114501 41.000000
3.519760 -0.904457 0.114501 48.000000
3.520839 -0.916257 0.114587 32.000000
3.518011 -0.927054 0.114587 40.000000
3.517083 -0.938358 0.114631 41.000000
3.515152 -0.949404 0.114652 47.000000
3.512223 -0.960184 0.114652 47.000000
3.509261 -0.970955 0.114652 42.000000
3.508191 -0.982255 0.114696 47.000000
3.505161 -0.993013 0.114696 39.000000
3.500176 -1.003212 0.114652 59.000000
3.491320 -1.012277 0.114522 26.000000
3.492995 -1.024389 0.114631 37.000000
3.488877 -1.034816 0.114609 40.000000
3.484728 -1.045228 0.114587 43.000000
3.481505 -1.055914 0.114587 37.000000
3.477293 -1.066298 0.114566 38.000000
3.474961 -1.077256 0.114587 46.000000
3.471639 -1.087912 0.114587 64.000000
3.465425 -1.097653 0.114522 33.000000
3.467756 -1.110107 0.114652 44.000000
3.466236 -1.121356 0.114696 47.000000
3.463730 -1.132295 0.114717 47.000000
3.462139 -1.143543 0.114760 43.000000
3.459562 -1.154475 0.114782 43.000000
3.456952 -1.165403 0.114804 49.000000
3.455253 -1.176647 0.114847 43.000000
3.452572 -1.187567 0.114869 52.000000
3.450802 -1.198809 0.114912 43.000000
3.448995 -1.210052 0.114955 59.000000
3.443381 -1.219960 0.114912 43.000000
3.440563 -1.230855 0.114934 42.000000
3.437711 -1.241744 0.114955 38.000000
3.433886 -1.252285 0.114955 25.000000
3.428151 -1.262124 0.114912 35.000000
3.425200 -1.272983 0.114934 47.000000
3.421278 -1.283486 0.114934 43.000000
3.422000 -1.295745 0.115042 39.000000
3.418009 -1.306237 0.115042 37.000000
3.416784 -1.317796 0.115107 43.000000
3.411793 -1.327910 0.115085 35.000000
3.412356 -1.340197 0.115193 35.000000
3.406369 -1.349923 0.115150 35.000000
3.405926 -1.361851 0.115237 49.000000
3.399877 -1.371546 0.115193 43.000000
3.395653 -1.381971 0.115193 46.000000
3.393247 -1.393141 0.115237 48.000000
3.394500 -1.405838 0.115366 45.000000
3.392939 -1.417401 0.115431 49.000000
3.391339 -1.428967 0.115496 43.000000
3.390620 -1.440928 0.115583 46.000000
3.388021 -1.452111 0.115626 46.000000
3.385386 -1.463291 0.115669 48.000000
3.382714 -1.474468 0.115713 46.000000
3.380921 -1.486045 0.115778 35.000000
3.375431 -1.496006 0.115756 43.000000
3.371739 -1.506763 0.115778 32.000000
3.367100 -1.517100 0.115778 48.000000
3.362430 -1.527423 0.115778 30.000000
3.360456 -1.538979 0.115842 41.000000
3.352994 -1.548026 0.115778 43.000000
3.350043 -1.559148 0.115821 34.000000
3.350675 -1.571965 0.115951 44.000000
3.344028 -1.581383 0.115907 25.000000
3.343674 -1.593784 0.116016 27.000000
3.336065 -1.602737 0.115951 20.000000
3.312233 -1.603820 0.115496 11.000000
3.556629 -0.810634 0.069778 39.000000
3.554125 -0.821541 0.069778 35.000000
3.548667 -0.831756 0.069750 42.000000
3.546099 -0.842640 0.069750 51.000000
3.547385 -0.854452 0.069787 63.000000
3.538919 -0.863908 0.069732 50.000000
3.538193 -0.875241 0.069750 45.000000
3.535491 -0.886092 0.069750 41.000000
3.532756 -0.896935 0.069750 39.000000
3.534830 -0.909015 0.069797 40.000000
3.532024 -0.919855 0.069797 42.000000
3.529186 -0.930687 0.069797 46.000000
3.524381 -0.940994 0.069778 43.000000
3.521478 -0.951802 0.069778 51.000000
3.518542 -0.962601 0.069778 60.000000
3.517499 -0.973925 0.069797 53.000000
3.514494 -0.984712 0.069797 47.000000
3.513381 -0.996036 0.069815 49.000000
3.510309 -1.006810 0.069815 41.000000
3.506243 -1.017296 0.069806 49.000000
3.503105 -1.028048 0.069806 47.000000
3.495142 -1.037368 0.069760 41.000000
3.490027 -1.047511 0.069741 62.000000
3.488711 -1.058794 0.069760 48.000000
3.486402 -1.069786 0.069769 39.000000
3.483104 -1.080477 0.069769 51.000000
3.481681 -1.091756 0.069787 51.000000
3.477362 -1.102130 0.069778 46.000000
3.473964 -1.112794 0.069778 53.000000
3.470533 -1.123446 0.069778 40.000000
3.464219 -1.133156 0.069750 60.000000
3.461676 -1.144092 0.069760 49.000000
3.463840 -1.156608 0.069815 47.000000
3.461223 -1.167549 0.069824 48.000000
3.461411 -1.179453 0.069861 64.000000
3.463449 -1.192020 0.069917 42.000000
3.459776 -1.202640 0.069917 40.000000
3.458900 -1.214243 0.069945 56.000000
3.451389 -1.223512 0.069908 52.000000
3.445736 -1.233421 0.069889 42.000000
3.443816 -1.244666 0.069908 34.000000
3.440921 -1.255569 0.069917 51.000000
3.437053 -1.266120 0.069917 61.000000
3.435027 -1.277356 0.069935 54.000000
3.432964 -1.288591 0.069954 59.000000
3.430864 -1.299826 0.069972 41.000000
3.428729 -1.311060 0.069991 56.000000
3.428421 -1.323014 0.070028 42.000000
3.425278 -1.333889 0.070037 49.000000
3.423031 -1.345122 0.070056 38.000000
3.423536 -1.357461 0.070102 43.000000
3.418427 -1.367586 0.070093 65.000000
3.414215 -1.378068 0.070093 42.000000
3.409971 -1.388536 0.070093 58.000000
3.402920 -1.397851 0.070065 53.000000
3.400463 -1.409050 0.070083 58.000000
3.400737 -1.421405 0.070130 67.000000
3.398203 -1.432608 0.070148 55.000000
3.401153 -1.446158 0.070222 51.000000
3.397619 -1.456980 0.070231 40.000000
3.395887 -1.468588 0.070259 47.000000
3.394115 -1.480199 0.070287 48.000000
3.392304 -1.491813 0.070315 54.000000
3.389539 -1.503024 0.070333 51.000000
3.386738 -1.514233 0.070352 47.000000
3.384811 -1.525849 0.070379 54.000000
3.383755 -1.537882 0.070416 48.000000
3.381748 -1.549505 0.070444 44.000000
3.374255 -1.558615 0.070416 52.000000
3.366738 -1.567693 0.070389 51.000000
3.360102 -1.577165 0.070370 44.000000
3.352536 -1.586183 0.070342 34.000000
3.352166 -1.598613 0.070389 41.000000
3.349049 -1.609757 0.070407 37.000000
3.343194 -1.619588 0.070398 26.000000
3.343601 -1.632470 0.070453 36.000000
3.364595 -1.655526 0.070722 15.000000
3.577880 -0.803244 0.024072 7.000000
3.556872 -0.810004 0.024135 45.000000
3.558268 -0.821811 0.024122 40.000000
3.552809 -0.832041 0.024132 34.000000
3.543428 -0.841322 0.024155 33.000000
3.548609 -0.854058 0.024129 42.000000
3.545972 -0.864941 0.024129 46.000000
3.549127 -0.877254 0.024109 49.000000
3.544478 -0.887653 0.024115 35.000000
3.536891 -0.897295 0.024132 38.000000
3.536059 -0.908639 0.024125 35.000000
3.534223 -0.919735 0.024122 45.000000
3.530417 -0.930319 0.024125 36.000000
3.527546 -0.941146 0.024125 29.000000
3.530436 -0.953526 0.024105 25.000000
3.525564 -0.963826 0.024112 50.000000
3.528374 -0.976236 0.024092 29.000000
3.525362 -0.987057 0.024092 43.000000
3.523279 -0.998140 0.024089 51.000000
3.522124 -1.009495 0.024082 37.000000
3.518049 -1.020018 0.024085 39.000000
3.513944 -1.030525 0.024089 48.000000
3.509807 -1.041017 0.024092 50.000000
3.504681 -1.051206 0.024099 36.000000
3.505267 -1.063113 0.024085 47.000000
3.501989 -1.073862 0.024085 41.000000
3.498678 -1.084601 0.024085 58.000000
3.498197 -1.096225 0.024076 52.000000
3.486237 -1.104238 0.024105 28.000000
3.496167 -1.119192 0.024059 43.000000
3.493669 -1.130221 0.024056 49.000000
3.489234 -1.140623 0.024059 36.000000
3.482870 -1.150383 0.024069 39.000000
3.478375 -1.160746 0.024072 59.000000
3.470059 -1.169817 0.024089 37.000000
3.464561 -1.179813 0.024095 43.000000
3.459979 -1.190112 0.024099 51.000000
3.448754 -1.198098 0.024125 26.000000
3.453555 -1.211650 0.024095 44.000000
3.455478 -1.224241 0.024076 45.000000
3.454530 -1.235847 0.024066 49.000000
3.454485 -1.247797 0.024052 44.000000
3.451580 -1.258732 0.024049 46.000000
3.450518 -1.270350 0.024039 33.000000
3.448479 -1.281627 0.024032 39.000000
3.445467 -1.292551 0.024029 43.000000
3.442421 -1.303470 0.024026 42.000000
3.440274 -1.314738 0.024019 54.000000
3.439024 -1.326365 0.024009 33.000000
3.437735 -1.337997 0.023999 50.000000
3.431751 -1.347807 0.024006 42.000000
3.426671 -1.357961 0.024009 44.000000
3.423417 -1.368838 0.024006 37.000000
3.419201 -1.379335 0.024006 37.000000
3.416806 -1.390572 0.023999 46.000000
3.413449 -1.401427 0.023996 44.000000
3.411906 -1.413040 0.023986 33.000000
3.412169 -1.425427 0.023969 46.000000
3.411466 -1.437440 0.023956 43.000000
3.409801 -1.449072 0.023946 44.000000
3.408097 -1.460708 0.023936 52.000000
3.404518 -1.471553 0.023933 46.000000
3.401821 -1.482790 0.023926 54.000000
3.397256 -1.493219 0.023926 47.000000
3.389916 -1.502420 0.023936 45.000000
3.385290 -1.512813 0.023936 49.000000
3.376074 -1.521140 0.023953 36.000000
3.369570 -1.530663 0.023959 33.000000
3.373951 -1.545155 0.023926 51.000000
3.370103 -1.555918 0.023923 47.000000
3.367127 -1.567093 0.023916 52.000000
3.356871 -1.574869 0.023936 27.000000
3.352023 -1.585160 0.023936 27.000000
3.359784 -1.601457 0.023890 38.000000
3.358461 -1.613488 0.023877 46.000000
3.361596 -1.627704 0.023847 56.000000
3.357486 -1.638447 0.023843 33.000000
3.325519 -1.635509 0.023943 15.000000
3.582026 -0.792030 -0.021202 29.000000
3.582506 -0.803672 -0.021249 55.000000
3.580023 -0.814659 -0.021249 49.000000
3.576533 -0.825414 -0.021233 52.000000
3.572037 -0.835927 -0.021202 46.000000
3.565564 -0.845958 -0.021139 65.000000
3.561007 -0.856425 -0.021108 49.000000
3.561277 -0.868057 -0.021155 56.000000
3.561510 -0.879698 -0.021202 45.000000
3.557824 -0.890378 -0.021186 43.000000
3.556045 -0.901535 -0.021202 41.000000
3.553262 -0.912440 -0.021202 42.000000
3.551414 -0.923589 -0.021218 58.000000
3.547596 -0.934226 -0.021202 52.000000
3.539883 -0.943817 -0.021123 42.000000
3.538902 -0.955194 -0.021155 51.000000
3.535954 -0.966046 -0.021155 54.000000
3.532011 -0.976623 -0.021139 53.000000
3.528997 -0.987455 -0.021139 45.000000
3.524989 -0.998005 -0.021123 48.000000
3.524795 -1.009641 -0.021170 51.000000
3.526482 -1.021842 -0.021249 66.000000
3.523331 -1.032656 -0.021249 61.000000
3.523022 -1.044313 -0.021296 54.000000
3.525548 -1.056840 -0.021390 69.000000
3.525159 -1.068522 -0.021437 57.000000
3.519953 -1.078746 -0.021406 50.000000
3.515671 -1.089244 -0.021390 50.000000
3.506588 -1.098231 -0.021296 51.000000
3.506062 -1.109890 -0.021343 61.000000
3.505497 -1.121555 -0.021390 55.000000
3.500137 -1.131689 -0.021359 40.000000
3.500450 -1.143665 -0.021422 50.000000
3.498824 -1.155025 -0.021453 57.000000
3.498110 -1.166704 -0.021500 57.000000
3.494514 -1.177430 -0.021500 52.000000
3.487099 -1.186857 -0.021437 62.000000
3.483441 -1.197549 -0.021437 47.000000
3.482584 -1.209215 -0.021485 49.000000
3.476971 -1.219232 -0.021453 54.000000
3.475099 -1.230561 -0.021485 62.000000
3.472249 -1.241553 -0.021500 40.000000
3.466543 -1.251521 -0.021469 50.000000
3.464566 -1.262835 -0.021500 65.000000
3.467243 -1.275876 -0.021610 39.000000
3.460501 -1.285463 -0.021563 57.000000
3.458413 -1.296776 -0.021595 63.000000
3.455354 -1.307734 -0.021610 58.000000
3.449457 -1.317615 -0.021579 65.000000
3.446332 -1.328551 -0.021595 52.000000
3.443171 -1.339481 -0.021610 44.000000
3.439045 -1.350038 -0.021610 60.000000
3.435817 -1.360951 -0.021626 59.000000
3.432554 -1.371856 -0.021642 48.000000
3.432965 -1.384251 -0.021720 49.000000
3.430555 -1.395530 -0.021752 48.000000
3.427182 -1.406428 -0.021767 55.000000
3.425622 -1.418084 -0.021814 60.000000
3.422179 -1.428972 -0.021830 60.000000
3.422385 -1.441405 -0.021909 59.000000
3.420708 -1.453071 -0.021956 47.000000
3.416234 -1.463559 -0.021956 72.000000
3.412646 -1.474430 -0.021972 49.000000
3.412689 -1.486890 -0.022050 55.000000
3.405365 -1.496146 -0.022003 76.000000
3.403502 -1.507802 -0.022050 51.000000
3.398860 -1.518237 -0.022050 52.000000
3.393274 -1.528246 -0.022034 65.000000
3.392211 -1.540303 -0.022097 66.000000
3.387470 -1.550703 -0.022097 43.000000
3.382696 -1.561089 -0.022097 67.000000
3.379704 -1.572303 -0.022129 62.000000
3.375769 -1.583089 -0.022144 42.000000
3.376320 -1.596003 -0.022239 53.000000
3.376823 -1.608935 -0.022333 59.000000
3.377279 -1.621885 -0.022427 42.000000
3.375887 -1.633981 -0.022490 56.000000
3.373554 -1.645646 -0.022537 66.000000
3.381051 -1.662165 -0.022757 39.000000
3.361601 -1.665427 -0.022506 18.000000
3.592567 -0.818121 -0.065658 24.000000
3.592963 -0.829813 -0.065741 27.000000
3.588453 -0.840376 -0.065685 37.000000
3.582940 -0.850690 -0.065602 31.000000
3.577398 -0.860977 -0.065519 42.000000
3.571826 -0.871239 -0.065436 36.000000
3.569136 -0.882193 -0.065436 35.000000
3.567383 -0.893381 -0.065463 40.000000
3.561718 -0.903585 -0.065380 43.000000
3.560866 -0.915005 -0.065436 35.000000
3.558041 -0.925925 -0.065436 34.000000
3.555184 -0.936837 -0.065436 31.000000
3.554225 -0.948255 -0.065491 43.000000
3.552264 -0.959415 -0.065519 42.000000
3.549304 -0.970308 -0.065519 53.000000
3.547274 -0.981459 -0.065547 39.000000
3.542321 -0.991799 -0.065491 36.000000
3.539261 -1.002662 -0.065491 52.000000
3.537129 -1.013791 -0.065519 43.000000
3.533043 -1.024360 -0.065491 46.000000
3.529883 -1.035194 -0.065491 52.000000
3.528607 -1.046587 -0.065547 42.000000
3.524422 -1.057120 -0.065519 61.000000
3.524033 -1.068798 -0.065602 41.000000
3.523604 -1.080482 -0.065685 45.000000
3.517408 -1.090400 -0.065602 47.000000
3.514046 -1.101187 -0.065602 40.000000
3.510652 -1.111962 -0.065602 41.000000
3.510080 -1.123641 -0.065685 53.000000
3.504714 -1.133790 -0.065630 33.000000
3.501219 -1.144537 -0.065630 53.000000
3.498640 -1.155586 -0.065658 47.000000
3.494130 -1.165998 -0.065630 47.000000
3.491484 -1.177032 -0.065658 46.000000
3.485964 -1.187094 -0.065602 46.000000
3.479469 -1.196809 -0.065519 48.000000
3.481447 -1.209444 -0.065685 40.000000
3.476777 -1.219789 -0.065658 37.000000
3.473018 -1.230450 -0.065658 45.000000
3.471110 -1.241772 -0.065713 45.000000
3.472925 -1.254451 -0.065879 42.000000
3.473757 -1.266811 -0.066018 55.000000
3.473606 -1.278843 -0.066129 51.000000
3.469666 -1.289493 -0.066129 46.000000
3.470374 -1.301886 -0.066268 39.000000
3.462624 -1.311112 -0.066157 33.000000
3.458585 -1.321729 -0.066157 53.000000
3.452648 -1.331615 -0.066101 40.000000
3.448547 -1.342201 -0.066101 37.000000
3.444412 -1.352775 -0.066101 31.000000
3.443034 -1.364440 -0.066185 31.000000
3.444402 -1.377221 -0.066351 57.000000
3.440161 -1.387782 -0.066351 40.000000
3.435886 -1.398330 -0.066351 53.000000
3.422332 -1.405071 -0.066074 34.000000
3.427242 -1.419386 -0.066351 39.000000
3.421949 -1.429509 -0.066323 54.000000
3.421232 -1.441552 -0.066434 59.000000
3.419554 -1.453213 -0.066518 46.000000
3.417836 -1.464878 -0.066601 54.000000
3.413326 -1.475357 -0.066601 45.000000
3.412449 -1.487418 -0.066712 63.000000
3.406039 -1.497077 -0.066656 50.000000
3.403259 -1.508329 -0.066712 55.000000
3.400440 -1.519578 -0.066767 34.000000
3.399408 -1.531644 -0.066878 46.000000
3.396514 -1.542893 -0.066934 49.000000
3.394491 -1.554554 -0.067017 47.000000
3.392429 -1.566217 -0.067100 52.000000
3.384889 -1.575353 -0.067017 36.000000
3.381850 -1.586578 -0.067073 46.000000
3.378774 -1.597800 -0.067128 32.000000
3.374759 -1.608589 -0.067156 28.000000
3.365302 -1.616772 -0.067017 21.000000
3.371124 -1.632313 -0.067350 7.000000
3.600365 -0.830917 -0.112235 35.000000
3.597798 -0.841959 -0.112235 38.000000
3.592282 -0.852300 -0.112114 44.000000
3.584793 -0.862148 -0.111913 43.000000
3.580189 -0.872669 -0.111832 48.000000
3.579435 -0.884128 -0.111913 51.000000
3.577675 -0.895348 -0.111953 54.000000
3.572974 -0.905829 -0.111872 45.000000
3.571146 -0.917035 -0.111913 48.000000
3.567349 -0.927735 -0.111872 48.000000
3.565453 -0.938930 -0.111913 49.000000
3.562555 -0.949864 -0.111913 48.000000
3.556730 -0.960008 -0.111792 54.000000
3.552804 -0.970652 -0.111752 57.000000
3.550773 -0.981813 -0.111792 51.000000
3.546781 -0.992433 -0.111752 46.000000
3.547565 -1.004399 -0.111913 51.000000
3.550231 -1.016930 -0.112155 59.000000
3.551893 -1.029208 -0.112356 56.000000
3.549677 -1.040381 -0.112396 50.000000
3.544552 -1.050698 -0.112316 37.000000
3.548012 -1.063577 -0.112598 63.000000
3.542820 -1.073877 -0.112517 53.000000
3.538553 -1.084448 -0.112477 46.000000
3.529483 -1.093525 -0.112235 37.000000
3.525158 -1.104049 -0.112195 49.000000
3.520802 -1.114557 -0.112155 42.000000
3.515463 -1.124744 -0.112074 49.000000
3.511045 -1.135217 -0.112034 56.000000
3.507545 -1.145983 -0.112034 41.000000
3.506859 -1.157679 -0.112155 61.000000
3.509926 -1.170646 -0.112437 50.000000
3.506318 -1.181409 -0.112437 49.000000
3.507406 -1.193771 -0.112638 66.000000
3.503727 -1.204526 -0.112638 66.000000
3.496240 -1.213958 -0.112477 48.000000
3.492499 -1.224679 -0.112477 62.000000
3.486842 -1.234720 -0.112396 48.000000
3.481156 -1.244739 -0.112316 58.000000
3.480140 -1.256431 -0.112437 65.000000
3.478146 -1.267787 -0.112517 51.000000
3.477991 -1.279832 -0.112679 73.000000
3.474048 -1.290497 -0.112679 46.000000
3.468202 -1.300447 -0.112598 40.000000
3.464195 -1.311081 -0.112598 39.000000
3.460157 -1.321703 -0.112598 58.000000
3.457018 -1.332672 -0.112638 45.000000
3.452913 -1.343272 -0.112638 42.000000
3.450636 -1.354589 -0.112719 41.000000
3.452037 -1.367377 -0.112961 54.000000
3.451537 -1.379445 -0.113122 58.000000
3.450069 -1.391149 -0.113243 51.000000
3.446710 -1.402104 -0.113283 44.000000
3.441468 -1.412292 -0.113243 55.000000
3.440812 -1.424373 -0.113404 57.000000
3.436426 -1.434923 -0.113404 56.000000
3.432007 -1.445459 -0.113404 60.000000
3.429396 -1.456763 -0.113485 40.000000
3.427665 -1.468458 -0.113606 47.000000
3.427730 -1.480949 -0.113807 45.000000
3.425918 -1.492656 -0.113928 50.000000
3.422237 -1.503561 -0.113968 50.000000
3.423090 -1.516482 -0.114210 57.000000
3.422982 -1.529015 -0.114412 47.000000
3.421919 -1.541151 -0.114573 65.000000
3.421724 -1.553708 -0.114774 60.000000
3.417849 -1.564614 -0.114815 68.000000
3.417569 -1.577187 -0.115016 50.000000
3.412714 -1.587664 -0.115016 54.000000
3.402400 -1.595581 -0.114774 44.000000
3.397489 -1.606012 -0.114774 41.000000
3.389839 -1.615138 -0.114654 35.000000
3.383067 -1.624665 -0.114573 40.000000
3.403248 -1.647228 -0.115702 13.000000
3.587202 -0.829797 -0.155955 33.000000
3.587556 -0.841482 -0.156112 34.000000
3.584957 -0.852485 -0.156112 48.000000
3.586209 -0.864414 -0.156322 30.000000
3.588391 -0.876595 -0.156583 54.000000
3.591501 -0.889038 -0.156897 42.000000
3.594569 -0.901508 -0.157211 45.000000
3.590818 -0.912287 -0.157159 40.000000
3.590904 -0.924044 -0.157316 56.000000
3.586119 -0.934554 -0.157211 48.000000
3.583236 -0.945551 -0.157211 57.000000
3.584177 -0.957570 -0.157421 58.000000
3.578330 -0.967780 -0.157264 41.000000
3.575344 -0.978754 -0.157264 44.000000
3.575212 -0.990517 -0.157421 49.000000
3.571195 -1.001212 -0.157369 49.000000
3.569067 -1.012436 -0.157421 62.000000
3.561144 -1.022005 -0.157159 53.000000
3.553197 -1.031535 -0.156897 51.000000
3.547141 -1.041588 -0.156740 33.000000
3.545843 -1.053033 -0.156845 52.000000
3.540683 -1.063333 -0.156740 46.000000
3.537404 -1.074191 -0.156740 35.000000
3.531227 -1.084160 -0.156583 41.000000
3.525023 -1.094101 -0.156426 46.000000
3.523556 -1.105508 -0.156531 41.000000
3.523955 -1.117519 -0.156740 40.000000
3.517657 -1.127412 -0.156583 39.000000
3.518932 -1.139736 -0.156845 42.000000
3.522063 -1.152699 -0.157211 37.000000
3.525148 -1.165691 -0.157578 43.000000
3.529133 -1.179030 -0.157997 51.000000
3.526446 -1.190171 -0.158049 55.000000
3.521832 -1.200662 -0.157997 48.000000
3.518132 -1.211461 -0.157997 46.000000
3.511569 -1.221266 -0.157840 46.000000
3.507806 -1.232033 -0.157840 53.000000
3.501186 -1.241789 -0.157683 47.000000
3.497359 -1.252524 -0.157683 56.000000
3.489743 -1.261891 -0.157473 46.000000
3.487732 -1.273276 -0.157578 49.000000
3.486620 -1.285005 -0.157735 58.000000
3.480789 -1.295000 -0.157630 36.000000
3.478670 -1.306375 -0.157735 39.000000
3.476514 -1.317748 -0.157840 43.000000
3.473387 -1.328764 -0.157892 44.000000
3.473953 -1.341211 -0.158154 53.000000
3.469822 -1.351863 -0.158154 63.000000
3.463799 -1.361771 -0.158049 47.000000
3.465175 -1.374599 -0.158363 54.000000
3.460014 -1.384853 -0.158311 53.000000
3.457602 -1.396209 -0.158415 36.000000
3.457927 -1.408693 -0.158677 45.000000
3.455436 -1.420053 -0.158782 39.000000
3.454754 -1.432176 -0.158991 46.000000
3.455872 -1.445079 -0.159305 45.000000
3.451422 -1.455674 -0.159305 58.000000
3.450617 -1.467819 -0.159514 54.000000
3.446097 -1.478398 -0.159514 46.000000
3.442462 -1.489360 -0.159567 38.000000
3.440623 -1.501111 -0.159724 47.000000
3.436001 -1.511660 -0.159724 33.000000
3.434086 -1.523408 -0.159881 66.000000
3.431220 -1.534752 -0.159985 57.000000
3.431958 -1.547733 -0.160299 42.000000
3.430830 -1.559907 -0.160509 62.000000
3.435108 -1.574584 -0.161032 34.000000
3.428447 -1.584278 -0.160927 62.000000
3.428097 -1.596896 -0.161189 44.000000
3.425894 -1.608678 -0.161346 46.000000
3.421846 -1.619608 -0.161398 42.000000
3.417762 -1.630528 -0.161451 25.000000
3.416344 -1.642736 -0.161660 44.000000
3.426568 -1.660608 -0.162550 7.000000
3.619097 -0.835242 -0.203635 41.000000
3.616518 -0.846341 -0.203635 52.000000
3.609049 -0.856280 -0.203311 33.000000
3.605435 -0.867115 -0.203247 44.000000
3.603727 -0.878409 -0.203311 48.000000
3.601984 -0.889700 -0.203376 53.000000
3.599238 -0.900747 -0.203376 53.000000
3.597425 -0.912030 -0.203441 39.000000
3.597509 -0.923808 -0.203635 44.000000
3.596590 -0.935343 -0.203764 37.000000
3.592738 -0.946118 -0.203699 55.000000
3.588854 -0.956879 -0.203635 61.000000
3.584938 -0.967625 -0.203570 54.000000
3.582915 -0.978882 -0.203635 65.000000
3.578933 -0.989603 -0.203570 55.000000
3.576842 -1.000848 -0.203635 50.000000
3.571834 -1.011273 -0.203505 67.000000
3.567755 -1.021951 -0.203441 47.000000
3.565562 -1.033170 -0.203505 59.000000
3.561418 -1.043823 -0.203441 49.000000
3.558199 -1.054745 -0.203441 51.000000
3.559725 -1.067089 -0.203764 49.000000
3.555480 -1.077716 -0.203699 46.000000
3.552156 -1.088619 -0.203699 58.000000
3.548800 -1.099512 -0.203699 51.000000
3.542553 -1.109499 -0.203505 56.000000
3.538181 -1.120061 -0.203441 44.000000
3.532827 -1.130302 -0.203311 36.000000
3.532192 -1.142057 -0.203505 43.000000
3.541002 -1.156918 -0.204347 72.000000
3.539331 -1.168402 -0.204476 53.000000
3.538570 -1.180203 -0.204670 50.000000
3.537769 -1.192009 -0.204864 50.000000
3.533151 -1.202536 -0.204799 54.000000
3.529445 -1.213370 -0.204799 60.000000
3.523820 -1.223537 -0.204670 38.000000
3.517225 -1.233352 -0.204476 52.000000
3.510603 -1.243137 -0.204282 56.000000
3.509591 -1.254910 -0.204476 62.000000
3.502909 -1.264654 -0.204282 61.000000
3.498075 -1.275053 -0.204217 41.000000
3.494147 -1.285779 -0.204217 44.000000
3.487379 -1.295450 -0.204023 64.000000
3.484323 -1.306494 -0.204088 62.000000
3.484031 -1.318591 -0.204347 69.000000
3.484630 -1.331054 -0.204670 50.000000
3.487048 -1.344252 -0.205123 60.000000
3.485697 -1.356029 -0.205317 62.000000
3.483378 -1.367446 -0.205447 50.000000
3.482877 -1.379597 -0.205705 54.000000
3.474922 -1.388794 -0.205447 59.000000
3.473422 -1.400569 -0.205641 46.000000
3.463562 -1.408962 -0.205252 46.000000
3.463839 -1.421476 -0.205576 39.000000
3.464994 -1.434387 -0.205964 41.000000
3.464260 -1.446549 -0.206223 52.000000
3.465324 -1.459495 -0.206611 39.000000
3.460830 -1.470119 -0.206611 56.000000
3.458138 -1.481516 -0.206741 42.000000
3.462736 -1.496077 -0.207388 69.000000
3.456300 -1.505897 -0.207258 63.000000
3.456232 -1.518501 -0.207582 44.000000
3.451557 -1.529097 -0.207582 44.000000
3.450494 -1.541308 -0.207841 50.000000
3.448478 -1.553116 -0.208035 72.000000
3.445514 -1.564514 -0.208164 57.000000
3.440699 -1.575077 -0.208164 52.000000
3.433132 -1.584371 -0.207970 50.000000
3.424636 -1.593212 -0.207711 58.000000
3.418829 -1.603287 -0.207647 42.000000
3.412992 -1.613342 -0.207582 35.000000
3.404423 -1.622088 -0.207323 46.000000
3.399430 -1.632525 -0.207323 37.000000
3.419554 -1.655122 -0.209135 11.000000
3.609782 -0.835013 -0.247051 37.000000
3.608175 -0.846311 -0.247128 28.000000
3.599741 -0.855995 -0.246669 35.000000
3.595159 -0.866568 -0.246516 35.000000
3.594420 -0.878066 -0.246669 46.000000
3.595582 -0.890047 -0.246975 41.000000
3.591867 -0.900832 -0.246898 35.000000
3.597784 -0.914054 -0.247587 44.000000
3.600757 -0.926576 -0.248046 48.000000
3.600792 -0.938372 -0.248276 49.000000
3.598860 -0.949669 -0.248353 44.000000
3.594967 -0.960449 -0.248276 43.000000
3.591040 -0.971214 -0.248200 45.000000
3.589006 -0.982489 -0.248276 47.000000
3.588857 -0.994293 -0.248506 39.000000
3.587710 -1.005837 -0.248659 24.000000
3.575974 -1.014392 -0.247970 35.000000
3.576679 -1.026458 -0.248276 55.000000
3.574471 -1.037704 -0.248353 41.000000
3.571270 -1.048665 -0.248353 44.000000
3.568036 -1.059617 -0.248353 30.000000
3.563813 -1.070272 -0.248276 62.000000
3.560513 -1.081200 -0.248276 48.000000
3.557179 -1.092119 -0.248276 57.000000
3.554764 -1.103322 -0.248353 47.000000
3.554217 -1.115117 -0.248582 53.000000
3.550779 -1.126016 -0.248582 50.000000
3.546358 -1.136601 -0.248506 42.000000
3.543803 -1.147782 -0.248582 51.000000
3.539317 -1.158339 -0.248506 41.000000
3.538587 -1.170130 -0.248735 50.000000
3.533089 -1.180350 -0.248582 47.000000
3.532285 -1.192140 -0.248812 43.000000
3.529555 -1.203292 -0.248888 42.000000
3.529619 -1.215412 -0.249195 52.000000
3.526815 -1.226562 -0.249271 55.000000
3.522094 -1.237047 -0.249195 62.000000
3.518283 -1.247847 -0.249195 50.000000
3.515377 -1.258971 -0.249271 42.000000
3.508684 -1.268733 -0.249042 38.000000
3.507585 -1.280517 -0.249271 60.000000
3.502704 -1.290927 -0.249195 54.000000
3.498728 -1.301667 -0.249195 62.000000
3.497518 -1.313446 -0.249424 44.000000
3.494405 -1.324523 -0.249501 44.000000
3.492187 -1.335950 -0.249654 40.000000
3.493654 -1.348810 -0.250113 51.000000
3.493216 -1.360969 -0.250419 49.000000
3.488096 -1.371315 -0.250343 39.000000
3.489434 -1.384214 -0.250802 38.000000
3.490726 -1.397134 -0.251261 49.000000
3.483649 -1.406718 -0.251032 49.000000
3.479317 -1.417399 -0.251032 40.000000
3.474952 -1.428067 -0.251032 52.000000
3.469633 -1.438339 -0.250955 51.000000
3.469804 -1.450899 -0.251338 45.000000
3.466255 -1.461925 -0.251414 47.000000
3.464506 -1.473722 -0.251644 54.000000
3.462718 -1.485523 -0.251874 46.000000
3.461805 -1.497722 -0.252180 40.000000
3.459022 -1.509132 -0.252333 60.000000
3.456201 -1.520540 -0.252486 45.000000
3.452432 -1.531540 -0.252563 58.000000
3.449538 -1.542938 -0.252716 63.000000
3.449333 -1.555562 -0.253098 60.000000
3.449083 -1.568199 -0.253481 50.000000
3.446069 -1.579604 -0.253634 34.000000
3.443922 -1.591423 -0.253864 48.000000
3.440831 -1.602823 -0.254017 48.000000
3.439508 -1.615065 -0.254323 38.000000
3.437241 -1.626889 -0.254553 32.000000
3.430434 -1.636568 -0.254400 32.000000
3.427194 -1.647949 -0.254553 18.000000
3.617957 -0.836303 -0.293168 23.000000
3.608586 -0.845807 -0.292546 28.000000
3.605974 -0.856874 -0.292546 33.000000
3.603328 -0.867933 -0.292546 38.000000
3.598713 -0.878511 -0.292369 42.000000
3.596968 -0.889787 -0.292458 49.000000
3.595187 -0.901061 -0.292546 33.000000
3.596268 -0.913067 -0.292901 41.000000
3.599237 -0.925585 -0.293434 28.000000
3.601200 -0.937879 -0.293877 39.000000
3.603121 -0.950193 -0.294321 44.000000
3.605963 -0.962785 -0.294853 34.000000
3.606839 -0.974884 -0.295208 44.000000
3.608634 -0.987259 -0.295652 49.000000
3.605588 -0.998326 -0.295652 41.000000
3.598672 -1.008308 -0.295297 38.000000
3.594603 -1.019072 -0.295208 38.000000
3.590503 -1.029820 -0.295119 35.000000
3.584456 -1.039998 -0.294853 47.000000
3.580293 -1.050709 -0.294764 59.000000
3.575143 -1.061121 -0.294587 37.000000
3.571871 -1.072085 -0.294587 34.000000
3.574284 -1.084774 -0.295119 35.000000
3.570939 -1.095735 -0.295119 47.000000
3.567560 -1.106685 -0.295119 39.000000
3.566999 -1.118520 -0.295386 34.000000
3.564500 -1.129759 -0.295474 40.000000
3.557224 -1.139474 -0.295119 46.000000
3.558449 -1.151916 -0.295563 41.000000
3.551112 -1.161589 -0.295208 32.000000
3.554151 -1.174666 -0.295829 46.000000
3.552420 -1.186196 -0.296007 40.000000
3.552539 -1.198363 -0.296361 37.000000
3.554502 -1.211185 -0.296894 28.000000
3.551712 -1.222408 -0.296983 32.000000
3.547004 -1.232972 -0.296894 40.000000
3.544145 -1.244178 -0.296983 52.000000
3.542188 -1.255711 -0.297160 53.000000
3.543008 -1.268252 -0.297604 30.000000
3.538163 -1.278777 -0.297515 38.000000
3.537031 -1.290650 -0.297781 41.000000
3.535858 -1.302529 -0.298047 36.000000
3.529979 -1.312676 -0.297870 44.000000
3.523137 -1.322449 -0.297604 54.000000
3.515338 -1.331840 -0.297249 38.000000
3.509374 -1.341907 -0.297071 40.000000
3.507100 -1.353385 -0.297249 40.000000
3.502931 -1.364138 -0.297249 40.000000
3.504291 -1.377065 -0.297781 44.000000
3.506531 -1.390380 -0.298402 44.000000
3.504099 -1.401871 -0.298579 48.000000
3.502552 -1.413734 -0.298846 43.000000
3.500966 -1.425600 -0.299112 39.000000
3.491048 -1.434063 -0.298579 39.000000
3.483871 -1.443622 -0.298313 42.000000
3.479426 -1.454304 -0.298313 41.000000
3.474030 -1.464585 -0.298225 35.000000
3.473187 -1.476795 -0.298579 39.000000
3.465893 -1.486266 -0.298313 35.000000
3.460403 -1.496497 -0.298225 33.000000
3.458534 -1.508301 -0.298491 43.000000
3.454803 -1.519306 -0.298579 36.000000
3.444662 -1.527474 -0.298047 39.000000
3.439960 -1.538035 -0.298047 43.000000
3.437041 -1.549401 -0.298225 46.000000
3.438618 -1.562823 -0.298846 52.000000
3.441957 -1.577101 -0.299644 43.000000
3.448857 -1.593084 -0.300797 41.000000
3.450274 -1.606601 -0.301419 60.000000
3.449836 -1.619296 -0.301862 44.000000
3.449354 -1.632003 -0.302306 37.000000
3.425452 -1.633572 -0.300443 21.000000
3.426708 -1.647094 -0.301064 21.000000
3.367857 -1.631538 -0.295740 9.000000
3.592853 -1.090328 -0.344262 15.000000
3.592345 -1.102220 -0.344565 29.000000
3.604151 -1.117947 -0.346185 40.000000
3.596907 -1.127810 -0.345780 49.000000
3.589636 -1.137639 -0.345375 43.000000
3.585181 -1.148343 -0.345274 38.000000
3.575015 -1.157194 -0.344565 58.000000
3.571448 -1.168157 -0.344565 51.000000
3.572571 -1.180668 -0.345072 40.000000
3.565157 -1.190364 -0.344667 48.000000
3.568087 -1.203519 -0.345375 49.000000
3.571913 -1.217025 -0.346185 55.000000
3.577570 -1.231212 -0.347197 44.000000
3.579415 -1.244140 -0.347805 62.000000
3.580275 -1.256762 -0.348311 53.000000
3.585780 -1.271061 -0.349323 46.000000
3.620272 -1.295790 -0.353474 156.000000
3.600372 -1.301148 -0.351753 85.000000
3.579538 -1.306054 -0.349931 30.000000
3.570846 -1.315312 -0.349424 45.000000
3.558401 -1.323143 -0.348513 43.000000
3.549667 -1.332307 -0.348007 35.000000
3.533467 -1.338613 -0.346691 53.000000
3.525626 -1.348027 -0.346286 63.000000
3.516832 -1.357048 -0.345780 56.000000
3.514507 -1.368553 -0.345983 56.000000
3.514922 -1.381146 -0.346489 51.000000
3.515293 -1.393756 -0.346995 44.000000
3.522086 -1.408965 -0.348210 29.000000
3.517747 -1.419763 -0.348210 36.000000
3.516139 -1.431674 -0.348513 27.000000
3.630722 -1.113396 -0.394033 17.000000
3.596921 -1.115111 -0.390416 21.000000
3.603912 -1.129411 -0.391660 39.000000
3.600430 -1.140462 -0.391660 54.000000
3.596914 -1.151503 -0.391660 56.000000
3.593365 -1.162533 -0.391660 45.000000
3.589781 -1.173552 -0.391660 50.000000
3.588994 -1.185494 -0.391999 51.000000
3.588168 -1.197444 -0.392338 60.000000
3.590126 -1.210351 -0.393016 47.000000
3.592039 -1.223282 -0.393694 46.000000
3.593906 -1.236237 -0.394372 38.000000
3.590096 -1.247257 -0.394372 43.000000
3.590941 -1.259910 -0.394938 33.000000
3.592677 -1.272913 -0.395616 40.000000
3.618691 -1.294642 -0.399233 77.000000
3.621243 -1.308102 -0.400024 114.000000
3.578943 -1.305244 -0.395390 32.000000
3.576787 -1.316905 -0.395616 50.000000
3.559691 -1.323024 -0.394033 30.000000
3.553755 -1.333241 -0.393807 47.000000
3.544073 -1.342026 -0.393129 42.000000
3.536227 -1.351473 -0.392677 39.000000
3.530210 -1.361601 -0.392451 44.000000
3.534348 -1.375669 -0.393468 43.000000
3.537510 -1.389413 -0.394372 38.000000
3.536001 -1.401357 -0.394712 33.000000
3.539066 -1.415151 -0.395616 41.000000
3.537472 -1.427118 -0.395955 37.000000
3.536757 -1.439462 -0.396407 38.000000
3.540596 -1.453704 -0.397424 24.000000
3.624198 -1.111983 -0.440737 17.000000
3.616979 -1.121922 -0.440236 30.000000
3.608786 -1.131531 -0.439609 42.000000
3.599622 -1.140800 -0.438857 56.000000
3.597051 -1.152141 -0.438983 52.000000
3.592555 -1.162866 -0.438857 40.000000
3.589913 -1.174190 -0.438983 54.000000
3.588178 -1.185820 -0.439233 44.000000
3.586406 -1.197451 -0.439484 43.000000
3.585536 -1.209399 -0.439860 45.000000
3.592139 -1.223910 -0.441239 56.000000
3.594935 -1.237182 -0.442116 43.000000
3.600495 -1.251460 -0.443369 45.000000
3.610682 -1.267425 -0.445249 34.000000
3.613323 -1.280815 -0.446127 35.000000
3.625258 -1.297573 -0.448257 67.000000
3.616594 -1.307005 -0.447631 32.000000
3.610703 -1.317415 -0.447380 51.000000
3.600126 -1.326087 -0.446503 50.000000
3.583951 -1.332635 -0.444873 51.000000
3.577059 -1.342579 -0.444497 50.000000
3.568284 -1.351791 -0.443871 51.000000
3.560412 -1.361316 -0.443369 69.000000
3.557145 -1.372589 -0.443495 38.000000
3.550143 -1.382417 -0.443119 53.000000
3.548656 -1.394390 -0.443495 50.000000
3.546206 -1.406001 -0.443745 47.000000
3.543718 -1.417610 -0.443996 38.000000
3.541193 -1.429218 -0.444247 38.000000
3.534953 -1.439328 -0.443996 37.000000
3.611290 -1.483313 -0.455025 7.000000
3.624990 -1.122435 -0.488198 12.000000
3.613966 -1.131184 -0.487098 41.000000
3.612368 -1.142863 -0.487373 38.000000
3.603184 -1.152130 -0.486548 39.000000
3.601517 -1.163788 -0.486823 40.000000
3.597930 -1.174832 -0.486823 41.000000
3.596190 -1.186486 -0.487098 38.000000
3.597231 -1.199080 -0.487785 41.000000
3.599168 -1.212008 -0.488610 42.000000
3.605747 -1.226554 -0.490122 38.000000
3.614145 -1.241796 -0.491909 44.000000
3.623418 -1.257426 -0.493833 46.000000
3.640107 -1.275746 -0.496857 30.000000
3.638044 -1.287568 -0.497131 31.000000
3.639673 -1.300724 -0.497956 15.000000
3.629143 -1.309530 -0.496994 23.000000
3.620455 -1.318963 -0.496307 47.000000
3.610814 -1.328012 -0.495482 43.000000
3.599295 -1.336325 -0.494383 30.000000
3.588686 -1.344927 -0.493420 45.000000
3.576205 -1.352776 -0.492183 42.000000
3.569262 -1.362681 -0.491771 48.000000
3.563216 -1.372912 -0.491496 52.000000
3.557141 -1.383119 -0.491221 51.000000
3.551037 -1.393302 -0.490946 60.000000
3.547666 -1.404555 -0.491084 51.000000
3.546100 -1.416535 -0.491496 55.000000
3.543575 -1.428148 -0.491771 47.000000
3.533671 -1.436774 -0.490946 37.000000
3.646621 -1.144077 -0.538082 20.000000
3.635553 -1.152871 -0.536888 24.000000
3.617873 -1.159496 -0.534651 37.000000
3.606773 -1.168155 -0.533457 47.000000
3.599412 -1.177986 -0.532860 65.000000
3.599537 -1.190264 -0.533457 47.000000
3.600558 -1.202867 -0.534203 41.000000
3.605283 -1.216751 -0.535546 44.000000
3.609958 -1.230675 -0.536888 45.000000
3.615516 -1.244961 -0.538380 43.000000
3.619151 -1.258643 -0.539574 42.000000
3.633001 -1.275961 -0.542409 31.000000
3.635593 -1.289413 -0.543453 23.000000
3.633193 -1.313712 -0.544348 21.000000
3.621714 -1.322142 -0.543154 32.000000
3.613929 -1.331880 -0.542558 32.000000
3.599630 -1.339172 -0.540917 49.000000
3.590876 -1.348472 -0.540171 55.000000
3.582098 -1.357731 -0.539425 55.000000
3.573298 -1.366950 -0.538679 52.000000
3.569087 -1.377906 -0.538679 60.000000
3.562079 -1.387773 -0.538231 57.000000
3.555043 -1.397611 -0.537784 55.000000
3.548900 -1.407782 -0.537485 59.000000
3.544564 -1.418663 -0.537485 54.000000
3.531025 -1.425832 -0.535993 17.000000
3.513813 -1.431439 -0.533905 9.000000
3.685565 -1.154305 -0.591608 18.000000
3.663188 -1.159648 -0.588386 22.000000
3.653973 -1.169076 -0.587419 25.000000
3.636284 -1.175725 -0.585003 39.000000
3.621402 -1.183196 -0.583070 44.000000
3.611195 -1.192134 -0.581942 44.000000
3.606585 -1.202895 -0.581781 55.000000
3.614100 -1.217737 -0.583714 35.000000
3.613150 -1.229774 -0.584198 58.000000
3.622426 -1.245346 -0.586453 35.000000
3.626979 -1.259368 -0.587903 36.000000
3.634274 -1.274410 -0.589836 25.000000
3.635929 -1.287531 -0.590802 31.000000
3.625779 -1.321617 -0.591124 29.000000
3.613372 -1.329666 -0.589675 47.000000
3.607425 -1.340058 -0.589352 40.000000
3.596828 -1.348693 -0.588225 55.000000
3.589905 -1.358673 -0.587741 61.000000
3.581110 -1.367919 -0.586936 70.000000
3.573213 -1.377479 -0.586292 65.000000
3.568970 -1.388435 -0.586292 51.000000
3.563775 -1.399017 -0.586131 51.000000
3.558548 -1.409580 -0.585970 50.000000
3.570703 -1.427086 -0.588869 31.000000
3.594682 -1.449478 -0.593863 18.000000
3.669232 -1.163539 -0.637016 16.000000
3.651575 -1.170286 -0.634422 34.000000
3.647967 -1.181484 -0.634422 20.000000
3.633091 -1.188997 -0.632346 20.000000
3.618204 -1.196430 -0.630271 30.000000
3.621056 -1.209708 -0.631482 45.000000
3.621061 -1.222070 -0.632173 60.000000
3.616362 -1.232856 -0.632000 90.000000
3.622808 -1.247469 -0.633903 49.000000
3.624546 -1.260517 -0.634941 28.000000
3.619732 -1.271305 -0.634768 15.000000
3.623836 -1.335528 -0.639265 33.000000
3.616952 -1.345610 -0.638746 30.000000
3.604508 -1.353586 -0.637189 40.000000
3.596653 -1.363243 -0.636497 49.000000
3.584174 -1.371107 -0.634941 59.000000
