ply
format ascii 1.0
element vertex 863
property float x
property float y
property float z
property float intensity
end_header
4.463063 -1.549770 0.774382 16.000000
4.443372 -1.558223 0.771903 31.000000
4.425533 -1.567229 0.769735 43.000000
4.461634 -1.595439 0.776550 14.000000
4.485151 -1.480214 0.716194 21.000000
4.469320 -1.490214 0.714478 41.000000
4.441277 -1.496026 0.710904 79.000000
4.440414 -1.510918 0.711476 82.000000
4.438567 -1.525499 0.711905 87.000000
4.439476 -1.541055 0.712763 79.000000
4.435661 -1.554995 0.712906 108.000000
4.435535 -1.570246 0.713621 106.000000
4.433493 -1.584846 0.714049 76.000000
4.433265 -1.600119 0.714764 89.000000
4.424615 -1.612358 0.714192 75.000000
4.419648 -1.625925 0.714192 50.000000
4.520452 -1.385479 0.659064 10.000000
4.510498 -1.397581 0.658277 7.000000
4.509027 -1.412301 0.658671 10.000000
4.476320 -1.417149 0.654739 37.000000
4.473839 -1.431480 0.655001 36.000000
4.462823 -1.443063 0.654084 49.000000
4.456491 -1.456132 0.653822 55.000000
4.454827 -1.470730 0.654215 55.000000
4.451234 -1.484704 0.654346 59.000000
4.449476 -1.499303 0.654739 74.000000
4.448609 -1.514225 0.655263 76.000000
4.443005 -1.527544 0.655132 57.000000
4.439234 -1.541493 0.655263 77.000000
4.435420 -1.555433 0.655394 55.000000
4.433431 -1.570027 0.655788 56.000000
4.430460 -1.584289 0.656050 77.000000
4.431173 -1.599894 0.656836 58.000000
4.428107 -1.614160 0.657098 70.000000
4.428716 -1.629793 0.657884 51.000000
4.424624 -1.643718 0.658015 50.000000
4.418632 -1.656936 0.657884 45.000000
4.414455 -1.670836 0.658015 41.000000
4.471037 -1.309189 0.592291 18.000000
4.485090 -1.328252 0.594551 84.000000
4.477189 -1.340867 0.594075 67.000000
4.474954 -1.355172 0.594313 87.000000
4.472675 -1.369475 0.594551 81.000000
4.467504 -1.382897 0.594432 81.000000
4.464188 -1.396893 0.594551 65.000000
4.460828 -1.410882 0.594670 65.000000
4.458370 -1.425165 0.594907 81.000000
4.456811 -1.439752 0.595264 74.000000
4.451429 -1.453110 0.595145 81.000000
4.446007 -1.466449 0.595026 83.000000
4.441487 -1.480083 0.595026 91.000000
4.436925 -1.493702 0.595026 86.000000
4.435143 -1.508265 0.595383 89.000000
4.431434 -1.522187 0.595502 94.000000
4.429557 -1.536751 0.595859 104.000000
4.426696 -1.550990 0.596097 124.000000
4.420980 -1.564233 0.595978 95.000000
4.417096 -1.578122 0.596097 108.000000
4.414101 -1.592340 0.596334 110.000000
4.410129 -1.606214 0.596453 111.000000
4.408908 -1.621107 0.596929 128.000000
4.405776 -1.635316 0.597167 104.000000
4.400738 -1.648825 0.597167 103.000000
4.397516 -1.663020 0.597405 92.000000
4.395177 -1.677565 0.597762 97.000000
4.391862 -1.691755 0.597999 93.000000
4.391279 -1.707019 0.598594 73.000000
4.393416 -1.723382 0.599545 39.000000
4.504375 -1.259643 0.536807 14.000000
4.498576 -1.272915 0.536594 54.000000
4.492738 -1.286163 0.536380 37.000000
4.491636 -1.300770 0.536701 65.000000
4.484762 -1.313705 0.536380 57.000000
4.479757 -1.327176 0.536273 50.000000
4.478521 -1.341769 0.536594 52.000000
4.471529 -1.354638 0.536273 58.000000
4.468303 -1.368641 0.536380 61.000000
4.466932 -1.383226 0.536701 61.000000
4.462667 -1.396924 0.536701 63.000000
4.461205 -1.411509 0.537021 72.000000
4.461588 -1.426704 0.537555 86.000000
4.455298 -1.439773 0.537341 70.000000
4.453696 -1.454361 0.537662 63.000000
4.451101 -1.468641 0.537875 68.000000
4.443744 -1.481346 0.537555 62.000000
4.440121 -1.495290 0.537662 58.000000
4.433630 -1.508265 0.537448 61.000000
4.425220 -1.520567 0.537021 79.000000
4.425231 -1.535767 0.537555 90.000000
4.424252 -1.550652 0.537982 81.000000
4.422286 -1.565213 0.538302 69.000000
4.418399 -1.579108 0.538409 69.000000
4.415404 -1.593331 0.538623 83.000000
4.409561 -1.606529 0.538516 82.000000
4.405544 -1.620394 0.538623 70.000000
4.400552 -1.633902 0.538623 70.000000
4.396451 -1.647744 0.538729 63.000000
4.397884 -1.663687 0.539477 75.000000
4.396474 -1.678591 0.539904 79.000000
4.394087 -1.693144 0.540224 78.000000
4.393505 -1.708419 0.540758 63.000000
4.394722 -1.724433 0.541506 53.000000
4.389410 -1.737908 0.541506 61.000000
4.384058 -1.751366 0.541506 61.000000
4.381431 -1.765923 0.541826 46.000000
4.552543 -1.198468 0.483825 9.000000
4.478621 -1.193731 0.476892 65.000000
4.479744 -1.208761 0.477367 72.000000
4.482737 -1.224334 0.478032 69.000000
4.483757 -1.239406 0.478507 59.000000
4.481851 -1.253692 0.478697 85.000000
4.478942 -1.267707 0.478792 88.000000
4.467375 -1.279252 0.478032 102.000000
4.466298 -1.293781 0.478317 105.000000
4.464219 -1.308037 0.478507 100.000000
4.464003 -1.322857 0.478887 108.000000
4.463738 -1.337689 0.479266 102.000000
4.460566 -1.351665 0.479361 91.000000
4.458301 -1.365926 0.479551 96.000000
4.454090 -1.379598 0.479551 89.000000
4.447937 -1.392662 0.479361 86.000000
4.447439 -1.407502 0.479741 71.000000
4.443100 -1.421140 0.479741 75.000000
4.439667 -1.435070 0.479836 81.000000
4.435243 -1.448684 0.479836 57.000000
4.432668 -1.462908 0.480026 71.000000
4.428159 -1.476501 0.480026 69.000000
4.423609 -1.490079 0.480026 85.000000
4.418074 -1.503323 0.479931 120.000000
4.414382 -1.517194 0.480026 102.000000
4.411588 -1.531382 0.480216 106.000000
4.407808 -1.545239 0.480311 108.000000
4.403986 -1.559086 0.480406 104.000000
4.400119 -1.572925 0.480501 122.000000
4.392463 -1.585404 0.480216 102.000000
4.388515 -1.599213 0.480311 108.000000
4.382653 -1.612326 0.480216 118.000000
4.383285 -1.627842 0.480786 94.000000
4.381999 -1.642679 0.481166 94.000000
4.379733 -1.657171 0.481451 120.000000
4.376488 -1.671310 0.481641 112.000000
4.373198 -1.685444 0.481831 80.000000
4.368935 -1.699214 0.481926 104.000000
4.367408 -1.714063 0.482306 87.000000
4.363980 -1.728187 0.482496 103.000000
4.360507 -1.742306 0.482686 102.000000
4.358834 -1.757163 0.483066 88.000000
4.355267 -1.771277 0.483255 80.000000
4.352575 -1.785763 0.483540 86.000000
4.347076 -1.799109 0.483540 71.000000
4.404929 -1.838882 0.490094 16.000000
4.475951 -1.104843 0.416338 8.000000
4.499610 -1.125342 0.418647 56.000000
4.500001 -1.140121 0.418977 48.000000
4.489725 -1.152187 0.418400 61.000000
4.492921 -1.167711 0.418977 46.000000
4.485462 -1.180475 0.418647 57.000000
4.483746 -1.194744 0.418812 63.000000
4.482945 -1.209273 0.419059 69.000000
4.484021 -1.224334 0.419472 47.000000
4.483126 -1.238881 0.419719 56.000000
4.485062 -1.254241 0.420214 61.000000
4.482152 -1.268266 0.420296 62.000000
4.479198 -1.282285 0.420379 57.000000
4.479072 -1.297130 0.420709 41.000000
4.479853 -1.312267 0.421121 60.000000
4.478673 -1.326855 0.421368 72.000000
4.474581 -1.340589 0.421368 53.000000
4.471401 -1.354599 0.421451 62.000000
4.467224 -1.368311 0.421451 57.000000
4.460149 -1.381125 0.421203 82.000000
4.453989 -1.394207 0.421038 74.000000
4.448740 -1.407564 0.420956 77.000000
4.446299 -1.421813 0.421121 73.000000
4.444761 -1.436367 0.421368 79.000000
4.444123 -1.451234 0.421698 68.000000
4.442489 -1.465799 0.421945 72.000000
4.441752 -1.480682 0.422275 83.000000
4.436244 -1.493984 0.422193 73.000000
4.430697 -1.507267 0.422110 73.000000
4.422282 -1.519557 0.421781 75.000000
4.414774 -1.532137 0.421533 73.000000
4.408172 -1.545014 0.421368 74.000000
4.401533 -1.557866 0.421203 77.000000
4.401425 -1.573040 0.421616 64.000000
4.397515 -1.586874 0.421698 82.000000
4.396371 -1.601723 0.422028 64.000000
4.396113 -1.616924 0.422440 72.000000
4.393935 -1.631444 0.422688 64.000000
4.389842 -1.645267 0.422770 74.000000
4.386638 -1.659432 0.422935 93.000000
4.380595 -1.672527 0.422853 76.000000
4.373583 -1.685242 0.422688 83.000000
4.369322 -1.699013 0.422770 79.000000
4.363161 -1.712046 0.422688 92.000000
4.360668 -1.726525 0.422935 86.000000
4.357201 -1.740634 0.423100 87.000000
4.355537 -1.755484 0.423430 97.000000
4.357516 -1.771842 0.424089 81.000000
4.355748 -1.786716 0.424419 78.000000
4.355771 -1.802357 0.424914 70.000000
4.352060 -1.816480 0.425079 66.000000
4.347385 -1.830210 0.425161 65.000000
4.341750 -1.843539 0.425161 68.000000
4.355311 -1.865091 0.426893 20.000000
4.439321 -1.112268 0.359100 7.000000
4.469730 -1.134462 0.361572 9.000000
4.491348 -1.154621 0.363409 49.000000
4.487784 -1.168395 0.363409 49.000000
4.485144 -1.182412 0.363479 64.000000
4.480531 -1.195909 0.363409 68.000000
4.475878 -1.209390 0.363338 56.000000
4.478882 -1.224956 0.363832 102.000000
4.471257 -1.237628 0.363550 91.000000
4.468400 -1.251609 0.363620 73.000000
4.466459 -1.265855 0.363762 75.000000
4.464471 -1.280101 0.363903 98.000000
4.464356 -1.294903 0.364185 96.000000
4.464191 -1.309716 0.364468 88.000000
4.460152 -1.323405 0.364468 88.000000
4.457026 -1.337369 0.364539 82.000000
4.453857 -1.351326 0.364609 74.000000
4.447783 -1.364399 0.364468 70.000000
4.444529 -1.378334 0.364539 78.000000
4.439327 -1.391665 0.364468 87.000000
4.432184 -1.404375 0.364256 72.000000
4.428804 -1.418270 0.364327 75.000000
4.425382 -1.432157 0.364397 56.000000
4.421915 -1.446037 0.364468 71.000000
4.421247 -1.460847 0.364750 69.000000
4.418636 -1.475036 0.364892 92.000000
4.415981 -1.489222 0.365033 83.000000
4.412336 -1.503085 0.365104 83.000000
4.404873 -1.515642 0.364892 82.000000
4.400203 -1.529149 0.364892 81.000000
4.392667 -1.541651 0.364680 80.000000
4.387917 -1.555120 0.364680 83.000000
4.385943 -1.569582 0.364892 77.000000
4.382045 -1.583369 0.364962 96.000000
4.383727 -1.599197 0.365457 100.000000
4.383481 -1.614361 0.365810 95.000000
4.380377 -1.628497 0.365951 105.000000
4.377229 -1.642628 0.366092 96.000000
4.371235 -1.655697 0.366022 90.000000
4.366135 -1.669100 0.366022 92.000000
4.360994 -1.682487 0.366022 84.000000
4.355812 -1.695858 0.366022 83.000000
4.353374 -1.710307 0.366234 69.000000
4.347179 -1.723288 0.366163 107.000000
4.344650 -1.737727 0.366375 96.000000
4.340224 -1.751421 0.366445 109.000000
4.337602 -1.765857 0.366657 72.000000
4.339547 -1.782185 0.367222 74.000000
4.331294 -1.794346 0.367010 113.000000
4.334052 -1.811085 0.367646 100.000000
4.335830 -1.827471 0.368211 79.000000
4.330203 -1.840764 0.368211 103.000000
4.328203 -1.855612 0.368494 75.000000
4.323405 -1.869277 0.368564 71.000000
4.317650 -1.882533 0.368564 52.000000
4.314594 -1.896974 0.368776 41.000000
4.473874 -1.192946 0.304668 43.000000
4.470193 -1.206666 0.304668 44.000000
4.467433 -1.220638 0.304726 64.000000
4.464629 -1.234604 0.304784 48.000000
4.463705 -1.249103 0.304959 55.000000
4.459851 -1.262792 0.304959 84.000000
4.455956 -1.276468 0.304959 63.000000
4.453937 -1.290689 0.305075 56.000000
4.453788 -1.305471 0.305307 47.000000
4.448804 -1.318845 0.305249 62.000000
4.446650 -1.333061 0.305365 48.000000
4.440629 -1.346117 0.305249 70.000000
4.436478 -1.359735 0.305249 75.000000
4.433239 -1.373635 0.305307 83.000000
4.429004 -1.387229 0.305307 67.000000
4.426630 -1.401414 0.305423 65.000000
4.425163 -1.415901 0.305598 63.000000
4.424597 -1.430699 0.305830 81.000000
4.420187 -1.444267 0.305830 77.000000
4.412891 -1.456882 0.305656 75.000000
4.407454 -1.470098 0.305598 64.000000
4.401977 -1.483294 0.305540 66.000000
4.398351 -1.497114 0.305598 91.000000
4.397513 -1.511899 0.305830 84.000000
4.395683 -1.526366 0.306004 63.000000
4.395690 -1.541497 0.306295 71.000000
4.394704 -1.556309 0.306527 92.000000
4.392728 -1.570793 0.306701 74.000000
4.388827 -1.584601 0.306759 90.000000
4.385821 -1.598742 0.306875 76.000000
4.381833 -1.612535 0.306934 72.000000
4.381544 -1.627710 0.307224 76.000000
4.377464 -1.641495 0.307282 90.000000
4.373341 -1.655271 0.307340 85.000000
4.371040 -1.669749 0.307514 90.000000
4.365897 -1.683151 0.307514 82.000000
4.359782 -1.696176 0.307456 78.000000
4.353629 -1.709178 0.307398 78.000000
4.343724 -1.720688 0.307108 72.000000
4.337497 -1.733636 0.307050 95.000000
4.334010 -1.747682 0.307166 80.000000
4.329553 -1.761347 0.307224 86.000000
4.331516 -1.777654 0.307689 82.000000
4.332499 -1.793608 0.308095 83.000000
4.331582 -1.808815 0.308386 76.000000
4.329692 -1.823646 0.308618 84.000000
4.325914 -1.837702 0.308734 90.000000
4.321174 -1.851358 0.308792 104.000000
4.318223 -1.865795 0.308967 111.000000
4.312478 -1.879034 0.308967 115.000000
4.314919 -1.895871 0.309489 80.000000
4.315471 -1.911931 0.309896 79.000000
4.316876 -1.928420 0.310361 67.000000
4.312760 -1.942475 0.310477 66.000000
4.413127 -2.003999 0.317273 17.000000
4.481272 -1.241236 0.250672 25.000000
4.457242 -1.249322 0.249701 64.000000
4.453388 -1.262991 0.249701 77.000000
4.452374 -1.277474 0.249840 63.000000
4.448433 -1.291127 0.249840 63.000000
4.444451 -1.304769 0.249840 81.000000
4.441385 -1.318682 0.249886 95.000000
4.436361 -1.332015 0.249840 85.000000
4.429386 -1.344750 0.249701 69.000000
4.424285 -1.358039 0.249655 73.000000
4.419143 -1.371311 0.249609 72.000000
4.414916 -1.384862 0.249609 67.000000
4.410646 -1.398400 0.249609 89.000000
4.410140 -1.413144 0.249793 80.000000
4.406734 -1.426975 0.249840 49.000000
4.407083 -1.442040 0.250071 74.000000
4.404536 -1.456180 0.250163 71.000000
4.401942 -1.470319 0.250256 63.000000
4.399304 -1.484455 0.250348 74.000000
4.394729 -1.497945 0.250348 67.000000
4.389168 -1.511096 0.250302 70.000000
4.384511 -1.524555 0.250302 74.000000
4.378871 -1.537668 0.250256 87.000000
4.376957 -1.552096 0.250395 69.000000
4.377819 -1.567536 0.250672 86.000000
4.375807 -1.581978 0.250811 88.000000
4.373749 -1.596422 0.250949 96.000000
4.370705 -1.610523 0.251042 96.000000
4.365744 -1.623925 0.251042 97.000000
4.361676 -1.637662 0.251088 66.000000
4.358500 -1.651743 0.251180 70.000000
4.353412 -1.665107 0.251180 95.000000
4.349215 -1.678815 0.251227 66.000000
4.343112 -1.691788 0.251180 88.000000
4.336972 -1.704739 0.251134 69.000000
4.333579 -1.718773 0.251227 77.000000
4.331995 -1.733544 0.251412 81.000000
4.331289 -1.748695 0.251643 84.000000
4.327754 -1.762728 0.251735 66.000000
4.325098 -1.777135 0.251874 73.000000
4.320548 -1.790778 0.251920 59.000000
4.316877 -1.804795 0.252013 76.000000
4.311320 -1.818031 0.252013 89.000000
4.306642 -1.831640 0.252059 66.000000
4.306510 -1.847205 0.252336 92.000000
4.303574 -1.861598 0.252475 67.000000
4.302421 -1.876788 0.252706 64.000000
4.301215 -1.891989 0.252937 79.000000
4.296304 -1.905581 0.252984 63.000000
4.295909 -1.921198 0.253261 68.000000
4.291816 -1.935189 0.253354 78.000000
4.301320 -1.955371 0.254140 44.000000
4.298026 -1.969806 0.254278 46.000000
4.289241 -1.981727 0.254140 51.000000
4.287669 -1.996984 0.254371 34.000000
4.445232 -1.289004 0.192418 43.000000
4.443175 -1.303198 0.192485 50.000000
4.438198 -1.316539 0.192452 43.000000
4.433181 -1.329862 0.192418 45.000000
4.428123 -1.343166 0.192384 46.000000
4.422071 -1.356159 0.192316 53.000000
4.422662 -1.371200 0.192485 41.000000
4.413666 -1.383267 0.192316 69.000000
4.409401 -1.396802 0.192316 76.000000
4.406999 -1.410933 0.192384 67.000000
4.405502 -1.425370 0.192485 76.000000
4.401109 -1.438879 0.192485 57.000000
4.394775 -1.451747 0.192418 66.000000
4.392197 -1.465856 0.192485 86.000000
4.388626 -1.479644 0.192519 68.000000
4.385012 -1.493423 0.192553 86.000000
4.381355 -1.507195 0.192587 70.000000
4.376710 -1.520629 0.192587 65.000000
4.372967 -1.534381 0.192621 85.000000
4.369181 -1.548123 0.192655 65.000000
4.367234 -1.562531 0.192756 63.000000
4.366180 -1.577280 0.192892 74.000000
4.363198 -1.591353 0.192959 77.000000
4.362046 -1.606114 0.193095 74.000000
4.358972 -1.620185 0.193163 82.000000
4.355852 -1.634253 0.193230 93.000000
4.356426 -1.649733 0.193433 50.000000
4.351344 -1.663090 0.193433 58.000000
4.349019 -1.677512 0.193535 59.000000
4.343852 -1.690846 0.193535 70.000000
4.339574 -1.704530 0.193569 66.000000
4.336182 -1.718573 0.193636 69.000000
4.329961 -1.731497 0.193603 78.000000
4.325556 -1.745147 0.193636 85.000000
4.322958 -1.759540 0.193738 78.000000
4.319388 -1.773554 0.193806 81.000000
4.318543 -1.788710 0.193975 76.000000
4.317647 -1.803877 0.194144 72.000000
4.314855 -1.818279 0.194246 85.000000
4.313855 -1.833464 0.194415 65.000000
4.311884 -1.848265 0.194551 71.000000
4.309863 -1.863072 0.194686 100.000000
4.305959 -1.877084 0.194754 78.000000
4.299264 -1.889884 0.194720 81.000000
4.292533 -1.902660 0.194686 84.000000
4.285763 -1.915412 0.194652 82.000000
4.281688 -1.929373 0.194720 83.000000
4.281209 -1.944981 0.194923 77.000000
4.278856 -1.959771 0.195058 96.000000
4.275545 -1.974146 0.195160 65.000000
4.279435 -1.991894 0.195532 51.000000
4.271494 -2.004165 0.195465 55.000000
4.264422 -2.016833 0.195431 49.000000
4.260921 -2.031197 0.195532 43.000000
4.259173 -2.046424 0.195702 6.000000
4.439564 -1.331292 0.136163 36.000000
4.422063 -1.340848 0.135860 71.000000
4.420796 -1.355287 0.135925 63.000000
4.413753 -1.367956 0.135860 59.000000
4.407627 -1.380894 0.135817 63.000000
4.404323 -1.394711 0.135838 70.000000
4.397166 -1.407304 0.135773 66.000000
4.393779 -1.421095 0.135795 72.000000
4.389399 -1.434568 0.135795 72.000000
4.384977 -1.448028 0.135795 70.000000
4.379565 -1.461158 0.135773 65.000000
4.369377 -1.472673 0.135643 41.000000
4.369571 -1.487681 0.135752 57.000000
4.368768 -1.502379 0.135838 62.000000
4.365083 -1.516103 0.135860 68.000000
4.365129 -1.531141 0.135968 60.000000
4.366066 -1.546527 0.136098 57.000000
4.366007 -1.561597 0.136206 73.000000
4.365898 -1.576681 0.136314 71.000000
4.361979 -1.590410 0.136336 66.000000
4.358956 -1.604475 0.136379 77.000000
4.354950 -1.618189 0.136401 71.000000
4.349966 -1.631542 0.136401 84.000000
4.346809 -1.645587 0.136444 58.000000
4.346411 -1.660699 0.136552 89.000000
4.342228 -1.674385 0.136574 76.000000
4.336139 -1.687336 0.136552 65.000000
4.335596 -1.702457 0.136661 79.000000
4.329422 -1.715383 0.136639 72.000000
4.322283 -1.727915 0.136596 61.000000
4.316961 -1.741168 0.136596 78.000000
4.312525 -1.754780 0.136617 74.000000
4.308046 -1.768382 0.136639 66.000000
4.305372 -1.782738 0.136704 64.000000
4.304495 -1.797863 0.136812 82.000000
4.306331 -1.814164 0.136985 64.000000
4.308107 -1.830493 0.137158 77.000000
4.307985 -1.846063 0.137288 66.000000
4.307808 -1.861649 0.137418 86.000000
4.304826 -1.876054 0.137483 81.000000
4.296304 -1.888047 0.137418 68.000000
4.294148 -1.902838 0.137505 56.000000
4.279161 -1.911927 0.137288 80.000000
4.275098 -1.925867 0.137331 66.000000
4.271901 -1.940213 0.137396 62.000000
4.267746 -1.954142 0.137440 76.000000
4.266271 -1.969320 0.137548 62.000000
4.263834 -1.984086 0.137634 60.000000
4.261349 -1.998855 0.137721 66.000000
4.260620 -2.014482 0.137851 54.000000
4.252614 -2.026684 0.137807 70.000000
4.262600 -2.047509 0.138197 36.000000
4.261698 -2.063190 0.138327 34.000000
4.403357 -1.380876 0.078723 45.000000
4.408631 -1.397401 0.078816 66.000000
4.399561 -1.409394 0.078769 59.000000
4.394266 -1.422577 0.078760 56.000000
4.392732 -1.436985 0.078788 60.000000
4.385454 -1.449513 0.078760 51.000000
4.382884 -1.463594 0.078779 61.000000
4.379320 -1.477354 0.078788 64.000000
4.375713 -1.491105 0.078797 86.000000
4.374900 -1.505825 0.078834 72.000000
4.370260 -1.519239 0.078834 76.000000
4.366522 -1.532971 0.078843 64.000000
4.364625 -1.547363 0.078871 86.000000
4.359858 -1.560746 0.078871 72.000000
4.357870 -1.575135 0.078899 81.000000
4.353017 -1.588497 0.078899 81.000000
4.349061 -1.602190 0.078908 77.000000
4.344125 -1.615525 0.078908 80.000000
4.343830 -1.630603 0.078954 78.000000
4.341611 -1.644985 0.078982 80.000000
4.342148 -1.660441 0.079038 83.000000
4.342631 -1.675915 0.079093 70.000000
4.340264 -1.690319 0.079121 90.000000
4.337850 -1.704724 0.079149 84.000000
4.332599 -1.718025 0.079149 80.000000
4.325451 -1.730566 0.079130 69.000000
4.320121 -1.743828 0.079130 87.000000
4.314751 -1.757074 0.079130 63.000000
4.311190 -1.771063 0.079149 86.000000
4.306660 -1.784664 0.079158 102.000000
4.302087 -1.798254 0.079167 105.000000
4.300235 -1.812998 0.079204 84.000000
4.300174 -1.828531 0.079260 79.000000
4.297301 -1.842898 0.079287 92.000000
4.292544 -1.856470 0.079297 92.000000
4.287745 -1.870030 0.079306 81.000000
4.280158 -1.882371 0.079287 94.000000
4.274362 -1.895493 0.079287 90.000000
4.272178 -1.910231 0.079324 87.000000
4.268121 -1.924151 0.079343 77.000000
4.267659 -1.939719 0.079398 67.000000
4.266233 -1.954886 0.079445 66.000000
4.261124 -1.968385 0.079454 66.000000
4.256877 -1.982293 0.079472 52.000000
4.251681 -1.995769 0.079482 26.000000
4.567710 -1.461838 0.020328 32.000000
4.425230 -1.431258 0.020809 49.000000
4.413214 -1.442345 0.020836 45.000000
4.403070 -1.453997 0.020856 61.000000
4.390050 -1.464653 0.020885 47.000000
4.378902 -1.475881 0.020909 64.000000
4.371514 -1.488342 0.020919 71.000000
4.365036 -1.501096 0.020925 54.000000
4.359465 -1.514153 0.020929 74.000000
4.352912 -1.526859 0.020935 65.000000
4.350092 -1.540874 0.020929 56.000000
4.347228 -1.554885 0.020922 63.000000
4.344318 -1.568894 0.020915 71.000000
4.343243 -1.583584 0.020902 66.000000
4.340241 -1.597592 0.020895 61.000000
4.340006 -1.612640 0.020879 76.000000
4.338784 -1.627352 0.020866 73.000000
4.336577 -1.641717 0.020856 79.000000
4.332454 -1.655370 0.020852 85.000000
4.329221 -1.669373 0.020846 64.000000
4.329671 -1.684821 0.020826 58.000000
4.324482 -1.698097 0.020826 72.000000
4.321112 -1.712092 0.020819 72.000000
4.313982 -1.724599 0.020826 82.000000
4.307743 -1.737453 0.020829 88.000000
4.302392 -1.750660 0.020829 76.000000
4.294225 -1.762713 0.020839 58.000000
4.293417 -1.777791 0.020822 75.000000
4.289788 -1.791725 0.020816 76.000000
4.287958 -1.806430 0.020803 71.000000
4.286077 -1.821140 0.020789 63.000000
4.281389 -1.834674 0.020786 83.000000
4.277576 -1.848593 0.020779 72.000000
4.273718 -1.862507 0.020773 66.000000
4.272563 -1.877620 0.020756 59.000000
4.269525 -1.891934 0.020746 55.000000
4.264614 -1.905432 0.020743 59.000000
4.260571 -1.919327 0.020736 40.000000
4.722525 -1.511074 -0.041464 74.000000
4.710256 -1.523093 -0.041339 48.000000
4.678950 -1.528840 -0.040899 61.000000
4.675187 -1.543501 -0.040915 99.000000
4.540488 -1.514483 -0.038763 41.000000
4.406012 -1.484654 -0.036611 61.000000
4.394811 -1.495908 -0.036501 60.000000
4.373181 -1.503531 -0.036218 59.000000
4.365714 -1.515957 -0.036171 63.000000
4.358213 -1.528351 -0.036124 82.000000
4.356330 -1.542716 -0.036171 90.000000
4.354401 -1.557084 -0.036218 75.000000
4.349604 -1.570436 -0.036218 71.000000
4.344765 -1.583773 -0.036218 67.000000
4.339886 -1.597095 -0.036218 82.000000
4.334966 -1.610402 -0.036218 67.000000
4.330005 -1.623694 -0.036218 90.000000
4.326873 -1.637678 -0.036249 61.000000
4.324631 -1.652016 -0.036297 74.000000
4.321408 -1.665995 -0.036328 69.000000
4.318140 -1.679971 -0.036359 75.000000
4.313896 -1.693576 -0.036375 68.000000
4.311469 -1.707908 -0.036422 87.000000
4.308065 -1.721870 -0.036454 65.000000
4.305544 -1.736201 -0.036501 91.000000
4.302976 -1.750532 -0.036548 87.000000
4.302210 -1.765624 -0.036626 97.000000
4.300468 -1.780345 -0.036689 96.000000
4.295908 -1.793915 -0.036705 81.000000
4.294992 -1.809028 -0.036784 81.000000
4.290342 -1.822587 -0.036799 77.000000
4.288406 -1.837316 -0.036862 85.000000
4.285502 -1.851654 -0.036909 93.000000
4.277968 -1.863994 -0.036878 100.000000
4.267653 -1.875099 -0.036799 71.000000
4.260966 -1.887778 -0.036784 61.000000
4.701012 -1.488581 -0.100258 28.000000
4.715465 -1.509086 -0.100813 43.000000
4.686082 -1.515554 -0.100092 66.000000
4.685212 -1.531164 -0.100203 44.000000
4.653913 -1.536761 -0.099426 78.000000
4.634003 -1.545974 -0.098982 74.000000
4.599871 -1.550294 -0.098122 61.000000
4.590361 -1.562789 -0.097983 81.000000
4.456975 -1.532687 -0.094209 47.000000
4.398424 -1.527673 -0.092628 36.000000
4.376736 -1.535209 -0.092128 45.000000
4.369178 -1.547629 -0.092045 34.000000
4.359703 -1.559344 -0.091906 42.000000
4.345496 -1.569319 -0.091629 65.000000
4.334086 -1.580248 -0.091435 49.000000
4.330156 -1.593883 -0.091462 63.000000
4.322434 -1.606116 -0.091379 76.000000
4.315614 -1.618668 -0.091324 57.000000
4.309693 -1.631547 -0.091296 51.000000
4.299998 -1.642978 -0.091157 46.000000
4.305197 -1.660116 -0.091462 54.000000
4.301015 -1.673679 -0.091490 47.000000
4.299582 -1.688327 -0.091601 54.000000
4.299029 -1.703350 -0.091740 72.000000
4.291927 -1.715789 -0.091684 52.000000
4.291279 -1.730817 -0.091823 78.000000
4.285023 -1.743598 -0.091795 53.000000
4.281503 -1.757494 -0.091851 60.000000
4.279786 -1.772151 -0.091962 48.000000
4.274328 -1.785272 -0.091962 31.000000
4.716425 -1.509121 -0.162940 39.000000
4.691808 -1.517127 -0.162094 59.000000
4.672886 -1.526858 -0.161489 74.000000
4.656794 -1.537427 -0.161006 78.000000
4.642577 -1.548544 -0.160603 74.000000
4.628336 -1.559589 -0.160200 50.000000
4.612179 -1.569916 -0.159716 73.000000
4.593167 -1.579185 -0.159111 59.000000
4.572256 -1.587696 -0.158426 61.000000
4.556048 -1.597747 -0.157942 74.000000
4.520044 -1.600707 -0.156612 64.000000
4.430439 -1.584281 -0.152985 47.000000
4.376688 -1.580217 -0.150889 57.000000
4.353045 -1.586792 -0.150083 50.000000
4.334092 -1.594962 -0.149478 52.000000
4.321685 -1.605467 -0.149156 66.000000
4.315804 -1.618367 -0.149115 64.000000
4.311753 -1.631954 -0.149156 69.000000
4.309526 -1.646244 -0.149277 77.000000
4.317507 -1.664491 -0.149841 42.000000
4.312380 -1.677729 -0.149841 48.000000
4.315583 -1.694239 -0.150204 39.000000
4.307578 -1.706366 -0.150083 53.000000
4.313456 -1.724025 -0.150566 31.000000
4.699683 -1.489960 -0.221375 33.000000
4.673215 -1.497368 -0.220172 50.000000
4.660998 -1.509239 -0.219753 53.000000
4.644006 -1.519498 -0.219073 77.000000
4.640271 -1.534051 -0.219125 58.000000
4.624176 -1.544486 -0.218497 70.000000
4.613738 -1.556752 -0.218183 75.000000
4.604213 -1.569289 -0.217921 62.000000
4.595600 -1.582108 -0.217712 57.000000
4.590724 -1.596200 -0.217712 131.000000
4.581094 -1.608623 -0.217450 79.000000
4.571431 -1.621003 -0.217189 64.000000
4.565495 -1.634684 -0.217136 88.000000
4.546371 -1.643593 -0.216351 74.000000
4.522543 -1.650690 -0.215304 67.000000
4.468727 -1.646615 -0.212583 66.000000
4.349455 -1.617871 -0.206198 47.000000
4.336991 -1.628401 -0.205779 45.000000
4.321702 -1.637809 -0.205204 39.000000
4.353037 -1.664964 -0.207245 43.000000
4.420583 -1.706343 -0.211327 39.000000
4.546544 -1.770972 -0.218706 65.000000
4.553173 -1.789659 -0.219387 61.000000
4.526308 -1.795157 -0.218183 39.000000
4.672180 -1.479174 -0.280571 43.000000
4.660967 -1.491372 -0.280118 46.000000
4.649723 -1.503514 -0.279665 62.000000
4.635603 -1.514673 -0.279018 73.000000
4.623354 -1.526384 -0.278500 79.000000
4.611077 -1.538034 -0.277982 65.000000
4.601608 -1.550580 -0.277659 73.000000
4.594940 -1.564047 -0.277530 100.000000
4.585402 -1.576514 -0.277206 66.000000
4.580543 -1.590574 -0.277206 87.000000
4.574700 -1.604290 -0.277141 67.000000
4.565054 -1.616651 -0.276818 100.000000
4.560072 -1.630649 -0.276818 84.000000
4.555986 -1.644970 -0.276882 79.000000
4.549043 -1.658256 -0.276753 69.000000
4.552363 -1.675307 -0.277335 94.000000
4.553750 -1.691699 -0.277788 111.000000
4.555079 -1.708115 -0.278241 121.000000
4.552616 -1.723142 -0.278435 81.000000
4.552902 -1.739238 -0.278824 83.000000
4.553131 -1.755352 -0.279212 77.000000
4.552373 -1.771122 -0.279535 101.000000
4.548776 -1.785810 -0.279665 73.000000
4.546060 -1.800859 -0.279859 69.000000
4.683794 -1.484927 -0.339824 52.000000
4.716249 -1.511146 -0.342809 31.000000
4.646135 -1.504430 -0.337528 68.000000
4.638654 -1.517748 -0.337298 56.000000
4.621668 -1.527906 -0.336303 59.000000
4.609393 -1.539553 -0.335690 57.000000
4.603703 -1.553368 -0.335614 58.000000
4.600803 -1.568128 -0.335767 78.000000
4.597857 -1.582884 -0.335920 68.000000
4.594862 -1.597637 -0.336073 68.000000
4.600288 -1.615358 -0.336915 93.000000
4.602829 -1.632128 -0.337528 104.000000
4.561187 -1.633142 -0.334542 34.000000
4.574910 -1.653903 -0.336073 63.000000
4.577309 -1.670664 -0.336686 78.000000
4.563741 -1.681598 -0.335997 78.000000
4.551084 -1.692813 -0.335384 66.000000
4.544935 -1.706417 -0.335308 66.000000
4.542476 -1.721412 -0.335537 78.000000
4.542761 -1.737476 -0.335997 74.000000
4.546712 -1.754993 -0.336762 61.000000
4.550598 -1.772551 -0.337528 52.000000
4.561843 -1.793065 -0.338905 42.000000
4.575786 -1.814766 -0.340513 37.000000
4.707668 -1.492215 -0.402294 29.000000
4.670817 -1.496316 -0.399277 55.000000
4.635881 -1.500819 -0.396438 96.000000
4.628415 -1.514106 -0.396172 88.000000
4.619965 -1.527048 -0.395817 80.000000
4.609590 -1.539321 -0.395285 78.000000
4.602958 -1.552819 -0.395107 94.000000
4.601000 -1.567897 -0.395373 80.000000
4.602761 -1.584275 -0.395995 78.000000
4.604465 -1.600679 -0.396616 71.000000
4.612689 -1.619418 -0.397858 78.000000
4.618965 -1.637557 -0.398922 92.000000
4.640176 -1.661122 -0.401406 134.000000
4.606956 -1.665190 -0.398745 81.000000
4.589663 -1.674876 -0.397592 60.000000
4.574222 -1.685161 -0.396616 60.000000
4.560628 -1.696061 -0.395817 95.000000
4.547944 -1.707244 -0.395107 110.000000
4.539890 -1.720129 -0.394841 125.000000
4.539243 -1.735829 -0.395285 105.000000
4.537613 -1.751182 -0.395640 92.000000
4.545212 -1.770156 -0.396882 65.000000
4.545322 -1.786279 -0.397414 66.000000
4.563894 -1.809763 -0.399721 48.000000
4.639795 -1.485779 -0.457943 18.000000
4.654148 -1.506128 -0.459968 56.000000
4.647614 -1.519782 -0.459765 59.000000
4.641984 -1.533721 -0.459664 70.000000
4.639144 -1.548585 -0.459866 72.000000
4.636257 -1.563446 -0.460069 68.000000
4.634264 -1.578624 -0.460372 56.000000
4.633163 -1.594128 -0.460777 67.000000
4.630130 -1.608988 -0.460980 75.000000
4.630805 -1.625161 -0.461587 65.000000
4.636113 -1.643013 -0.462701 66.000000
4.654469 -1.665603 -0.465231 207.000000
4.624073 -1.670753 -0.462498 93.000000
4.604905 -1.679821 -0.460980 51.000000
4.589459 -1.690161 -0.459866 59.000000
4.575859 -1.701115 -0.458955 67.000000
4.576207 -1.717242 -0.459563 53.000000
4.557891 -1.726343 -0.458145 59.000000
4.556291 -1.741738 -0.458550 65.000000
4.554639 -1.757140 -0.458955 78.000000
4.558498 -1.774712 -0.459968 61.000000
4.571553 -1.795960 -0.461992 20.000000
4.674809 -1.512526 -0.520966 67.000000
4.669201 -1.526553 -0.520853 66.000000
4.654119 -1.537441 -0.519609 115.000000
4.647495 -1.551083 -0.519383 97.000000
4.638948 -1.564064 -0.518931 98.000000
4.638831 -1.579891 -0.519496 80.000000
4.634902 -1.594439 -0.519609 99.000000
4.635619 -1.610608 -0.520288 105.000000
4.641906 -1.628771 -0.521644 73.000000
4.648125 -1.646987 -0.523000 73.000000
4.687954 -1.677310 -0.528426 199.000000
4.642605 -1.677165 -0.523566 68.000000
4.631837 -1.689357 -0.522887 87.000000
4.610782 -1.697722 -0.520966 85.000000
4.599032 -1.709436 -0.520175 94.000000
4.587255 -1.721094 -0.519383 90.000000
4.578236 -1.733751 -0.518931 97.000000
4.574751 -1.748499 -0.519157 111.000000
4.573073 -1.763956 -0.519609 76.000000
4.565789 -1.777257 -0.519383 108.000000
4.576036 -1.797433 -0.521305 80.000000
4.703657 -1.538094 -0.587001 33.000000
4.655580 -1.538210 -0.581236 86.000000
4.656486 -1.554369 -0.581988 81.000000
4.654515 -1.569598 -0.582364 88.000000
4.654374 -1.585469 -0.582990 82.000000
4.658870 -1.602967 -0.584244 100.000000
4.660491 -1.619530 -0.585121 90.000000
4.663926 -1.636776 -0.586249 88.000000
4.670105 -1.655051 -0.587753 69.000000
4.694900 -1.680060 -0.591764 165.000000
4.657063 -1.682664 -0.587377 88.000000
4.648150 -1.695585 -0.586876 102.000000
4.627098 -1.704012 -0.584745 86.000000
4.615338 -1.715782 -0.583868 82.000000
4.603550 -1.727495 -0.582990 95.000000
4.596373 -1.740908 -0.582740 95.000000
4.600277 -1.758541 -0.583993 77.000000
4.605044 -1.776572 -0.585372 66.000000
4.610667 -1.795009 -0.586876 60.000000
4.649467 -1.826548 -0.592892 21.000000
4.727737 -1.559943 -0.652444 39.000000
4.694740 -1.565040 -0.648320 70.000000
4.677714 -1.575325 -0.646534 113.000000
4.674734 -1.590307 -0.646809 92.000000
4.671707 -1.605286 -0.647084 96.000000
4.672374 -1.621560 -0.647908 103.000000
4.670181 -1.636870 -0.648320 121.000000
4.682878 -1.657471 -0.650932 81.000000
4.683367 -1.673830 -0.651757 76.000000
4.672620 -1.686173 -0.650932 65.000000
4.661841 -1.698466 -0.650107 79.000000
4.645453 -1.708656 -0.648458 56.000000
4.625333 -1.717382 -0.646259 84.000000
4.612622 -1.728783 -0.645159 110.000000
4.610076 -1.743978 -0.645572 94.000000
4.603778 -1.757760 -0.645434 102.000000
4.647349 -1.790755 -0.652719 46.000000
4.734677 -1.565236 -0.713828 47.000000
4.722349 -1.577251 -0.712635 62.000000
4.695000 -1.584149 -0.709054 103.000000
4.690118 -1.598546 -0.709054 108.000000
4.691737 -1.615179 -0.710098 91.000000
4.691430 -1.631188 -0.710844 121.000000
4.695734 -1.648847 -0.712336 96.000000
4.698109 -1.665888 -0.713530 92.000000
4.704539 -1.700731 -0.716215 55.000000
4.672359 -1.705331 -0.711889 102.000000
4.663394 -1.718291 -0.711292 93.000000
4.655320 -1.731556 -0.710844 141.000000
4.653688 -1.747220 -0.711441 183.000000
4.639984 -1.758337 -0.710098 143.000000
4.631797 -1.771505 -0.709651 128.000000
4.639256 -1.790689 -0.711739 78.000000
4.652169 -1.812087 -0.714723 36.000000
4.736726 -1.563823 -0.775408 53.000000
4.721608 -1.574912 -0.773636 89.000000
4.714883 -1.588760 -0.773314 82.000000
4.708118 -1.602581 -0.772992 98.000000
4.702246 -1.616697 -0.772831 117.000000
4.703790 -1.633382 -0.773958 112.000000
4.707138 -1.650746 -0.775408 98.000000
4.711355 -1.668475 -0.777019 94.000000
4.718295 -1.687242 -0.779113 129.000000
4.707526 -1.699698 -0.778146 98.000000
4.700435 -1.713457 -0.777824 88.000000
4.688673 -1.725483 -0.776697 107.000000
4.678732 -1.738140 -0.775891 128.000000
4.672452 -1.752140 -0.775730 98.000000
4.665209 -1.765767 -0.775408 132.000000
4.660692 -1.780424 -0.775569 114.000000
4.656129 -1.795070 -0.775730 88.000000
4.700266 -1.828674 -0.784429 45.000000
