ply
format ascii 1.0
element vertex 1240
property float x
property float y
property float z
property float intensity
end_header
2.526560 -0.552228 0.155151 55.000000
2.525829 -0.560193 0.155197 54.000000
2.527022 -0.568596 0.155336 63.000000
2.529162 -0.577233 0.155521 52.000000
2.531272 -0.585889 0.155706 64.000000
2.525573 -0.592741 0.155521 47.000000
2.527630 -0.601410 0.155706 37.000000
2.527715 -0.609629 0.155798 56.000000
2.523892 -0.616908 0.155706 51.000000
2.520048 -0.624169 0.155613 65.000000
2.521997 -0.632868 0.155798 47.000000
2.515203 -0.639374 0.155567 51.000000
2.518066 -0.648331 0.155798 52.000000
2.517032 -0.656305 0.155844 52.000000
2.514041 -0.663769 0.155798 60.000000
2.518749 -0.673282 0.156122 65.000000
2.518600 -0.681527 0.156214 54.000000
2.509753 -0.687406 0.155891 47.000000
2.512445 -0.696435 0.156122 60.000000
2.508373 -0.703601 0.156029 60.000000
2.507164 -0.711566 0.156076 45.000000
2.498247 -0.717327 0.155752 65.000000
2.489319 -0.723041 0.155428 53.000000
2.487089 -0.730675 0.155428 52.000000
2.488666 -0.739438 0.155613 55.000000
2.491170 -0.748505 0.155844 67.000000
2.494597 -0.757884 0.156122 39.000000
2.490351 -0.764948 0.156029 56.000000
2.495625 -0.774951 0.156399 49.000000
2.493236 -0.782604 0.156399 38.000000
2.491775 -0.790551 0.156446 42.000000
2.477922 -0.794537 0.155891 24.000000
2.443158 -0.791680 0.154319 8.000000
2.634380 0.024464 0.124881 38.000000
2.634443 0.016381 0.124881 35.000000
2.630482 0.008287 0.124746 40.000000
2.629496 0.000217 0.124712 44.000000
2.622489 -0.007828 0.124475 52.000000
2.622452 -0.015874 0.124475 46.000000
2.625389 -0.023947 0.124577 51.000000
2.624304 -0.031989 0.124543 50.000000
2.624194 -0.040041 0.124543 64.000000
2.626057 -0.048128 0.124610 64.000000
2.624898 -0.056163 0.124577 67.000000
2.626712 -0.064265 0.124644 46.000000
2.620507 -0.072158 0.124441 65.000000
2.614280 -0.080012 0.124238 47.000000
2.608029 -0.087830 0.124035 49.000000
2.604751 -0.095720 0.123933 61.000000
2.601449 -0.103591 0.123832 58.000000
2.601119 -0.111572 0.123832 58.000000
2.601763 -0.119598 0.123866 56.000000
2.599387 -0.127481 0.123798 54.000000
2.602977 -0.135664 0.123933 66.000000
2.605542 -0.143815 0.124035 58.000000
2.603093 -0.151691 0.123967 51.000000
2.602615 -0.159676 0.123967 51.000000
2.601116 -0.167596 0.123933 63.000000
2.597598 -0.175373 0.123832 54.000000
2.594057 -0.183130 0.123730 51.000000
2.590492 -0.190867 0.123629 61.000000
2.586905 -0.198583 0.123527 66.000000
2.586284 -0.206519 0.123527 68.000000
2.582650 -0.214204 0.123426 74.000000
2.581981 -0.222127 0.123426 77.000000
2.582283 -0.230136 0.123459 63.000000
2.585546 -0.238425 0.123595 56.000000
2.585797 -0.246451 0.123629 55.000000
2.587018 -0.254579 0.123696 60.000000
2.585230 -0.262414 0.123663 57.000000
2.584413 -0.270344 0.123663 72.000000
2.582578 -0.278164 0.123629 48.000000
2.578732 -0.285756 0.123527 66.000000
2.579829 -0.293892 0.123595 62.000000
2.578915 -0.301806 0.123595 54.000000
2.573016 -0.309119 0.123426 61.000000
2.572056 -0.317012 0.123426 55.000000
2.577020 -0.325654 0.123629 43.000000
2.569071 -0.332659 0.123392 66.000000
2.566056 -0.340276 0.123324 59.000000
2.565000 -0.348147 0.123324 69.000000
2.558971 -0.355327 0.123155 70.000000
2.557869 -0.363176 0.123155 61.000000
2.558720 -0.371309 0.123222 61.000000
2.549661 -0.377984 0.122952 59.000000
2.550465 -0.386104 0.123019 69.000000
2.551244 -0.394232 0.123087 69.000000
2.545086 -0.401278 0.122918 55.000000
2.547790 -0.409720 0.123053 73.000000
2.546521 -0.417535 0.123053 50.000000
2.549171 -0.426005 0.123189 87.000000
2.546867 -0.433656 0.123155 63.000000
2.550448 -0.442322 0.123324 75.000000
2.549079 -0.450145 0.123324 53.000000
2.548670 -0.458140 0.123358 47.000000
2.547252 -0.465957 0.123358 49.000000
2.544828 -0.473587 0.123324 69.000000
2.537471 -0.480276 0.123121 59.000000
2.537949 -0.488436 0.123189 67.000000
2.536438 -0.496220 0.123189 59.000000
2.534904 -0.504000 0.123189 65.000000
2.535305 -0.512170 0.123256 43.000000
2.540575 -0.521354 0.123493 71.000000
2.534071 -0.528125 0.123324 72.000000
2.534395 -0.536311 0.123392 69.000000
2.532737 -0.544084 0.123392 62.000000
2.527150 -0.551000 0.123256 78.000000
2.525448 -0.558750 0.123256 69.000000
2.520797 -0.565839 0.123155 64.000000
2.519049 -0.573570 0.123155 66.000000
2.521173 -0.582195 0.123290 62.000000
2.520348 -0.590155 0.123324 51.000000
2.522414 -0.598809 0.123459 64.000000
2.522509 -0.607013 0.123527 53.000000
2.520635 -0.614749 0.123527 63.000000
2.521647 -0.623199 0.123629 54.000000
2.519724 -0.630932 0.123629 57.000000
2.514870 -0.637922 0.123527 63.000000
2.515805 -0.646381 0.123629 59.000000
2.513810 -0.654096 0.123629 66.000000
2.513724 -0.662315 0.123696 55.000000
2.516508 -0.671313 0.123866 62.000000
2.515402 -0.679291 0.123899 64.000000
2.511378 -0.686477 0.123832 57.000000
2.515039 -0.695779 0.124035 38.000000
2.503269 -0.700796 0.123696 56.000000
2.498222 -0.707655 0.123595 69.000000
2.494118 -0.714765 0.123527 66.000000
2.489994 -0.721857 0.123459 56.000000
2.485850 -0.728930 0.123392 57.000000
2.485518 -0.737121 0.123459 62.000000
2.488031 -0.746180 0.123629 58.000000
2.482861 -0.752939 0.123527 64.000000
2.488183 -0.762897 0.123798 31.000000
2.483922 -0.769935 0.123730 60.000000
2.483455 -0.778150 0.123798 48.000000
2.484867 -0.786973 0.123933 43.000000
2.484345 -0.795203 0.124001 47.000000
2.474286 -0.800359 0.123730 8.000000
2.609241 0.023815 0.092319 28.000000
2.614300 0.015842 0.092428 44.000000
2.613337 0.007818 0.092406 39.000000
2.614348 -0.000199 0.092428 43.000000
2.612336 -0.008214 0.092384 37.000000
2.613298 -0.016235 0.092406 48.000000
2.613236 -0.024252 0.092406 55.000000
2.616148 -0.032305 0.092471 51.000000
2.611039 -0.040256 0.092363 72.000000
2.609903 -0.048248 0.092341 62.000000
2.607744 -0.056213 0.092298 53.000000
2.603561 -0.064117 0.092211 61.000000
2.603353 -0.072104 0.092211 48.000000
2.600121 -0.080000 0.092146 61.000000
2.595866 -0.087843 0.092060 66.000000
2.594586 -0.095770 0.092038 54.000000
2.590284 -0.103572 0.091951 58.000000
2.589954 -0.111518 0.091951 63.000000
2.588601 -0.119418 0.091930 52.000000
2.588222 -0.127359 0.091930 61.000000
2.586821 -0.135247 0.091908 75.000000
2.591385 -0.143457 0.092016 53.000000
2.595923 -0.151696 0.092125 56.000000
2.595446 -0.159659 0.092125 56.000000
2.595941 -0.167685 0.092146 53.000000
2.596412 -0.175716 0.092168 48.000000
2.590874 -0.183330 0.092060 56.000000
2.596282 -0.191717 0.092190 58.000000
2.591694 -0.199376 0.092103 51.000000
2.587084 -0.207009 0.092016 52.000000
2.585440 -0.214863 0.091995 59.000000
2.580785 -0.222453 0.091908 47.000000
2.579094 -0.230281 0.091887 49.000000
2.576384 -0.238009 0.091843 53.000000
2.573651 -0.245723 0.091800 57.000000
2.569900 -0.253325 0.091735 55.000000
2.567122 -0.261007 0.091692 55.000000
2.567303 -0.268985 0.091713 73.000000
2.567460 -0.276967 0.091735 52.000000
2.567592 -0.284952 0.091757 52.000000
2.568692 -0.293054 0.091800 77.000000
2.564802 -0.300586 0.091735 54.000000
2.567839 -0.308929 0.091822 52.000000
2.561917 -0.316195 0.091713 57.000000
2.562919 -0.324304 0.091757 60.000000
2.557946 -0.331653 0.091670 60.000000
2.551961 -0.338843 0.091562 53.000000
2.547937 -0.346268 0.091497 64.000000
2.540921 -0.353260 0.091367 73.000000
2.536855 -0.360633 0.091302 49.000000
2.541674 -0.369274 0.091432 52.000000
2.537561 -0.376631 0.091367 61.000000
2.541337 -0.385161 0.091475 74.000000
2.544096 -0.393566 0.091562 56.000000
2.542876 -0.401369 0.091562 41.000000
2.543607 -0.409486 0.091605 53.000000
2.541353 -0.417126 0.091584 66.000000
2.540061 -0.424921 0.091584 56.000000
2.537759 -0.432544 0.091562 54.000000
2.534450 -0.439987 0.091519 59.000000
2.535058 -0.448107 0.091562 53.000000
2.533671 -0.455883 0.091562 59.000000
2.535211 -0.464193 0.091627 48.000000
2.536724 -0.472516 0.091692 42.000000
2.524456 -0.478254 0.091454 62.000000
2.525922 -0.486563 0.091519 55.000000
2.520493 -0.493543 0.091432 47.000000
2.516025 -0.500690 0.091367 65.000000
2.517417 -0.509000 0.091432 54.000000
2.517802 -0.517122 0.091475 45.000000
2.520119 -0.525659 0.091562 49.000000
2.520451 -0.533801 0.091605 55.000000
2.520757 -0.541951 0.091649 46.000000
2.520059 -0.549895 0.091670 72.000000
2.519336 -0.557839 0.091692 58.000000
2.516637 -0.565347 0.091670 65.000000
2.509042 -0.571735 0.091540 54.000000
2.511173 -0.580329 0.091627 52.000000
2.509380 -0.588030 0.091627 40.000000
2.510483 -0.596418 0.091692 56.000000
2.511557 -0.604818 0.091757 48.000000
2.506776 -0.611811 0.091692 47.000000
2.509740 -0.620697 0.091800 50.000000
2.507824 -0.628393 0.091800 48.000000
2.504915 -0.635839 0.091778 40.000000
2.503921 -0.643769 0.091800 52.000000
2.502902 -0.651700 0.091822 43.000000
2.499924 -0.659121 0.091800 47.000000
2.499822 -0.667302 0.091843 41.000000
2.498729 -0.675229 0.091865 48.000000
2.497610 -0.683155 0.091887 59.000000
2.496466 -0.691081 0.091908 53.000000
2.496259 -0.699275 0.091951 47.000000
2.494102 -0.706930 0.091951 45.000000
2.489038 -0.713753 0.091887 47.000000
2.486837 -0.721386 0.091887 59.000000
2.480774 -0.727888 0.091800 58.000000
2.479488 -0.735780 0.091822 66.000000
2.478176 -0.743670 0.091843 47.000000
2.474926 -0.750979 0.091822 53.000000
2.478347 -0.760326 0.091951 39.000000
2.472182 -0.766743 0.091865 49.000000
2.473634 -0.775518 0.091951 40.000000
2.474103 -0.784008 0.092016 44.000000
2.472639 -0.791900 0.092038 34.000000
2.487691 -0.813574 0.092493 12.000000
2.620775 0.023885 0.060278 37.000000
2.618836 0.015832 0.060260 51.000000
2.620872 0.007803 0.060278 55.000000
2.619884 -0.000237 0.060269 53.000000
2.619871 -0.008275 0.060269 46.000000
2.620833 -0.016319 0.060278 52.000000
2.619771 -0.024350 0.060269 75.000000
2.618684 -0.032375 0.060260 63.000000
2.614573 -0.040346 0.060223 62.000000
2.610438 -0.048293 0.060186 67.000000
2.607278 -0.056236 0.060158 85.000000
2.601095 -0.064086 0.060103 63.000000
2.596888 -0.071954 0.060066 57.000000
2.596655 -0.079921 0.060066 67.000000
2.594399 -0.087819 0.060047 50.000000
2.596116 -0.095853 0.060066 58.000000
2.596809 -0.103857 0.060075 63.000000
2.598476 -0.111910 0.060093 67.000000
2.602116 -0.120066 0.060130 65.000000
2.601735 -0.128049 0.060130 59.000000
2.597336 -0.135821 0.060093 48.000000
2.600901 -0.144010 0.060130 63.000000
2.602443 -0.152106 0.060149 77.000000
2.596974 -0.159782 0.060103 60.000000
2.591482 -0.167425 0.060056 72.000000
2.586966 -0.175104 0.060019 61.000000
2.587414 -0.183111 0.060029 51.000000
2.585842 -0.190974 0.060019 75.000000
2.582253 -0.198676 0.059992 71.000000
2.577645 -0.206278 0.059955 64.000000
2.580986 -0.214517 0.059992 81.000000
2.579319 -0.222348 0.059982 63.000000
2.581613 -0.230528 0.060010 73.000000
2.576910 -0.238078 0.059973 51.000000
2.572186 -0.245602 0.059936 67.000000
2.565450 -0.252903 0.059881 62.000000
2.569636 -0.261279 0.059927 76.000000
2.566833 -0.268952 0.059908 69.000000
2.567985 -0.277041 0.059927 74.000000
2.565135 -0.284697 0.059908 81.000000
2.565243 -0.292679 0.059918 76.000000
2.568305 -0.301014 0.059955 78.000000
2.570348 -0.309251 0.059982 65.000000
2.562440 -0.316277 0.059918 67.000000
2.561458 -0.324136 0.059918 60.000000
2.556485 -0.331478 0.059881 74.000000
2.553474 -0.339057 0.059862 63.000000
2.546476 -0.346080 0.059807 77.000000
2.541441 -0.353339 0.059770 72.000000
2.538365 -0.360853 0.059751 63.000000
2.539225 -0.368927 0.059770 74.000000
2.536103 -0.376421 0.059751 69.000000
2.535925 -0.384350 0.059760 62.000000
2.534734 -0.392129 0.059760 70.000000
2.534507 -0.400059 0.059770 56.000000
2.532280 -0.407674 0.059760 64.000000
2.533978 -0.415927 0.059788 73.000000
2.533676 -0.423865 0.059797 79.000000
2.530392 -0.431300 0.059779 61.000000
2.527087 -0.438718 0.059760 54.000000
2.526713 -0.446643 0.059770 78.000000
2.526316 -0.454570 0.059779 73.000000
2.527860 -0.462860 0.059807 56.000000
2.522496 -0.469880 0.059770 81.000000
2.522025 -0.477803 0.059779 83.000000
2.523493 -0.486106 0.059807 51.000000
2.524933 -0.494422 0.059834 89.000000
2.527328 -0.502948 0.059871 81.000000
2.527733 -0.511096 0.059890 72.000000
2.528111 -0.519251 0.059908 48.000000
2.524549 -0.526596 0.059890 66.000000
2.524878 -0.534754 0.059908 62.000000
2.519315 -0.541656 0.059871 50.000000
2.518618 -0.549596 0.059881 69.000000
2.512039 -0.556239 0.059834 47.000000
2.510321 -0.563943 0.059834 74.000000
2.512478 -0.572531 0.059871 56.000000
2.508762 -0.579786 0.059853 56.000000
2.506971 -0.587480 0.059853 53.000000
2.507102 -0.595631 0.059871 61.000000
2.500403 -0.602148 0.059825 68.000000
2.500486 -0.610291 0.059844 73.000000
2.496661 -0.617479 0.059825 69.000000
2.493785 -0.624893 0.059816 76.000000
2.492825 -0.632787 0.059825 80.000000
2.493777 -0.641179 0.059853 68.000000
2.494701 -0.649583 0.059881 81.000000
2.492697 -0.657234 0.059881 57.000000
2.493567 -0.665653 0.059908 59.000000
2.494409 -0.674083 0.059936 53.000000
2.490400 -0.681204 0.059918 64.000000
2.490226 -0.689375 0.059936 57.000000
2.492913 -0.698361 0.059982 76.000000
2.485949 -0.704642 0.059936 73.000000
2.486659 -0.713093 0.059964 51.000000
2.481579 -0.719882 0.059936 54.000000
2.479358 -0.727492 0.059936 61.000000
2.482867 -0.736803 0.059992 44.000000
2.476763 -0.743267 0.059955 57.000000
2.472558 -0.750281 0.059936 67.000000
2.470244 -0.757863 0.059936 61.000000
2.468863 -0.765734 0.059945 61.000000
2.476997 -0.776597 0.060047 39.000000
2.466977 -0.781775 0.059973 52.000000
2.466472 -0.789951 0.059992 50.000000
2.489722 -0.805832 0.060241 22.000000
2.625833 0.023974 0.027524 33.000000
2.616895 0.015859 0.027554 47.000000
2.620931 0.007844 0.027541 39.000000
2.622943 -0.000196 0.027534 26.000000
2.618930 -0.008232 0.027547 50.000000
2.610893 -0.016221 0.027574 48.000000
2.610830 -0.024231 0.027574 57.000000
2.610744 -0.032241 0.027574 55.000000
2.611632 -0.040265 0.027571 61.000000
2.605498 -0.048169 0.027591 58.000000
2.604338 -0.056141 0.027594 49.000000
2.604153 -0.064131 0.027594 55.000000
2.603944 -0.072120 0.027594 76.000000
2.602711 -0.080078 0.027597 54.000000
2.595457 -0.087829 0.027620 57.000000
2.592177 -0.095682 0.027630 59.000000
2.591872 -0.103634 0.027630 53.000000
2.588544 -0.111458 0.027640 59.000000
2.587191 -0.119353 0.027644 54.000000
2.586813 -0.127290 0.027644 66.000000
2.579419 -0.134864 0.027667 51.000000
2.582988 -0.142996 0.027654 59.000000
2.579542 -0.150746 0.027664 52.000000
2.578069 -0.158598 0.027667 59.000000
2.573579 -0.166251 0.027680 61.000000
2.572059 -0.174079 0.027683 70.000000
2.574505 -0.182179 0.027674 56.000000
2.573934 -0.190077 0.027674 60.000000
2.576330 -0.198201 0.027664 56.000000
2.570726 -0.205708 0.027680 69.000000
2.576062 -0.214088 0.027660 68.000000
2.577386 -0.222161 0.027654 53.000000
2.580676 -0.230421 0.027640 64.000000
2.577966 -0.238155 0.027647 52.000000
2.575232 -0.245873 0.027654 45.000000
2.568494 -0.253187 0.027674 52.000000
2.570690 -0.261368 0.027664 52.000000
2.565898 -0.268838 0.027677 67.000000
2.568043 -0.277030 0.027667 81.000000
2.561218 -0.284248 0.027687 69.000000
2.561327 -0.292217 0.027683 64.000000
2.553466 -0.299262 0.027707 43.000000
2.558493 -0.307809 0.027687 46.000000
2.553567 -0.315168 0.027700 55.000000
2.550604 -0.322751 0.027707 67.000000
2.545635 -0.330062 0.027720 70.000000
2.543619 -0.337739 0.027723 58.000000
2.540589 -0.345273 0.027730 54.000000
2.539517 -0.353066 0.027730 46.000000
2.537432 -0.360715 0.027733 53.000000
2.542252 -0.369358 0.027713 54.000000
2.535171 -0.376278 0.027733 47.000000
2.534994 -0.384203 0.027730 57.000000
2.535779 -0.392283 0.027723 48.000000
2.532588 -0.399750 0.027730 57.000000
2.526413 -0.406726 0.027746 56.000000
2.530088 -0.415282 0.027730 68.000000
2.524856 -0.422384 0.027743 70.000000
2.526506 -0.430631 0.027733 52.000000
2.522217 -0.437869 0.027743 53.000000
2.522831 -0.445952 0.027737 44.000000
2.521451 -0.453690 0.027737 63.000000
2.526934 -0.462681 0.027713 44.000000
2.521570 -0.469701 0.027727 55.000000
2.517169 -0.476877 0.027737 52.000000
2.520604 -0.485541 0.027720 47.000000
2.516159 -0.492697 0.027730 56.000000
2.513654 -0.500219 0.027733 64.000000
2.515049 -0.508522 0.027723 60.000000
2.509558 -0.515433 0.027737 57.000000
2.508944 -0.523333 0.027733 44.000000
2.512218 -0.532062 0.027717 75.000000
2.511552 -0.539976 0.027713 56.000000
2.509883 -0.547679 0.027713 52.000000
2.509168 -0.555593 0.027710 52.000000
2.511355 -0.564163 0.027697 43.000000
2.508637 -0.571643 0.027700 59.000000
2.512718 -0.580685 0.027680 48.000000
2.504109 -0.586797 0.027703 60.000000
2.507161 -0.595631 0.027687 49.000000
2.494627 -0.600749 0.027723 45.000000
2.494715 -0.608873 0.027717 52.000000
2.487982 -0.615326 0.027733 58.000000
2.481231 -0.621743 0.027750 58.000000
2.483190 -0.630335 0.027737 55.000000
2.480275 -0.637701 0.027740 62.000000
2.480243 -0.645811 0.027733 50.000000
2.484052 -0.654944 0.027713 49.000000
2.484930 -0.663334 0.027703 62.000000
2.484815 -0.671476 0.027697 47.000000
2.482743 -0.679096 0.027697 56.000000
2.488358 -0.688841 0.027670 41.000000
2.484307 -0.695933 0.027677 62.000000
2.483123 -0.703824 0.027674 52.000000
2.482875 -0.711989 0.027667 54.000000
2.481639 -0.719881 0.027664 60.000000
2.482298 -0.728334 0.027654 59.000000
2.480052 -0.735947 0.027654 60.000000
2.475866 -0.742978 0.027660 53.000000
2.473575 -0.750570 0.027660 62.000000
2.470304 -0.757863 0.027664 61.000000
2.467013 -0.765142 0.027667 40.000000
2.459882 -0.771213 0.027683 66.000000
2.455598 -0.778153 0.027690 58.000000
2.457961 -0.787206 0.027674 37.000000
2.519288 -0.815346 0.027451 8.000000
2.484454 -0.812517 0.027564 9.000000
2.617557 0.024764 -0.004693 47.000000
2.616621 0.016727 -0.004678 46.000000
2.613660 0.008690 -0.004631 47.000000
2.611675 0.000671 -0.004599 60.000000
2.612664 -0.007344 -0.004615 49.000000
2.607630 -0.015330 -0.004536 47.000000
2.604572 -0.023303 -0.004489 67.000000
2.602488 -0.031269 -0.004458 58.000000
2.601380 -0.039238 -0.004442 64.000000
2.598249 -0.047164 -0.004395 75.000000
2.601090 -0.055199 -0.004442 67.000000
2.597910 -0.063105 -0.004395 75.000000
2.603702 -0.071240 -0.004489 64.000000
2.603471 -0.079228 -0.004489 55.000000
2.601217 -0.087148 -0.004458 58.000000
2.602936 -0.095201 -0.004489 52.000000
2.602631 -0.103186 -0.004489 73.000000
2.601304 -0.111128 -0.004474 62.000000
2.599952 -0.119062 -0.004458 74.000000
2.591584 -0.126646 -0.004332 83.000000
2.587190 -0.134389 -0.004269 72.000000
2.585767 -0.142270 -0.004254 82.000000
2.576335 -0.149679 -0.004112 60.000000
2.575863 -0.157583 -0.004112 83.000000
2.572374 -0.165292 -0.004065 70.000000
2.568862 -0.172981 -0.004018 72.000000
2.574304 -0.181284 -0.004112 79.000000
2.577724 -0.189474 -0.004175 58.000000
2.576134 -0.197305 -0.004159 60.000000
2.578506 -0.205447 -0.004207 62.000000
2.577864 -0.213356 -0.004207 74.000000
2.574209 -0.221007 -0.004159 89.000000
2.576506 -0.229170 -0.004207 86.000000
2.570813 -0.236614 -0.004128 74.000000
2.568084 -0.244311 -0.004097 64.000000
2.569313 -0.252384 -0.004128 51.000000
2.567532 -0.260165 -0.004112 86.000000
2.565727 -0.267936 -0.004097 79.000000
2.565887 -0.275914 -0.004112 65.000000
2.559066 -0.283124 -0.004018 87.000000
2.564146 -0.291653 -0.004112 71.000000
2.562246 -0.299402 -0.004097 54.000000
2.555359 -0.306546 -0.004002 78.000000
2.557383 -0.314751 -0.004049 74.000000
2.555413 -0.322470 -0.004034 74.000000
2.551437 -0.329923 -0.003987 78.000000
2.554378 -0.338275 -0.004049 64.000000
2.547383 -0.345303 -0.003955 61.000000
2.545321 -0.352980 -0.003940 66.000000
2.545217 -0.360927 -0.003955 63.000000
2.548055 -0.369309 -0.004018 88.000000
2.540976 -0.376245 -0.003924 67.000000
2.543764 -0.384637 -0.003987 65.000000
2.538620 -0.391829 -0.003924 64.000000
2.535430 -0.399304 -0.003892 64.000000
2.536168 -0.407398 -0.003924 90.000000
2.531946 -0.414692 -0.003877 69.000000
2.527703 -0.421963 -0.003830 67.000000
2.526396 -0.429716 -0.003830 73.000000
2.522111 -0.436952 -0.003782 71.000000
2.526666 -0.445731 -0.003877 66.000000
2.527255 -0.453835 -0.003908 67.000000
2.530768 -0.462485 -0.003987 58.000000
2.526388 -0.469699 -0.003940 80.000000
2.523953 -0.477261 -0.003924 81.000000
2.527387 -0.485947 -0.004002 70.000000
2.520977 -0.492739 -0.003924 95.000000
2.518473 -0.500276 -0.003908 68.000000
2.517906 -0.508198 -0.003924 85.000000
2.516336 -0.515921 -0.003924 62.000000
2.517678 -0.524250 -0.003971 67.000000
2.516057 -0.531972 -0.003971 66.000000
2.510503 -0.538849 -0.003908 64.000000
2.509815 -0.546761 -0.003924 77.000000
2.507149 -0.554243 -0.003908 79.000000
2.503486 -0.561494 -0.003877 75.000000
2.501751 -0.569172 -0.003877 65.000000
2.499994 -0.576844 -0.003877 72.000000
2.500159 -0.584967 -0.003908 78.000000
2.500299 -0.593097 -0.003940 75.000000
2.494579 -0.599829 -0.003877 86.000000
2.495641 -0.608190 -0.003924 83.000000
2.495704 -0.616324 -0.003955 60.000000
2.488952 -0.622763 -0.003877 69.000000
2.488968 -0.630888 -0.003908 69.000000
2.485084 -0.638024 -0.003877 70.000000
2.483115 -0.645645 -0.003877 74.000000
2.484023 -0.654024 -0.003924 89.000000
2.482971 -0.661900 -0.003940 70.000000
2.482859 -0.670035 -0.003971 74.000000
2.485615 -0.678968 -0.004049 54.000000
2.480629 -0.685790 -0.004002 68.000000
2.479476 -0.693667 -0.004018 64.000000
2.480222 -0.702088 -0.004065 76.000000
2.478057 -0.709694 -0.004065 84.000000
2.476828 -0.717572 -0.004081 86.000000
2.481331 -0.727136 -0.004191 70.000000
2.477171 -0.734177 -0.004159 79.000000
2.480654 -0.743497 -0.004254 61.000000
2.481232 -0.751974 -0.004301 51.000000
2.478913 -0.759583 -0.004301 71.000000
2.475616 -0.766889 -0.004285 55.000000
2.468481 -0.772986 -0.004207 52.000000
2.464191 -0.779951 -0.004175 35.000000
2.462739 -0.787812 -0.004191 55.000000
2.458408 -0.794749 -0.004159 31.000000
2.422694 -0.791416 -0.003610 6.000000
2.599854 0.023725 -0.035552 36.000000
2.600913 0.015755 -0.035580 46.000000
2.594952 0.007755 -0.035413 39.000000
2.591965 -0.000207 -0.035330 51.000000
2.590952 -0.008157 -0.035302 49.000000
2.588916 -0.016094 -0.035247 35.000000
2.588854 -0.024037 -0.035247 51.000000
2.588768 -0.031979 -0.035247 51.000000
2.590657 -0.039951 -0.035302 52.000000
2.592521 -0.047935 -0.035358 49.000000
2.595360 -0.055952 -0.035441 59.000000
2.594177 -0.063890 -0.035413 39.000000
2.590971 -0.071767 -0.035330 42.000000
2.589740 -0.079685 -0.035302 57.000000
2.586486 -0.087530 -0.035219 58.000000
2.584207 -0.095392 -0.035163 49.000000
2.582903 -0.103280 -0.035136 52.000000
2.579578 -0.111076 -0.035052 44.000000
2.575231 -0.118807 -0.034941 48.000000
2.575853 -0.126756 -0.034969 58.000000
2.573455 -0.134554 -0.034914 49.000000
2.572032 -0.142394 -0.034886 59.000000
2.572581 -0.150342 -0.034914 36.000000
2.572108 -0.158234 -0.034914 49.000000
2.571610 -0.166125 -0.034914 53.000000
2.574081 -0.174214 -0.034997 50.000000
2.577523 -0.182391 -0.035108 46.000000
2.573960 -0.190079 -0.035025 39.000000
2.572368 -0.197898 -0.034997 45.000000
2.568760 -0.205551 -0.034914 52.000000
2.565128 -0.213184 -0.034830 49.000000
2.560478 -0.220711 -0.034719 56.000000
2.554811 -0.228124 -0.034581 38.000000
2.552108 -0.235778 -0.034525 47.000000
2.552367 -0.243701 -0.034553 40.000000
2.554592 -0.251823 -0.034636 38.000000
2.550824 -0.259357 -0.034553 45.000000
2.553993 -0.267597 -0.034664 50.000000
2.552166 -0.275324 -0.034636 45.000000
2.551310 -0.283153 -0.034636 53.000000
2.547450 -0.290640 -0.034553 37.000000
2.546546 -0.298454 -0.034553 48.000000
2.543633 -0.306028 -0.034497 50.000000
2.543674 -0.313952 -0.034525 48.000000
2.539724 -0.321379 -0.034442 54.000000
2.537735 -0.329041 -0.034414 36.000000
2.536713 -0.336826 -0.034414 47.000000
2.535668 -0.344607 -0.034414 45.000000
2.532619 -0.352110 -0.034359 49.000000
2.536475 -0.360579 -0.034497 43.000000
2.538324 -0.368789 -0.034581 41.000000
2.537181 -0.376575 -0.034581 46.000000
2.537003 -0.384506 -0.034608 50.000000
2.534823 -0.392136 -0.034581 44.000000
2.520771 -0.397890 -0.034220 31.000000
2.526447 -0.406731 -0.034414 49.000000
2.523214 -0.414157 -0.034359 50.000000
2.523904 -0.422225 -0.034414 36.000000
2.519640 -0.429464 -0.034331 43.000000
2.518311 -0.437192 -0.034331 49.000000
2.518926 -0.445263 -0.034386 47.000000
2.518533 -0.453166 -0.034414 44.000000
2.517130 -0.460891 -0.034414 54.000000
2.516687 -0.468793 -0.034442 46.000000
2.509344 -0.475399 -0.034275 29.000000
2.514745 -0.484415 -0.034470 61.000000
2.511285 -0.491745 -0.034414 43.000000
2.506823 -0.498863 -0.034331 43.000000
2.505281 -0.506552 -0.034331 52.000000
2.504694 -0.514436 -0.034359 44.000000
2.497232 -0.520896 -0.034192 51.000000
2.495623 -0.528555 -0.034192 48.000000
2.491057 -0.535580 -0.034109 44.000000
2.489402 -0.543220 -0.034109 53.000000
2.488700 -0.551070 -0.034137 45.000000
2.489924 -0.559359 -0.034220 43.000000
2.493070 -0.568103 -0.034359 57.000000
2.485471 -0.574401 -0.034192 31.000000
2.495377 -0.584756 -0.034525 43.000000
2.494544 -0.592639 -0.034553 52.000000
2.490770 -0.599822 -0.034497 47.000000
2.492803 -0.608407 -0.034608 45.000000
2.490925 -0.616052 -0.034608 51.000000
2.482235 -0.621994 -0.034414 38.000000
2.485160 -0.630834 -0.034553 44.000000
2.481276 -0.637958 -0.034497 54.000000
2.481242 -0.646070 -0.034553 41.000000
2.476348 -0.652917 -0.034470 44.000000
2.475300 -0.660768 -0.034497 40.000000
2.470365 -0.667578 -0.034414 57.000000
2.468306 -0.675154 -0.034414 45.000000
2.469113 -0.683522 -0.034497 51.000000
2.467005 -0.691094 -0.034497 59.000000
2.470644 -0.700293 -0.034664 43.000000
2.466562 -0.707319 -0.034608 32.000000
2.470141 -0.716551 -0.034775 45.000000
2.475605 -0.726374 -0.034997 41.000000
2.473365 -0.733966 -0.034997 46.000000
2.473017 -0.742124 -0.035052 51.000000
2.470729 -0.749708 -0.035052 46.000000
2.465549 -0.756406 -0.034969 52.000000
2.463217 -0.763967 -0.034969 50.000000
2.453230 -0.769131 -0.034747 39.000000
2.448000 -0.775750 -0.034664 45.000000
2.442752 -0.782343 -0.034581 37.000000
2.437487 -0.788911 -0.034497 36.000000
2.606771 0.024664 -0.068342 38.000000
2.599841 0.016622 -0.068060 55.000000
2.595883 0.008633 -0.067898 53.000000
2.595897 0.000669 -0.067898 45.000000
2.590891 -0.007280 -0.067697 58.000000
2.591855 -0.015235 -0.067737 65.000000
2.590797 -0.023177 -0.067697 53.000000
2.591713 -0.031138 -0.067737 55.000000
2.595602 -0.039150 -0.067898 53.000000
2.596468 -0.047131 -0.067939 53.000000
2.596312 -0.055097 -0.067939 33.000000
2.596130 -0.063062 -0.067939 71.000000
2.594926 -0.070999 -0.067898 51.000000
2.592699 -0.078899 -0.067818 49.000000
2.583457 -0.086550 -0.067455 47.000000
2.580184 -0.094366 -0.067334 61.000000
2.576886 -0.102162 -0.067213 49.000000
2.570571 -0.109810 -0.066971 50.000000
2.565231 -0.117467 -0.066770 63.000000
2.568851 -0.125532 -0.066931 57.000000
2.567456 -0.133361 -0.066891 65.000000
2.575016 -0.141677 -0.067213 79.000000
2.580554 -0.149925 -0.067455 48.000000
2.583074 -0.158025 -0.067576 55.000000
2.582577 -0.165949 -0.067576 58.000000
2.583053 -0.173939 -0.067616 54.000000
2.579517 -0.181652 -0.067495 58.000000
2.576955 -0.189418 -0.067415 52.000000
2.572376 -0.197017 -0.067253 58.000000
2.567776 -0.204590 -0.067092 48.000000
2.560166 -0.211889 -0.066810 55.000000
2.555521 -0.219400 -0.066649 53.000000
2.553841 -0.227150 -0.066609 58.000000
2.559102 -0.235535 -0.066850 53.000000
2.571298 -0.244617 -0.067374 47.000000
2.601362 -0.255537 -0.068624 36.000000
2.592613 -0.262710 -0.068301 47.000000
2.601732 -0.271702 -0.068705 45.000000
2.609827 -0.280645 -0.069067 47.000000
2.596043 -0.287221 -0.068543 56.000000
2.598128 -0.295523 -0.068664 57.000000
2.611104 -0.305118 -0.069228 53.000000
2.598250 -0.311698 -0.068745 46.000000
2.610174 -0.321256 -0.069269 53.000000
2.629993 -0.331893 -0.070115 41.000000
2.605181 -0.336881 -0.069148 57.000000
2.636822 -0.349206 -0.070478 34.000000
2.629798 -0.356487 -0.070236 45.000000
2.625722 -0.364142 -0.070115 48.000000
2.639432 -0.374302 -0.070720 37.000000
2.635305 -0.381968 -0.070599 36.000000
2.637086 -0.390490 -0.070720 39.000000
2.632911 -0.398130 -0.070599 41.000000
2.628715 -0.405748 -0.070478 48.000000
2.627458 -0.413811 -0.070478 42.000000
2.631109 -0.422663 -0.070680 53.000000
2.630785 -0.430895 -0.070720 44.000000
2.618611 -0.437153 -0.070276 48.000000
2.626122 -0.446694 -0.070639 49.000000
2.635569 -0.456626 -0.071083 49.000000
2.626284 -0.463320 -0.070760 36.000000
2.635668 -0.473320 -0.071204 45.000000
2.648946 -0.484100 -0.071808 41.000000
2.644502 -0.491676 -0.071687 41.000000
2.638072 -0.498858 -0.071486 40.000000
2.656153 -0.510726 -0.072292 59.000000
2.650651 -0.518105 -0.072131 43.000000
2.669629 -0.530326 -0.072977 47.000000
2.660154 -0.536931 -0.072655 46.000000
2.676113 -0.548705 -0.073380 58.000000
2.672461 -0.556505 -0.073299 69.000000
2.674651 -0.565528 -0.073461 40.000000
2.686580 -0.576669 -0.074025 31.000000
2.709204 -0.590230 -0.075033 20.000000
2.672259 -0.590769 -0.073582 19.000000
2.645086 -0.593275 -0.072534 11.000000
2.792508 -0.276145 -0.110057 26.000000
2.795621 -0.285115 -0.110266 28.000000
2.797713 -0.294002 -0.110423 30.000000
2.785876 -0.301407 -0.109847 45.000000
2.773028 -0.308632 -0.109219 60.000000
2.772068 -0.317138 -0.109219 46.000000
2.763147 -0.324712 -0.108801 40.000000
2.761146 -0.333069 -0.108748 27.000000
2.751192 -0.340438 -0.108277 34.000000
2.748152 -0.348626 -0.108173 30.000000
2.743109 -0.356543 -0.107963 50.000000
2.736062 -0.364169 -0.107649 39.000000
2.727015 -0.371486 -0.107231 27.000000
2.718939 -0.378889 -0.106864 28.000000
2.694035 -0.383858 -0.105608 8.000000
2.709645 -0.394561 -0.106498 19.000000
2.702495 -0.401993 -0.106184 19.000000
2.712110 -0.411927 -0.106760 37.000000
2.718729 -0.421466 -0.107178 49.000000
2.719396 -0.430116 -0.107283 49.000000
2.717077 -0.438299 -0.107231 35.000000
2.724589 -0.448087 -0.107702 27.000000
2.720247 -0.455950 -0.107545 30.000000
2.733602 -0.466809 -0.108330 12.000000
2.720350 -0.473145 -0.107702 17.000000
2.721836 -0.482010 -0.107859 26.000000
2.724275 -0.491065 -0.108068 43.000000
2.727668 -0.500319 -0.108330 39.000000
2.725138 -0.508502 -0.108277 23.000000
2.729452 -0.517975 -0.108591 22.000000
2.724908 -0.525780 -0.108434 25.000000
2.723283 -0.534138 -0.108434 28.000000
2.741220 -0.546386 -0.109481 35.000000
2.742468 -0.555387 -0.109638 37.000000
2.740751 -0.563798 -0.109638 45.000000
2.748784 -0.574242 -0.110161 34.000000
2.757756 -0.584947 -0.110737 29.000000
2.765712 -0.595503 -0.111261 22.000000
2.792167 -0.610157 -0.112778 11.000000
2.768831 -0.613973 -0.111627 14.000000
2.812394 -0.267590 -0.145981 34.000000
2.814539 -0.276510 -0.146175 28.000000
2.803750 -0.284136 -0.145528 40.000000
2.799887 -0.292425 -0.145334 40.000000
2.790048 -0.300052 -0.144752 57.000000
2.786138 -0.308281 -0.144558 64.000000
2.769315 -0.315020 -0.143522 36.000000
2.771310 -0.323863 -0.143717 76.000000
2.762377 -0.331411 -0.143199 64.000000
2.752433 -0.338786 -0.142617 67.000000
2.748410 -0.346854 -0.142422 57.000000
2.743375 -0.354772 -0.142164 61.000000
2.740295 -0.362924 -0.142034 58.000000
2.739169 -0.371330 -0.142034 47.000000
2.732086 -0.378908 -0.141646 38.000000
2.734863 -0.387849 -0.141905 60.000000
2.741560 -0.397384 -0.142422 135.000000
2.733418 -0.404769 -0.141969 85.000000
2.728217 -0.412556 -0.141711 78.000000
2.724966 -0.420619 -0.141581 79.000000
2.721692 -0.428667 -0.141452 51.000000
2.726275 -0.437965 -0.141840 41.000000
2.721964 -0.445843 -0.141646 55.000000
2.720584 -0.454192 -0.141646 68.000000
2.718194 -0.462369 -0.141581 57.000000
2.720695 -0.471388 -0.141840 60.000000
2.717271 -0.479385 -0.141711 58.000000
2.718734 -0.488249 -0.141905 60.000000
2.719187 -0.496947 -0.142034 52.000000
2.720592 -0.505835 -0.142228 70.000000
2.721969 -0.514736 -0.142422 58.000000
2.725277 -0.524027 -0.142746 57.000000
2.728553 -0.533343 -0.143069 74.000000
2.734734 -0.543269 -0.143587 54.000000
2.733054 -0.551656 -0.143587 76.000000
2.733304 -0.560439 -0.143717 47.000000
2.741341 -0.570858 -0.144364 49.000000
2.740553 -0.579472 -0.144428 57.000000
2.750470 -0.590392 -0.145205 51.000000
2.752546 -0.599678 -0.145464 44.000000
2.757514 -0.609629 -0.145917 25.000000
2.757577 -0.618523 -0.146046 14.000000
2.756042 -0.255489 -0.175099 15.000000
2.782045 -0.266499 -0.177166 21.000000
2.793122 -0.276206 -0.178084 29.000000
2.786309 -0.284169 -0.177625 36.000000
2.779474 -0.292093 -0.177166 39.000000
2.765678 -0.299230 -0.176171 44.000000
2.759792 -0.307164 -0.175788 50.000000
2.749921 -0.314614 -0.175099 51.000000
2.743001 -0.322353 -0.174640 55.000000
2.734079 -0.329815 -0.174027 44.000000
2.729096 -0.337713 -0.173721 69.000000
2.725080 -0.345709 -0.173492 63.000000
2.724006 -0.354068 -0.173492 48.000000
2.722907 -0.362424 -0.173492 67.000000
2.721782 -0.370776 -0.173492 49.000000
2.720632 -0.379124 -0.173492 58.000000
2.719456 -0.387469 -0.173492 44.000000
2.718255 -0.395811 -0.173492 47.000000
2.717028 -0.404148 -0.173492 45.000000
2.713803 -0.412183 -0.173339 51.000000
2.712526 -0.420507 -0.173339 60.000000
2.710238 -0.428672 -0.173262 47.000000
2.710879 -0.437302 -0.173415 48.000000
2.707557 -0.445294 -0.173262 44.000000
2.703228 -0.453105 -0.173032 48.000000
2.703791 -0.461731 -0.173185 37.000000
2.702362 -0.470024 -0.173185 43.000000
2.700907 -0.478312 -0.173185 46.000000
2.700408 -0.486773 -0.173262 46.000000
2.704786 -0.496132 -0.173721 55.000000
2.703252 -0.504428 -0.173721 65.000000
2.707569 -0.513832 -0.174181 76.000000
2.703043 -0.521571 -0.173951 34.000000
2.713172 -0.532159 -0.174869 44.000000
2.717394 -0.541648 -0.175329 41.000000
2.718651 -0.550574 -0.175558 61.000000
2.725740 -0.560717 -0.176247 58.000000
2.726935 -0.569687 -0.176477 57.000000
2.732978 -0.579702 -0.177089 46.000000
2.745809 -0.591227 -0.178237 40.000000
2.756646 -0.602410 -0.179233 27.000000
2.746023 -0.608925 -0.178544 21.000000
2.760681 -0.621060 -0.179845 22.000000
2.768484 -0.631741 -0.180610 11.000000
2.779169 -0.256796 -0.211012 25.000000
2.779360 -0.265416 -0.211101 40.000000
2.776550 -0.273746 -0.210924 42.000000
2.771733 -0.281859 -0.210569 40.000000
2.764912 -0.289737 -0.210036 43.000000
2.755097 -0.297256 -0.209238 61.000000
2.744273 -0.304607 -0.208351 68.000000
2.736398 -0.312233 -0.207730 83.000000
2.728503 -0.319814 -0.207109 63.000000
2.721575 -0.327469 -0.206576 58.000000
2.715615 -0.335206 -0.206133 72.000000
2.711609 -0.343160 -0.205867 55.000000
2.711531 -0.351606 -0.205955 47.000000
2.709452 -0.359792 -0.205867 62.000000
2.708336 -0.368103 -0.205867 63.000000
2.710154 -0.376822 -0.206133 57.000000
2.706026 -0.384714 -0.205867 75.000000
2.703848 -0.392871 -0.205778 83.000000
2.703615 -0.401310 -0.205867 77.000000
2.701386 -0.409454 -0.205778 58.000000
2.702086 -0.418044 -0.205955 60.000000
2.701775 -0.426488 -0.206044 93.000000
2.696520 -0.434141 -0.205689 81.000000
2.699107 -0.443058 -0.206044 87.000000
2.693805 -0.450678 -0.205689 64.000000
2.694373 -0.459276 -0.205867 72.000000
2.690989 -0.467199 -0.205689 67.000000
2.694448 -0.476320 -0.206133 38.000000
2.693954 -0.484761 -0.206221 67.000000
2.701271 -0.494639 -0.207020 86.000000
2.696803 -0.502377 -0.206754 54.000000
2.696228 -0.510834 -0.206843 63.000000
2.706385 -0.521366 -0.207907 118.000000
2.702818 -0.529283 -0.207730 73.000000
2.699227 -0.537184 -0.207552 42.000000
2.711234 -0.548228 -0.208794 58.000000
2.719296 -0.558549 -0.209682 45.000000
2.716595 -0.566685 -0.209593 57.000000
2.727511 -0.577702 -0.210746 55.000000
2.732542 -0.587534 -0.211367 41.000000
2.744350 -0.598889 -0.212609 29.000000
2.739583 -0.606660 -0.212343 44.000000
2.743539 -0.616373 -0.212876 29.000000
2.753289 -0.627444 -0.213940 15.000000
2.791428 -0.249631 -0.247385 18.000000
2.791640 -0.258285 -0.247486 24.000000
2.788853 -0.266660 -0.247283 29.000000
2.777131 -0.274144 -0.246170 36.000000
2.762420 -0.281258 -0.244753 55.000000
2.755607 -0.289112 -0.244145 58.000000
2.743826 -0.296394 -0.243032 41.000000
2.738949 -0.304372 -0.242627 49.000000
2.729106 -0.311761 -0.241716 45.000000
2.728137 -0.320133 -0.241716 50.000000
2.722203 -0.327908 -0.241210 45.000000
2.716247 -0.335650 -0.240703 40.000000
2.719152 -0.344481 -0.241108 56.000000
2.718083 -0.352821 -0.241108 51.000000
2.714029 -0.360766 -0.240805 41.000000
2.718824 -0.369893 -0.241412 57.000000
2.714720 -0.377823 -0.241108 35.000000
2.713549 -0.386150 -0.241108 57.000000
2.712351 -0.394473 -0.241108 39.000000
2.713096 -0.403084 -0.241311 32.000000
2.706928 -0.410662 -0.240805 43.000000
2.705656 -0.418965 -0.240805 57.000000
2.701410 -0.426799 -0.240501 64.000000
2.699105 -0.434927 -0.240400 40.000000
2.698740 -0.443366 -0.240501 33.000000
2.694423 -0.451152 -0.240197 32.000000
2.696949 -0.460084 -0.240602 41.000000
2.699446 -0.469036 -0.241007 51.000000
2.710731 -0.479563 -0.242323 81.000000
2.708268 -0.487701 -0.242222 94.000000
2.706759 -0.496008 -0.242222 60.000000
2.705224 -0.504310 -0.242222 50.000000
2.704642 -0.512792 -0.242323 64.000000
2.704033 -0.521275 -0.242424 65.000000
2.698515 -0.528805 -0.242019 60.000000
2.698832 -0.537469 -0.242222 63.000000
2.698145 -0.545943 -0.242323 52.000000
2.699381 -0.554818 -0.242627 48.000000
2.706432 -0.564923 -0.243538 37.000000
2.713447 -0.575076 -0.244449 34.000000
2.718478 -0.584860 -0.245158 42.000000
2.735140 -0.597222 -0.247081 31.000000
2.740095 -0.607114 -0.247790 28.000000
2.746956 -0.617478 -0.248701 28.000000
2.752809 -0.627669 -0.249510 26.000000
2.789195 -0.257235 -0.280664 32.000000
2.777512 -0.264752 -0.279421 45.000000
2.759877 -0.271616 -0.277500 68.000000
2.760020 -0.280182 -0.277613 60.000000
2.759147 -0.288648 -0.277613 63.000000
2.749357 -0.296153 -0.276595 47.000000
2.744486 -0.304148 -0.276143 59.000000
2.742553 -0.312454 -0.276030 58.000000
2.733687 -0.319942 -0.275126 57.000000
2.735651 -0.328683 -0.275465 69.000000
2.732658 -0.336831 -0.275239 61.000000
2.730626 -0.345088 -0.275126 60.000000
2.735466 -0.354231 -0.275804 73.000000
2.735352 -0.362752 -0.275917 54.000000
2.733242 -0.371008 -0.275804 65.000000
2.736027 -0.379939 -0.276256 60.000000
2.736816 -0.388611 -0.276482 66.000000
2.740527 -0.397720 -0.277048 63.000000
2.746174 -0.407147 -0.277839 50.000000
2.751788 -0.416612 -0.278630 43.000000
2.749515 -0.424901 -0.278517 51.000000
2.750162 -0.433644 -0.278743 66.000000
2.754704 -0.443027 -0.279421 48.000000
2.779805 -0.455821 -0.282473 159.000000
2.749974 -0.459593 -0.279195 79.000000
2.740715 -0.466692 -0.278291 72.000000
2.731439 -0.473739 -0.277387 67.000000
2.725081 -0.481252 -0.276821 51.000000
2.718702 -0.488731 -0.276256 52.000000
2.713280 -0.496353 -0.275804 60.000000
2.705884 -0.503584 -0.275126 62.000000
2.702374 -0.511513 -0.274900 75.000000
2.702743 -0.520177 -0.275126 68.000000
2.699184 -0.528085 -0.274900 58.000000
2.695602 -0.535976 -0.274674 78.000000
2.697841 -0.545031 -0.275126 82.000000
2.696156 -0.553305 -0.275126 81.000000
2.697364 -0.562183 -0.275465 43.000000
2.707291 -0.572925 -0.276821 44.000000
2.719120 -0.584152 -0.278404 46.000000
2.727023 -0.594610 -0.279534 42.000000
2.740707 -0.606410 -0.281343 31.000000
2.750467 -0.617428 -0.282699 31.000000
2.841561 -0.647054 -0.293550 8.000000
2.839563 -0.655769 -0.293550 7.000000
2.806693 -0.259672 -0.317911 27.000000
2.785142 -0.266307 -0.315279 49.000000
2.774439 -0.273880 -0.314025 48.000000
2.768650 -0.281890 -0.313399 55.000000
2.758892 -0.289455 -0.312271 57.000000
2.747140 -0.296750 -0.310892 46.000000
2.743258 -0.304849 -0.310516 37.000000
2.732453 -0.312142 -0.309263 45.000000
2.731482 -0.320524 -0.309263 44.000000
2.736396 -0.329612 -0.310015 49.000000
2.736357 -0.338127 -0.310140 45.000000
2.739244 -0.347017 -0.310641 53.000000
2.740134 -0.355674 -0.310892 60.000000
2.743948 -0.364730 -0.311519 65.000000
2.742816 -0.373147 -0.311519 69.000000
2.747554 -0.382378 -0.312271 48.000000
2.753244 -0.391781 -0.313148 57.000000
2.752029 -0.400226 -0.313148 65.000000
2.766491 -0.410994 -0.315153 49.000000
2.773065 -0.420666 -0.316156 52.000000
2.775683 -0.429778 -0.316657 46.000000
2.783172 -0.439681 -0.317785 54.000000
2.776912 -0.447430 -0.317159 54.000000
2.793149 -0.458835 -0.319415 173.000000
2.772157 -0.464134 -0.316908 45.000000
2.758005 -0.470473 -0.315279 33.000000
2.748729 -0.477577 -0.314276 46.000000
2.741388 -0.484973 -0.313524 34.000000
2.734029 -0.492329 -0.312772 41.000000
2.729578 -0.500179 -0.312396 47.000000
2.719252 -0.506918 -0.311268 39.000000
2.705986 -0.513046 -0.309764 53.000000
2.703425 -0.521158 -0.309639 47.000000
2.699866 -0.529069 -0.309388 43.000000
2.698230 -0.537349 -0.309388 57.000000
2.702404 -0.546803 -0.310140 58.000000
2.697798 -0.554493 -0.309764 42.000000
2.705796 -0.564790 -0.311017 56.000000
2.714728 -0.575347 -0.312396 49.000000
2.720710 -0.585339 -0.313399 37.000000
2.730534 -0.596218 -0.314903 31.000000
2.727723 -0.604378 -0.314777 33.000000
2.752962 -0.618825 -0.318287 17.000000
2.771365 -0.631892 -0.320919 7.000000
2.800407 -0.257291 -0.351853 27.000000
2.777911 -0.263818 -0.348829 37.000000
2.773146 -0.271952 -0.348279 39.000000
2.771313 -0.280358 -0.348142 36.000000
2.760588 -0.287831 -0.346767 54.000000
2.751813 -0.295452 -0.345668 50.000000
2.744987 -0.303240 -0.344843 71.000000
2.743060 -0.311548 -0.344705 54.000000
2.738156 -0.319502 -0.344156 57.000000
2.739130 -0.328137 -0.344431 56.000000
2.741059 -0.336902 -0.344843 56.000000
2.741978 -0.345558 -0.345118 69.000000
2.744834 -0.354476 -0.345668 48.000000
2.743734 -0.362896 -0.345668 78.000000
2.746534 -0.371844 -0.346217 58.000000
2.754210 -0.381493 -0.347454 69.000000
2.758911 -0.390775 -0.348279 56.000000
2.763581 -0.400090 -0.349104 62.000000
2.773119 -0.410162 -0.350616 45.000000
2.779682 -0.419852 -0.351715 55.000000
2.784254 -0.429285 -0.352540 37.000000
2.788795 -0.438749 -0.353364 53.000000
2.787436 -0.447303 -0.353364 50.000000
2.812443 -0.460175 -0.357075 147.000000
2.776823 -0.463093 -0.352265 57.000000
2.773436 -0.471278 -0.351990 51.000000
2.765145 -0.478601 -0.351028 38.000000
2.761713 -0.486738 -0.350753 46.000000
2.752408 -0.493808 -0.349653 57.000000
2.748931 -0.501894 -0.349379 54.000000
2.739587 -0.508877 -0.348279 52.000000
2.730227 -0.515808 -0.347179 53.000000
2.720850 -0.522686 -0.346080 54.000000
2.716317 -0.530461 -0.345668 63.000000
2.715649 -0.538985 -0.345805 59.000000
2.720779 -0.548685 -0.346767 61.000000
2.720053 -0.557229 -0.346905 70.000000
2.724149 -0.566782 -0.347729 50.000000
2.733057 -0.577391 -0.349241 50.000000
2.734179 -0.586397 -0.349653 43.000000
2.736238 -0.595626 -0.350203 41.000000
2.747938 -0.607010 -0.352127 27.000000
2.747996 -0.615872 -0.352402 13.000000
2.791617 -0.267412 -0.384565 23.000000
2.780943 -0.275006 -0.383073 42.000000
2.780086 -0.283537 -0.383073 23.000000
2.770352 -0.291138 -0.381731 39.000000
2.758631 -0.298471 -0.380090 31.000000
2.757703 -0.306933 -0.380090 58.000000
2.750854 -0.314720 -0.379194 39.000000
2.749875 -0.323158 -0.379194 39.000000
2.743962 -0.331003 -0.378448 57.000000
2.741952 -0.339299 -0.378299 41.000000
2.741879 -0.347833 -0.378448 51.000000
2.747663 -0.357133 -0.379493 53.000000
2.758317 -0.367122 -0.381283 30.000000
2.750319 -0.374651 -0.380239 47.000000
2.751116 -0.383359 -0.380537 53.000000
2.757759 -0.392910 -0.381731 61.000000
2.765347 -0.402647 -0.383073 44.000000
2.769967 -0.412000 -0.383969 50.000000
2.774557 -0.421385 -0.384864 42.000000
2.783023 -0.431405 -0.386356 37.000000
2.795360 -0.442098 -0.388444 34.000000
2.808635 -0.453028 -0.390682 21.000000
2.798450 -0.460203 -0.389339 41.000000
2.800926 -0.469438 -0.389936 34.000000
2.790699 -0.476535 -0.388593 46.000000
2.780456 -0.483573 -0.387251 53.000000
2.780907 -0.492445 -0.387549 33.000000
2.766731 -0.498699 -0.385610 30.000000
2.758379 -0.505939 -0.384565 47.000000
2.750982 -0.513314 -0.383670 35.000000
2.742593 -0.520463 -0.382626 35.000000
2.740012 -0.528688 -0.382477 41.000000
2.731585 -0.535763 -0.381432 47.000000
2.724109 -0.542983 -0.380537 44.000000
2.718554 -0.550555 -0.379940 47.000000
2.717821 -0.559091 -0.380090 50.000000
2.719965 -0.568234 -0.380686 46.000000
2.726915 -0.578419 -0.382029 35.000000
2.733828 -0.588652 -0.383372 35.000000
2.744569 -0.599776 -0.385311 29.000000
2.769748 -0.614176 -0.389489 17.000000
2.803433 -0.275417 -0.421016 36.000000
2.799629 -0.283718 -0.420533 28.000000
2.789911 -0.291382 -0.419083 44.000000
2.784098 -0.299411 -0.418278 42.000000
2.776299 -0.307191 -0.417150 39.000000
2.768480 -0.314925 -0.416023 52.000000
2.764560 -0.323073 -0.415539 69.000000
2.754736 -0.330494 -0.414090 51.000000
2.750771 -0.338582 -0.413606 61.000000
2.752657 -0.347390 -0.414090 61.000000
2.753536 -0.356087 -0.414412 57.000000
2.759279 -0.365441 -0.415539 50.000000
2.764012 -0.374701 -0.416506 42.000000
2.771648 -0.384401 -0.417956 68.000000
2.788044 -0.395399 -0.420855 45.000000
2.795609 -0.405226 -0.422305 50.000000
2.799233 -0.414525 -0.423111 45.000000
2.803803 -0.423997 -0.424077 49.000000
2.824923 -0.436063 -0.427782 29.000000
2.825521 -0.445035 -0.428104 8.000000
2.823252 -0.471347 -0.428426 32.000000
2.815956 -0.479012 -0.427460 38.000000
2.805721 -0.486132 -0.426010 41.000000
2.798385 -0.493707 -0.425044 37.000000
2.783258 -0.499846 -0.422788 55.000000
2.778799 -0.507850 -0.422305 53.000000
2.770436 -0.515109 -0.421177 57.000000
2.766903 -0.523239 -0.420855 45.000000
2.765284 -0.531726 -0.420855 43.000000
2.759766 -0.539449 -0.420211 54.000000
2.753258 -0.546951 -0.419406 36.000000
2.751567 -0.555395 -0.419406 54.000000
2.749850 -0.563834 -0.419406 53.000000
2.750040 -0.572671 -0.419728 49.000000
2.752132 -0.581922 -0.420372 63.000000
2.762878 -0.593058 -0.422466 31.000000
2.817939 -0.613934 -0.431970 20.000000
2.829533 -0.625561 -0.434226 18.000000
2.802438 -0.277123 -0.455581 32.000000
2.795696 -0.285122 -0.454543 32.000000
2.785012 -0.292673 -0.452813 44.000000
2.792914 -0.302166 -0.454370 29.000000
2.770438 -0.308345 -0.450565 41.000000
2.767522 -0.316620 -0.450219 56.000000
2.761646 -0.324536 -0.449354 58.000000
2.757704 -0.332655 -0.448835 43.000000
2.760580 -0.341596 -0.449527 43.000000
2.766359 -0.350928 -0.450738 50.000000
2.767223 -0.359667 -0.451084 46.000000
2.774894 -0.369321 -0.452640 46.000000
2.776676 -0.378230 -0.453159 55.000000
2.786233 -0.388238 -0.455062 46.000000
2.799656 -0.398861 -0.457656 49.000000
2.803293 -0.408156 -0.458521 46.000000
2.810796 -0.418055 -0.460078 34.000000
2.810474 -0.426824 -0.460251 26.000000
2.794374 -0.477161 -0.458867 30.000000
2.802601 -0.487415 -0.460596 39.000000
2.804972 -0.496696 -0.461288 27.000000
2.786956 -0.502336 -0.458348 40.000000
2.775713 -0.509111 -0.456618 32.000000
2.768328 -0.516543 -0.455581 40.000000
2.766731 -0.525034 -0.455581 43.000000
2.756402 -0.531843 -0.454024 37.000000
2.751858 -0.539730 -0.453505 37.000000
2.748257 -0.547786 -0.453159 54.000000
2.750425 -0.556995 -0.453851 50.000000
2.752563 -0.566223 -0.454543 44.000000
2.756598 -0.575871 -0.455581 45.000000
2.765417 -0.586569 -0.457483 33.000000
2.769382 -0.596292 -0.458521 28.000000
2.784861 -0.608563 -0.461634 26.000000
2.807984 -0.622638 -0.466131 19.000000
2.850540 -0.289884 -0.498623 17.000000
2.838885 -0.297500 -0.496594 21.000000
2.826233 -0.304941 -0.494380 24.000000
2.794026 -0.310136 -0.488477 45.000000
2.795991 -0.319041 -0.489030 40.000000
2.785237 -0.326472 -0.487186 45.000000
2.781295 -0.334663 -0.486632 58.000000
2.784157 -0.343677 -0.487370 40.000000
2.785040 -0.352464 -0.487739 31.000000
2.786869 -0.361386 -0.488293 42.000000
2.795490 -0.371230 -0.490137 55.000000
2.793364 -0.379672 -0.489953 55.000000
2.800947 -0.389459 -0.491613 56.000000
2.811416 -0.399712 -0.493827 47.000000
2.813094 -0.408760 -0.494380 39.000000
2.816688 -0.418111 -0.495302 40.000000
2.824137 -0.428077 -0.496962 34.000000
2.776190 -0.429520 -0.488108 5.000000
2.819654 -0.480649 -0.497700 34.000000
2.810420 -0.487951 -0.496225 32.000000
2.808909 -0.496571 -0.496225 45.000000
2.798667 -0.503619 -0.494564 38.000000
2.790342 -0.510962 -0.493273 37.000000
2.784897 -0.518800 -0.492535 41.000000
2.778464 -0.526426 -0.491613 45.000000
2.773940 -0.534390 -0.491060 54.000000
2.769394 -0.542331 -0.490506 48.000000
2.761934 -0.549672 -0.489399 48.000000
2.761198 -0.558338 -0.489584 43.000000
2.761397 -0.567203 -0.489953 41.000000
2.762530 -0.576274 -0.490506 35.000000
2.772287 -0.587192 -0.492720 25.000000
