ply
format ascii 1.0
element vertex 874
property float x
property float y
property float z
property float intensity
end_header
4.774098 -0.305733 0.607275 8.000000
4.790969 -0.321571 0.609416 10.000000
4.781046 -0.335644 0.608346 12.000000
4.787916 -0.350890 0.609297 7.000000
4.759096 -0.363467 0.605967 11.000000
4.759938 -0.378222 0.606205 22.000000
4.774588 -0.394127 0.608108 24.000000
4.771378 -0.408604 0.607870 20.000000
4.780982 -0.424204 0.609178 32.000000
4.791523 -0.439956 0.610605 32.000000
4.794104 -0.455028 0.611081 39.000000
4.801579 -0.470604 0.612151 31.000000
4.801101 -0.485432 0.612270 32.000000
4.786750 -0.498825 0.610724 38.000000
4.786185 -0.513614 0.610843 40.000000
4.783599 -0.528186 0.610724 50.000000
4.782943 -0.542971 0.610843 45.000000
4.780269 -0.557528 0.610724 42.000000
4.783465 -0.572780 0.611319 34.000000
4.784642 -0.587815 0.611676 51.000000
4.783801 -0.602616 0.611795 49.000000
4.785869 -0.617797 0.612270 34.000000
4.783951 -0.632477 0.612270 43.000000
4.784940 -0.647549 0.612627 36.000000
4.781947 -0.662090 0.612508 40.000000
4.782843 -0.677175 0.612865 52.000000
4.783691 -0.692271 0.613222 40.000000
4.782527 -0.707089 0.613341 44.000000
4.784262 -0.722350 0.613816 53.000000
4.785949 -0.737629 0.614292 43.000000
4.795434 -0.754157 0.615719 35.000000
4.783293 -0.767295 0.614530 41.000000
4.777977 -0.781486 0.614173 41.000000
4.769681 -0.795163 0.613460 46.000000
4.768198 -0.809959 0.613578 35.000000
4.765652 0.016356 0.546311 90.000000
4.764686 0.001735 0.546204 81.000000
4.766657 -0.012889 0.546418 79.000000
4.765601 -0.027507 0.546311 94.000000
4.771460 -0.042180 0.546952 80.000000
4.773296 -0.056843 0.547165 86.000000
4.772105 -0.071472 0.547059 110.000000
4.773851 -0.086148 0.547272 94.000000
4.775553 -0.100836 0.547486 85.000000
4.776215 -0.115511 0.547593 111.000000
4.773850 -0.130109 0.547379 93.000000
4.773429 -0.144754 0.547379 91.000000
4.771968 -0.159365 0.547272 84.000000
4.769470 -0.173932 0.547059 80.000000
4.769907 -0.188603 0.547165 93.000000
4.769306 -0.203236 0.547165 81.000000
4.767667 -0.217821 0.547059 97.000000
4.766976 -0.232447 0.547059 85.000000
4.767233 -0.247123 0.547165 77.000000
4.761489 -0.261474 0.546632 84.000000
4.759672 -0.276023 0.546525 85.000000
4.757811 -0.290564 0.546418 76.000000
4.758881 -0.305287 0.546632 69.000000
4.757922 -0.319885 0.546632 87.000000
4.756918 -0.334481 0.546632 79.000000
4.752894 -0.348855 0.546311 80.000000
4.755768 -0.363738 0.546738 87.000000
4.753638 -0.378248 0.546632 93.000000
4.759391 -0.393404 0.547379 87.000000
4.763115 -0.408429 0.547913 78.000000
4.767782 -0.423569 0.548554 61.000000
4.766460 -0.438194 0.548554 64.000000
4.765093 -0.452815 0.548554 79.000000
4.766650 -0.467724 0.548874 55.000000
4.760247 -0.481844 0.548340 69.000000
4.760724 -0.496653 0.548554 76.000000
4.758190 -0.511150 0.548447 62.000000
4.757587 -0.525855 0.548554 66.000000
4.757927 -0.540673 0.548767 73.000000
4.758221 -0.555498 0.548981 65.000000
4.759456 -0.570449 0.549301 75.000000
4.760644 -0.585412 0.549621 64.000000
4.760798 -0.600264 0.549835 62.000000
4.758934 -0.614867 0.549835 63.000000
4.756041 -0.629334 0.549728 55.000000
4.751132 -0.643522 0.549408 69.000000
4.747165 -0.657822 0.549194 62.000000
4.742171 -0.671964 0.548874 58.000000
4.742055 -0.686795 0.549088 52.000000
4.743860 -0.701923 0.549515 52.000000
4.744633 -0.716919 0.549835 43.000000
4.746343 -0.732079 0.550262 53.000000
4.748003 -0.747255 0.550689 60.000000
4.749615 -0.762449 0.551116 51.000000
4.746272 -0.776857 0.551010 38.000000
4.742886 -0.791251 0.550903 33.000000
4.734554 -0.804798 0.550262 27.000000
4.713449 -0.816095 0.548233 25.000000
4.723552 0.015897 0.485345 63.000000
4.724573 0.001405 0.485440 77.000000
4.727541 -0.013097 0.485725 73.000000
4.726484 -0.027595 0.485630 99.000000
4.726377 -0.042096 0.485630 109.000000
4.728217 -0.056619 0.485820 111.000000
4.729016 -0.071140 0.485915 121.000000
4.730766 -0.085683 0.486105 104.000000
4.730481 -0.100197 0.486105 121.000000
4.728161 -0.114661 0.485915 123.000000
4.727787 -0.129166 0.485915 116.000000
4.730353 -0.143760 0.486200 100.000000
4.726905 -0.158173 0.485915 108.000000
4.726398 -0.172674 0.485915 99.000000
4.721867 -0.187017 0.485535 114.000000
4.725250 -0.201672 0.485915 88.000000
4.723614 -0.216122 0.485820 98.000000
4.719945 -0.230468 0.485535 111.000000
4.719217 -0.244948 0.485535 86.000000
4.716455 -0.259316 0.485345 90.000000
4.716631 -0.273842 0.485440 86.000000
4.718750 -0.288493 0.485725 109.000000
4.716848 -0.302905 0.485630 66.000000
4.716890 -0.317441 0.485725 93.000000
4.713908 -0.331772 0.485535 107.000000
4.717833 -0.346596 0.486010 71.000000
4.715755 -0.360992 0.485915 83.000000
4.717602 -0.375695 0.486200 74.000000
4.716427 -0.390166 0.486200 77.000000
4.712232 -0.404380 0.485915 86.000000
4.707994 -0.418571 0.485630 68.000000
4.706688 -0.433013 0.485630 73.000000
4.705338 -0.447451 0.485630 79.000000
4.704933 -0.461982 0.485725 87.000000
4.699532 -0.476014 0.485345 110.000000
4.710921 -0.491770 0.486580 72.000000
4.713350 -0.506645 0.486960 89.000000
4.715731 -0.521540 0.487339 75.000000
4.714108 -0.536005 0.487339 75.000000
4.717386 -0.551041 0.487814 75.000000
4.717650 -0.565748 0.488004 68.000000
4.714904 -0.580098 0.487909 66.000000
4.713102 -0.594560 0.487909 66.000000
4.708294 -0.608635 0.487624 66.000000
4.703444 -0.622685 0.487339 67.000000
4.703484 -0.637379 0.487529 78.000000
4.704465 -0.652216 0.487814 80.000000
4.697514 -0.665948 0.487339 91.000000
4.714168 -0.683065 0.489144 52.000000
4.709095 -0.697088 0.488859 70.000000
4.712841 -0.712423 0.489429 63.000000
4.714568 -0.727485 0.489809 69.000000
4.714282 -0.742255 0.489999 63.000000
4.715913 -0.757345 0.490379 62.000000
4.711603 -0.771488 0.490189 71.000000
4.711177 -0.786267 0.490379 40.000000
4.703836 -0.799884 0.489904 57.000000
4.696455 -0.813463 0.489429 54.000000
4.645899 -0.819407 0.484775 9.000000
4.689994 0.016102 0.422935 30.000000
4.684042 0.001712 0.422440 76.000000
4.686018 -0.012664 0.422605 86.000000
4.682968 -0.027023 0.422358 91.000000
4.684856 -0.041408 0.422523 102.000000
4.682714 -0.055757 0.422358 113.000000
4.674549 -0.070003 0.421698 85.000000
4.675309 -0.084362 0.421781 89.000000
4.681006 -0.098832 0.422275 97.000000
4.679685 -0.113168 0.422193 91.000000
4.679316 -0.127525 0.422193 80.000000
4.681891 -0.141971 0.422440 84.000000
4.685417 -0.156468 0.422770 101.000000
4.680931 -0.170696 0.422440 93.000000
4.677398 -0.184938 0.422193 82.000000
4.676809 -0.199287 0.422193 97.000000
4.676175 -0.213634 0.422193 70.000000
4.677488 -0.228077 0.422358 77.000000
4.683734 -0.242788 0.422935 81.000000
4.684957 -0.257265 0.423100 72.000000
4.687130 -0.271811 0.423347 82.000000
4.690254 -0.286433 0.423677 71.000000
4.689353 -0.300821 0.423677 82.000000
4.685425 -0.315005 0.423430 65.000000
4.689406 -0.329728 0.423842 76.000000
4.688373 -0.344114 0.423842 81.000000
4.689282 -0.358648 0.424007 93.000000
4.689154 -0.373112 0.424089 78.000000
4.687987 -0.387496 0.424089 70.000000
4.684791 -0.401707 0.423925 84.000000
4.681551 -0.415901 0.423760 65.000000
4.677275 -0.429988 0.423512 73.000000
4.674942 -0.444241 0.423430 65.000000
4.673557 -0.458582 0.423430 79.000000
4.671137 -0.472817 0.423347 62.000000
4.673629 -0.487560 0.423677 74.000000
4.673101 -0.502003 0.423760 55.000000
4.674511 -0.516666 0.424007 81.000000
4.677855 -0.531568 0.424419 67.000000
4.676203 -0.545917 0.424419 71.000000
4.675495 -0.560379 0.424502 71.000000
4.673754 -0.574721 0.424502 72.000000
4.670980 -0.588932 0.424419 60.000000
4.672116 -0.603643 0.424667 61.000000
4.667278 -0.617582 0.424419 47.000000
4.671287 -0.632701 0.424914 65.000000
4.673273 -0.647577 0.425244 59.000000
4.673237 -0.662191 0.425409 53.000000
4.671184 -0.676525 0.425409 48.000000
4.677959 -0.692166 0.426151 56.000000
4.678770 -0.706962 0.426398 46.000000
4.682489 -0.722225 0.426893 65.000000
4.680251 -0.736587 0.426893 54.000000
4.683872 -0.751890 0.427388 51.000000
4.680560 -0.766096 0.427305 53.000000
4.675239 -0.779960 0.427058 59.000000
4.673807 -0.794466 0.427140 40.000000
4.669384 -0.808462 0.426976 39.000000
4.664918 -0.822437 0.426811 44.000000
4.712399 -0.845727 0.431016 20.000000
4.765663 -0.870391 0.435716 8.000000
4.715992 0.043167 0.368988 13.000000
4.643286 0.028237 0.363832 111.000000
4.643351 0.013992 0.363832 108.000000
4.642375 -0.000254 0.363762 111.000000
4.643349 -0.014500 0.363832 96.000000
4.649268 -0.028781 0.364256 66.000000
4.647162 -0.043027 0.364115 81.000000
4.649004 -0.057308 0.364256 95.000000
4.647809 -0.071555 0.364185 68.000000
4.635600 -0.085596 0.363338 55.000000
4.652268 -0.100178 0.364539 98.000000
4.644959 -0.114281 0.364044 60.000000
4.646581 -0.128586 0.364185 99.000000
4.646164 -0.142841 0.364185 77.000000
4.645704 -0.157094 0.364185 76.000000
4.649188 -0.171492 0.364468 71.000000
4.642660 -0.185517 0.364044 84.000000
4.645058 -0.199888 0.364256 69.000000
4.638444 -0.213864 0.363832 87.000000
4.637766 -0.228093 0.363832 73.000000
4.648999 -0.242942 0.364680 57.000000
4.641260 -0.256820 0.364185 75.000000
4.644433 -0.271290 0.364468 81.000000
4.645570 -0.285659 0.364609 64.000000
4.643677 -0.299846 0.364539 57.000000
4.640744 -0.313957 0.364397 74.000000
4.639759 -0.328194 0.364397 64.000000
4.633757 -0.342061 0.364044 52.000000
4.635669 -0.356504 0.364256 68.000000
4.637536 -0.370962 0.364468 74.000000
4.639359 -0.385435 0.364680 76.000000
4.640142 -0.399837 0.364821 66.000000
4.641874 -0.414337 0.365033 70.000000
4.638594 -0.428393 0.364892 79.000000
4.636265 -0.442527 0.364821 57.000000
4.634886 -0.456749 0.364821 65.000000
4.631478 -0.470765 0.364680 66.000000
4.631004 -0.485076 0.364750 54.000000
4.634453 -0.499815 0.365104 74.000000
4.633890 -0.514141 0.365174 66.000000
4.638237 -0.529032 0.365598 80.000000
4.639565 -0.543606 0.365810 68.000000
4.637874 -0.557838 0.365810 67.000000
4.637132 -0.572186 0.365880 54.000000
4.638323 -0.586785 0.366092 52.000000
4.635512 -0.600884 0.366022 57.000000
4.639579 -0.615889 0.366445 43.000000
4.633714 -0.629584 0.366163 49.000000
4.632750 -0.643934 0.366234 62.000000
4.632727 -0.658424 0.366375 56.000000
4.639570 -0.673922 0.367010 47.000000
4.634520 -0.687715 0.366799 50.000000
4.634361 -0.702228 0.366940 57.000000
4.645986 -0.718574 0.367929 47.000000
4.642774 -0.732669 0.367858 59.000000
4.652323 -0.748809 0.368706 38.000000
4.650004 -0.763078 0.368706 55.000000
4.653544 -0.778327 0.369129 39.000000
4.648184 -0.792098 0.368917 47.000000
4.639835 -0.805333 0.368494 58.000000
4.634396 -0.819044 0.368282 60.000000
4.631861 -0.833258 0.368282 45.000000
4.626339 -0.846926 0.368070 43.000000
4.802204 -0.894311 0.380924 6.000000
4.614126 0.029202 0.303739 34.000000
4.630167 0.015096 0.304668 102.000000
4.623203 0.000890 0.304262 71.000000
4.617193 -0.013276 0.303913 57.000000
4.611142 -0.027405 0.303565 63.000000
4.612034 -0.041561 0.303623 77.000000
4.610887 -0.055698 0.303565 84.000000
4.610694 -0.069843 0.303565 81.000000
4.610458 -0.083989 0.303565 85.000000
4.612175 -0.098175 0.303681 82.000000
4.609856 -0.112276 0.303565 79.000000
4.609490 -0.126418 0.303565 88.000000
4.607085 -0.140499 0.303448 73.000000
4.605634 -0.154599 0.303390 71.000000
4.603143 -0.168655 0.303274 66.000000
4.601606 -0.182736 0.303216 64.000000
4.604016 -0.196981 0.303390 64.000000
4.607379 -0.211288 0.303623 61.000000
4.611695 -0.225667 0.303913 81.000000
4.607990 -0.239659 0.303739 59.000000
4.607233 -0.253795 0.303739 58.000000
4.607429 -0.267986 0.303797 56.000000
4.609575 -0.282304 0.303971 50.000000
4.608686 -0.296444 0.303971 55.000000
4.615724 -0.311120 0.304436 74.000000
4.613752 -0.325209 0.304378 66.000000
4.612732 -0.339362 0.304378 64.000000
4.611670 -0.353513 0.304378 57.000000
4.609568 -0.367580 0.304320 67.000000
4.609414 -0.381803 0.304378 48.000000
4.612199 -0.396284 0.304610 60.000000
4.613945 -0.410698 0.304784 65.000000
4.609681 -0.424577 0.304610 68.000000
4.610344 -0.438907 0.304726 58.000000
4.606989 -0.452853 0.304610 57.000000
4.603591 -0.466784 0.304494 65.000000
4.603131 -0.481009 0.304552 60.000000
4.602626 -0.495236 0.304610 67.000000
4.605054 -0.509794 0.304842 75.000000
4.605452 -0.524145 0.304959 80.000000
4.603822 -0.538272 0.304959 85.000000
4.602149 -0.552394 0.304959 66.000000
4.601424 -0.566633 0.305017 57.000000
4.600654 -0.580872 0.305075 69.000000
4.599841 -0.595112 0.305133 71.000000
4.597993 -0.609222 0.305133 57.000000
4.596103 -0.623325 0.305133 57.000000
4.593179 -0.637286 0.305075 50.000000
4.597133 -0.652216 0.305423 65.000000
4.603014 -0.667464 0.305888 65.000000
4.606870 -0.682461 0.306237 85.000000
4.608703 -0.697189 0.306469 65.000000
4.613448 -0.712392 0.306875 64.000000
4.613213 -0.726853 0.306992 60.000000
4.612933 -0.741320 0.307108 42.000000
4.606696 -0.754823 0.306875 36.000000
4.613221 -0.770433 0.307398 63.000000
4.606898 -0.783912 0.307166 39.000000
4.605456 -0.798213 0.307224 36.000000
4.602985 -0.812339 0.307224 31.000000
4.610297 -0.828222 0.307805 43.000000
4.649961 -0.850086 0.310303 11.000000
4.584067 -0.001063 0.247620 45.000000
4.579047 -0.015112 0.247389 62.000000
4.569989 -0.029105 0.246973 39.000000
4.580866 -0.043226 0.247482 56.000000
4.580712 -0.057280 0.247482 63.000000
4.575521 -0.071257 0.247251 72.000000
4.570286 -0.085202 0.247019 100.000000
4.577993 -0.099394 0.247389 78.000000
4.577667 -0.113439 0.247389 92.000000
4.577297 -0.127482 0.247389 81.000000
4.585871 -0.141800 0.247805 66.000000
4.582419 -0.155768 0.247667 69.000000
4.567944 -0.169311 0.247019 80.000000
4.571395 -0.183484 0.247204 66.000000
4.567817 -0.197379 0.247066 63.000000
4.567190 -0.211392 0.247066 60.000000
4.563527 -0.225256 0.246927 46.000000
4.564809 -0.239360 0.247019 67.000000
4.569040 -0.253639 0.247251 71.000000
4.572230 -0.267888 0.247435 68.000000
4.578366 -0.282343 0.247759 44.000000
4.578475 -0.296452 0.247805 74.000000
4.581530 -0.310767 0.247990 59.000000
4.581552 -0.324892 0.248037 60.000000
4.581530 -0.339020 0.248083 61.000000
4.580468 -0.353074 0.248083 44.000000
4.573389 -0.366648 0.247805 64.000000
4.574234 -0.380842 0.247898 55.000000
4.571054 -0.394702 0.247805 58.000000
4.569821 -0.408724 0.247805 63.000000
4.568545 -0.422743 0.247805 51.000000
4.567227 -0.436757 0.247805 47.000000
4.566859 -0.450865 0.247852 56.000000
4.568436 -0.465176 0.247990 58.000000
4.565994 -0.479086 0.247944 66.000000
4.564503 -0.493092 0.247944 49.000000
4.563961 -0.507203 0.247990 39.000000
4.564369 -0.521429 0.248083 57.000000
4.562747 -0.535430 0.248083 55.000000
4.556125 -0.548830 0.247852 36.000000
4.564333 -0.564028 0.248314 42.000000
4.569519 -0.578905 0.248638 42.000000
4.572675 -0.593563 0.248869 39.000000
4.566871 -0.607064 0.248684 48.000000
4.565977 -0.621206 0.248730 52.000000
4.562070 -0.634937 0.248638 51.000000
4.562079 -0.649211 0.248730 50.000000
4.570940 -0.664783 0.249239 36.000000
4.566903 -0.678510 0.249146 41.000000
4.567763 -0.692967 0.249285 45.000000
4.570551 -0.707740 0.249516 54.000000
4.569345 -0.721915 0.249562 55.000000
4.572041 -0.736723 0.249793 41.000000
4.567787 -0.750423 0.249701 42.000000
4.563493 -0.764104 0.249609 47.000000
4.562112 -0.778269 0.249655 44.000000
4.559702 -0.792261 0.249655 51.000000
4.568071 -0.808158 0.250163 29.000000
4.568520 -0.822699 0.250302 28.000000
4.605279 -0.843904 0.252151 18.000000
4.530406 0.000092 0.189100 43.000000
4.539380 -0.013835 0.189405 64.000000
4.544313 -0.027792 0.189574 72.000000
4.546206 -0.041753 0.189642 64.000000
4.547055 -0.055712 0.189676 68.000000
4.546863 -0.069662 0.189676 66.000000
4.546628 -0.083611 0.189676 57.000000
4.544352 -0.097517 0.189608 58.000000
4.544031 -0.111458 0.189608 70.000000
4.543668 -0.125399 0.189608 53.000000
4.543262 -0.139338 0.189608 63.000000
4.545809 -0.153377 0.189710 75.000000
4.546316 -0.167359 0.189743 47.000000
4.545781 -0.181307 0.189743 58.000000
4.541209 -0.195080 0.189608 65.000000
4.538593 -0.208919 0.189540 58.000000
4.534935 -0.222695 0.189439 55.000000
4.530239 -0.236399 0.189303 47.000000
4.534482 -0.250572 0.189473 56.000000
4.537683 -0.264716 0.189608 53.000000
4.539842 -0.278820 0.189710 48.000000
4.540960 -0.292875 0.189777 41.000000
4.542034 -0.306940 0.189845 48.000000
4.540074 -0.320803 0.189811 43.000000
4.543055 -0.335025 0.189947 60.000000
4.541009 -0.348885 0.189913 52.000000
4.537926 -0.362655 0.189845 50.000000
4.537787 -0.376658 0.189879 60.000000
4.538602 -0.390750 0.189947 68.000000
4.539373 -0.404850 0.190014 49.000000
4.535124 -0.418499 0.189913 53.000000
4.533818 -0.432411 0.189913 58.000000
4.532471 -0.446318 0.189913 57.000000
4.532074 -0.460322 0.189947 70.000000
4.530641 -0.474225 0.189947 59.000000
4.534132 -0.488658 0.190116 61.000000
4.536585 -0.503007 0.190251 60.000000
4.538000 -0.517263 0.190353 48.000000
4.539370 -0.531532 0.190454 70.000000
4.534741 -0.545098 0.190353 56.000000
4.529079 -0.558518 0.190217 57.000000
4.525362 -0.572159 0.190150 49.000000
4.519620 -0.585526 0.190014 47.000000
4.517803 -0.599389 0.190014 45.000000
4.518913 -0.613651 0.190116 53.000000
4.522949 -0.628337 0.190319 61.000000
4.526937 -0.643054 0.190522 56.000000
4.530877 -0.657802 0.190725 52.000000
4.533781 -0.672433 0.190894 52.000000
4.534660 -0.686788 0.190996 51.000000
4.530557 -0.700392 0.190928 52.000000
4.522463 -0.713353 0.190725 41.000000
4.522227 -0.727542 0.190793 40.000000
4.523919 -0.742060 0.190928 46.000000
4.517678 -0.755276 0.190793 38.000000
4.507458 -0.767790 0.190522 29.000000
4.516897 -0.783666 0.190928 44.000000
4.514472 -0.797520 0.190928 27.000000
4.512004 -0.811366 0.190928 33.000000
4.512443 -0.825745 0.191030 25.000000
4.512836 -0.840134 0.191131 15.000000
4.520901 0.000508 0.133696 26.000000
4.508884 -0.013329 0.133436 43.000000
4.510822 -0.027174 0.133479 45.000000
4.512717 -0.041031 0.133523 47.000000
4.507572 -0.054816 0.133414 61.000000
4.507382 -0.068644 0.133414 70.000000
4.509150 -0.082509 0.133458 65.000000
4.506876 -0.096300 0.133414 76.000000
4.509558 -0.110199 0.133479 82.000000
4.509198 -0.124033 0.133479 61.000000
4.506798 -0.137806 0.133436 72.000000
4.510351 -0.151766 0.133523 79.000000
4.508865 -0.165566 0.133501 78.000000
4.511333 -0.179517 0.133566 74.000000
4.512759 -0.193442 0.133609 52.000000
4.509148 -0.207149 0.133544 64.000000
4.505495 -0.220836 0.133479 58.000000
4.504797 -0.234657 0.133479 56.000000
4.503057 -0.248422 0.133458 62.000000
4.503272 -0.262294 0.133479 61.000000
4.506437 -0.276352 0.133566 39.000000
4.505569 -0.290177 0.133566 44.000000
4.506652 -0.304132 0.133609 50.000000
4.508690 -0.318167 0.133674 39.000000
4.508689 -0.332071 0.133696 37.000000
4.506652 -0.345826 0.133674 53.000000
4.505570 -0.359651 0.133674 40.000000
4.507434 -0.373719 0.133739 36.000000
4.509255 -0.387802 0.133804 37.000000
4.508045 -0.401634 0.133804 36.000000
4.509778 -0.415738 0.133869 52.000000
4.509477 -0.429666 0.133891 51.000000
4.510127 -0.443694 0.133934 49.000000
4.510734 -0.457730 0.133977 40.000000
4.507319 -0.471359 0.133934 59.000000
4.505852 -0.485185 0.133934 40.000000
4.505336 -0.499117 0.133955 62.000000
4.499810 -0.512485 0.133869 52.000000
4.495238 -0.525940 0.133804 43.000000
4.494596 -0.539848 0.133826 34.000000
4.492918 -0.553634 0.133826 45.000000
4.493183 -0.567666 0.133869 50.000000
4.491420 -0.581448 0.133869 41.000000
4.486641 -0.594832 0.133804 38.000000
4.492722 -0.609667 0.133977 44.000000
4.491819 -0.623585 0.133999 25.000000
4.490875 -0.637503 0.134020 41.000000
4.492857 -0.651851 0.134107 27.000000
4.492813 -0.665924 0.134150 31.000000
4.491737 -0.679854 0.134172 30.000000
4.492595 -0.694089 0.134237 54.000000
4.485507 -0.707091 0.134129 43.000000
4.488252 -0.721642 0.134237 34.000000
4.489963 -0.736054 0.134323 41.000000
4.487684 -0.749826 0.134323 39.000000
4.488319 -0.764093 0.134388 39.000000
4.487924 -0.778200 0.134432 31.000000
4.486500 -0.792139 0.134453 35.000000
4.487000 -0.806429 0.134518 33.000000
4.480571 -0.819473 0.134432 34.000000
4.474105 -0.832485 0.134345 29.000000
4.489780 -0.014460 0.077567 20.000000
4.463716 -0.028069 0.077326 27.000000
4.826177 -0.252709 0.080740 50.000000
4.904255 -0.271893 0.081470 86.000000
4.899405 -0.286704 0.081433 100.000000
4.896506 -0.301611 0.081415 102.000000
4.888572 -0.316179 0.081350 106.000000
4.880596 -0.330702 0.081285 100.000000
4.872576 -0.345178 0.081221 91.000000
4.867505 -0.359830 0.081184 108.000000
4.864384 -0.374608 0.081165 106.000000
4.864209 -0.389610 0.081174 113.000000
4.864983 -0.404698 0.081193 117.000000
4.869697 -0.420137 0.081248 104.000000
4.871372 -0.435343 0.081276 106.000000
4.873001 -0.450562 0.081304 105.000000
4.873587 -0.465701 0.081322 105.000000
4.870145 -0.480454 0.081304 93.000000
4.869643 -0.495494 0.081313 85.000000
4.870089 -0.510641 0.081332 88.000000
4.875459 -0.526331 0.081396 93.000000
4.885746 -0.542612 0.081507 92.000000
4.913864 -0.561004 0.081785 135.000000
4.914106 -0.576310 0.081803 106.000000
4.918272 -0.592101 0.081859 107.000000
4.919409 -0.607555 0.081887 99.000000
4.896689 -0.620005 0.081692 68.000000
4.914273 -0.255881 0.019914 20.000000
4.875522 -0.268873 0.020040 52.000000
4.884657 -0.284409 0.020007 73.000000
4.881765 -0.299271 0.020013 73.000000
4.877831 -0.314055 0.020023 85.000000
4.870857 -0.328616 0.020043 102.000000
4.859851 -0.342857 0.020076 87.000000
4.851795 -0.357252 0.020099 71.000000
4.846688 -0.371831 0.020113 85.000000
4.843530 -0.386540 0.020119 72.000000
4.844316 -0.401563 0.020113 86.000000
4.845053 -0.416594 0.020106 90.000000
4.846740 -0.431722 0.020096 61.000000
4.842406 -0.446315 0.020106 80.000000
4.842010 -0.461263 0.020103 85.000000
4.852514 -0.477288 0.020063 63.000000
4.856996 -0.492777 0.020043 73.000000
4.863419 -0.508506 0.020017 68.000000
4.867801 -0.524065 0.019997 56.000000
4.873128 -0.539766 0.019973 59.000000
4.880391 -0.555730 0.019944 78.000000
4.884623 -0.571396 0.019924 61.000000
4.889797 -0.587212 0.019901 68.000000
4.895913 -0.603187 0.019874 49.000000
4.894039 -0.618205 0.019874 35.000000
4.933906 -0.271817 -0.041197 40.000000
4.864174 -0.282941 -0.040113 74.000000
4.854301 -0.297312 -0.039972 79.000000
4.850373 -0.312011 -0.039925 100.000000
4.849393 -0.326890 -0.039925 107.000000
4.844377 -0.341485 -0.039862 103.000000
4.839318 -0.356052 -0.039799 97.000000
4.834215 -0.370591 -0.039737 89.000000
4.831062 -0.385261 -0.039705 72.000000
4.829857 -0.400081 -0.039705 96.000000
4.827611 -0.414811 -0.039689 120.000000
4.825320 -0.429531 -0.039674 109.000000
4.822984 -0.444241 -0.039658 96.000000
4.823589 -0.459225 -0.039689 122.000000
4.824148 -0.474218 -0.039721 82.000000
4.832617 -0.490025 -0.039878 106.000000
4.837058 -0.505473 -0.039972 101.000000
4.841449 -0.520953 -0.040066 89.000000
4.849766 -0.536905 -0.040223 110.000000
4.848096 -0.551781 -0.040223 94.000000
4.854325 -0.567582 -0.040349 80.000000
4.855539 -0.582830 -0.040396 76.000000
4.863652 -0.598947 -0.040553 65.000000
4.909419 -0.255629 -0.099842 44.000000
4.906615 -0.270580 -0.099787 31.000000
4.853869 -0.282623 -0.098344 72.000000
4.842004 -0.296843 -0.098038 71.000000
4.833090 -0.311185 -0.097816 70.000000
4.825131 -0.325542 -0.097622 70.000000
4.818126 -0.339923 -0.097456 94.000000
4.812076 -0.354337 -0.097317 74.000000
4.806980 -0.368794 -0.097206 68.000000
4.806822 -0.383619 -0.097234 57.000000
4.798649 -0.397788 -0.097040 71.000000
4.798402 -0.412594 -0.097067 72.000000
4.799105 -0.427490 -0.097123 48.000000
4.799762 -0.442394 -0.097178 83.000000
4.802362 -0.457496 -0.097289 68.000000
4.800936 -0.472227 -0.097289 84.000000
4.804438 -0.487458 -0.097428 79.000000
4.810873 -0.503025 -0.097650 67.000000
4.818253 -0.518743 -0.097900 68.000000
4.829555 -0.534950 -0.098260 65.000000
4.849741 -0.552247 -0.098871 50.000000
4.893697 -0.572455 -0.100147 36.000000
4.878022 -0.585801 -0.099759 48.000000
4.888108 -0.602228 -0.100092 45.000000
4.921940 -0.621723 -0.101091 17.000000
4.852697 -0.267337 -0.159232 69.000000
4.846867 -0.281933 -0.159031 79.000000
4.837003 -0.296251 -0.158668 89.000000
4.828094 -0.310576 -0.158345 71.000000
4.816153 -0.324647 -0.157902 84.000000
4.807160 -0.338858 -0.157580 75.000000
4.801116 -0.353238 -0.157378 85.000000
4.796025 -0.367660 -0.157217 72.000000
4.791886 -0.382134 -0.157096 73.000000
4.788700 -0.396668 -0.157015 88.000000
4.786464 -0.411272 -0.156975 101.000000
4.779209 -0.425423 -0.156733 67.000000
4.780866 -0.440358 -0.156854 73.000000
4.781482 -0.455213 -0.156935 77.000000
4.783046 -0.470174 -0.157056 96.000000
4.787545 -0.485451 -0.157298 89.000000
4.793984 -0.500968 -0.157620 76.000000
4.800372 -0.516530 -0.157942 78.000000
4.807702 -0.532245 -0.158305 83.000000
4.815975 -0.548123 -0.158708 73.000000
4.823202 -0.563940 -0.159071 77.000000
4.828393 -0.579569 -0.159353 61.000000
4.832543 -0.595113 -0.159595 50.000000
4.830694 -0.609936 -0.159595 29.000000
4.869601 -0.255264 -0.218549 45.000000
4.853838 -0.269376 -0.217764 58.000000
4.832054 -0.283045 -0.216665 75.000000
4.826179 -0.297562 -0.216403 75.000000
4.815278 -0.311725 -0.215880 94.000000
4.810313 -0.326227 -0.215671 78.000000
4.804308 -0.340631 -0.215409 77.000000
4.795273 -0.354782 -0.214990 96.000000
4.790180 -0.369186 -0.214781 89.000000
4.794997 -0.384357 -0.215095 30.000000
4.797777 -0.399397 -0.215304 29.000000
4.783594 -0.413001 -0.214624 58.000000
4.782305 -0.427675 -0.214624 71.000000
4.781965 -0.442436 -0.214676 92.000000
4.779590 -0.457010 -0.214624 57.000000
4.790092 -0.472846 -0.215252 99.000000
4.793586 -0.488044 -0.215514 102.000000
4.796039 -0.503164 -0.215723 79.000000
4.801423 -0.518625 -0.216089 82.000000
4.810727 -0.534564 -0.216665 72.000000
4.820971 -0.550677 -0.217293 55.000000
4.816283 -0.565117 -0.217136 65.000000
4.825433 -0.581201 -0.217712 45.000000
4.810743 -0.594414 -0.217031 31.000000
4.734591 -0.599776 -0.213106 10.000000
4.874945 -0.238571 -0.279277 35.000000
4.838314 -0.251657 -0.276947 64.000000
4.822573 -0.265675 -0.275977 75.000000
4.815758 -0.280121 -0.275588 81.000000
4.812884 -0.294772 -0.275459 78.000000
4.802995 -0.308959 -0.274877 95.000000
4.798041 -0.323424 -0.274618 97.000000
4.793044 -0.337862 -0.274359 115.000000
4.788005 -0.352272 -0.274100 90.000000
4.783916 -0.366731 -0.273906 92.000000
4.779785 -0.381168 -0.273712 87.000000
4.775609 -0.395583 -0.273518 111.000000
4.772385 -0.410061 -0.273388 112.000000
4.771104 -0.424701 -0.273388 91.000000
4.770772 -0.439428 -0.273453 87.000000
4.770395 -0.454157 -0.273518 102.000000
4.771959 -0.469083 -0.273712 99.000000
4.772482 -0.483923 -0.273841 111.000000
4.772960 -0.498770 -0.273971 109.000000
4.775377 -0.513838 -0.274229 117.000000
4.782704 -0.529475 -0.274812 93.000000
4.791964 -0.545388 -0.275524 105.000000
4.800179 -0.561247 -0.276171 89.000000
4.807352 -0.577042 -0.276753 94.000000
4.812491 -0.592642 -0.277206 67.000000
4.814611 -0.607904 -0.277465 55.000000
4.829897 -0.238337 -0.333853 55.000000
4.826156 -0.252997 -0.333624 56.000000
4.821375 -0.267583 -0.333318 61.000000
4.803610 -0.281386 -0.332016 79.000000
4.792772 -0.295511 -0.331251 104.000000
4.789853 -0.310085 -0.331098 91.000000
4.787885 -0.324712 -0.331021 89.000000
4.787860 -0.339469 -0.331098 86.000000
4.783813 -0.353937 -0.330868 77.000000
4.782705 -0.368612 -0.330868 73.000000
4.782545 -0.383362 -0.330945 78.000000
4.774392 -0.397456 -0.330409 68.000000
4.779109 -0.412615 -0.330868 83.000000
4.768883 -0.426478 -0.330179 55.000000
4.770531 -0.441381 -0.330409 47.000000
4.775110 -0.456583 -0.330868 53.000000
4.776663 -0.471524 -0.331098 52.000000
4.773211 -0.485975 -0.330945 113.000000
4.773680 -0.500824 -0.331098 65.000000
4.775095 -0.515788 -0.331327 80.000000
4.775473 -0.530655 -0.331481 87.000000
4.781747 -0.546206 -0.332093 69.000000
4.796884 -0.562845 -0.333394 38.000000
4.800084 -0.578154 -0.333777 46.000000
4.799278 -0.593000 -0.333853 38.000000
4.823154 -0.610973 -0.335844 29.000000
4.825075 -0.237809 -0.392712 66.000000
4.815370 -0.252142 -0.391913 87.000000
4.808607 -0.266583 -0.391381 107.000000
4.802795 -0.281043 -0.390937 90.000000
4.797934 -0.295531 -0.390583 93.000000
4.794022 -0.310056 -0.390316 111.000000
4.794042 -0.324830 -0.390405 84.000000
4.795010 -0.339677 -0.390583 111.000000
4.797919 -0.354681 -0.390937 90.000000
4.802767 -0.369858 -0.391470 109.000000
4.811538 -0.385387 -0.392357 97.000000
4.817281 -0.400726 -0.392978 108.000000
4.823968 -0.416188 -0.393688 108.000000
4.827629 -0.431430 -0.394131 128.000000
4.819341 -0.445596 -0.393510 91.000000
4.809027 -0.459526 -0.392712 93.000000
4.798673 -0.473397 -0.391913 91.000000
4.785307 -0.486906 -0.390849 105.000000
4.776856 -0.500857 -0.390228 123.000000
4.777277 -0.515724 -0.390405 90.000000
4.774683 -0.530268 -0.390316 102.000000
4.776002 -0.545253 -0.390583 116.000000
4.784200 -0.561064 -0.391470 96.000000
4.791357 -0.576812 -0.392268 90.000000
4.803404 -0.593219 -0.393510 62.000000
4.806502 -0.608579 -0.393954 60.000000
4.812346 -0.236635 -0.452477 11.000000
4.813584 -0.251502 -0.452679 35.000000
4.805836 -0.265885 -0.451970 64.000000
4.804005 -0.280571 -0.451869 93.000000
4.801135 -0.295186 -0.451667 71.000000
4.800207 -0.309914 -0.451667 87.000000
4.799233 -0.324640 -0.451667 63.000000
4.806154 -0.339922 -0.452477 82.000000
4.814019 -0.355322 -0.453388 83.000000
4.819849 -0.370622 -0.454096 68.000000
4.821665 -0.385644 -0.454400 65.000000
4.827399 -0.401010 -0.455108 61.000000
4.839032 -0.416926 -0.456424 45.000000
4.858540 -0.433622 -0.458550 22.000000
4.839355 -0.446883 -0.456728 59.000000
4.832018 -0.461162 -0.456121 51.000000
4.826620 -0.475595 -0.455716 71.000000
4.820190 -0.489899 -0.455210 42.000000
4.801843 -0.502927 -0.453489 58.000000
4.796321 -0.517231 -0.453084 69.000000
4.792733 -0.531725 -0.452881 60.000000
4.792068 -0.546538 -0.452983 74.000000
4.803215 -0.562740 -0.454299 63.000000
4.810356 -0.578540 -0.455210 55.000000
4.827319 -0.595605 -0.457133 38.000000
4.848170 -0.613279 -0.459461 17.000000
4.829335 -0.252032 -0.512150 65.000000
4.825562 -0.266682 -0.511810 90.000000
4.819762 -0.281196 -0.511245 90.000000
4.818877 -0.295981 -0.511245 119.000000
4.817946 -0.310764 -0.511245 113.000000
4.818953 -0.325678 -0.511471 131.000000
4.820904 -0.340671 -0.511810 111.000000
4.827764 -0.356045 -0.512715 111.000000
4.836555 -0.371617 -0.513845 97.000000
4.842325 -0.387008 -0.514636 83.000000
4.850027 -0.402603 -0.515653 86.000000
4.845127 -0.447133 -0.515540 20.000000
4.856590 -0.463223 -0.517010 91.000000
4.854157 -0.478023 -0.516897 84.000000
4.839818 -0.491607 -0.515427 107.000000
4.827416 -0.505314 -0.514184 90.000000
4.816953 -0.519163 -0.513167 101.000000
4.808424 -0.533171 -0.512376 112.000000
4.811702 -0.548484 -0.512941 96.000000
4.815918 -0.563937 -0.513619 84.000000
4.821070 -0.579540 -0.514410 81.000000
4.826172 -0.595180 -0.515201 85.000000
4.875582 -0.616469 -0.521079 37.000000
4.869684 -0.254419 -0.577852 52.000000
4.848077 -0.268212 -0.575220 80.000000
4.844261 -0.282912 -0.574844 90.000000
4.840399 -0.297591 -0.574468 80.000000
4.833523 -0.312057 -0.573716 102.000000
4.835512 -0.327085 -0.574092 112.000000
4.838445 -0.342198 -0.574593 92.000000
4.845287 -0.357622 -0.575596 89.000000
4.848125 -0.372789 -0.576097 82.000000
4.854870 -0.388292 -0.577100 74.000000
4.888261 -0.406051 -0.581486 16.000000
4.898713 -0.467511 -0.583492 40.000000
4.882445 -0.481082 -0.581612 55.000000
4.866140 -0.494558 -0.579732 60.000000
4.850786 -0.508041 -0.577977 70.000000
4.834408 -0.521329 -0.576097 57.000000
4.832786 -0.536158 -0.576097 72.000000
4.834075 -0.551319 -0.576473 81.000000
4.837288 -0.566723 -0.577100 69.000000
4.841437 -0.582271 -0.577852 70.000000
4.869168 -0.600759 -0.581612 47.000000
4.887972 -0.618304 -0.584244 29.000000
4.939126 -0.256047 -0.647908 24.000000
4.873043 -0.267609 -0.638837 63.000000
4.856378 -0.281639 -0.636638 89.000000
4.838683 -0.295509 -0.634301 128.000000
4.834789 -0.310162 -0.633889 152.000000
4.845674 -0.325792 -0.635538 116.000000
4.848604 -0.340935 -0.636088 125.000000
4.855438 -0.356390 -0.637187 93.000000
4.869135 -0.372418 -0.639249 78.000000
4.872907 -0.387748 -0.639936 58.000000
4.907332 -0.481540 -0.645846 52.000000
4.892035 -0.495195 -0.643922 78.000000
4.880642 -0.509173 -0.642548 95.000000
4.873147 -0.523509 -0.641723 105.000000
4.867580 -0.538021 -0.641173 108.000000
4.860986 -0.552393 -0.640486 118.000000
4.858284 -0.567188 -0.640349 95.000000
4.865373 -0.583152 -0.641586 77.000000
4.856679 -0.597230 -0.640624 32.000000
4.903825 -0.257050 -0.702340 80.000000
4.891166 -0.271439 -0.700550 108.000000
4.884387 -0.286098 -0.699655 120.000000
4.874603 -0.300536 -0.698312 99.000000
4.870698 -0.315299 -0.697865 111.000000
4.866748 -0.330041 -0.697417 96.000000
4.867685 -0.345110 -0.697716 95.000000
4.873507 -0.360551 -0.698760 68.000000
4.911814 -0.378531 -0.704727 39.000000
4.911866 -0.500058 -0.706369 49.000000
4.910309 -0.515125 -0.706369 74.000000
4.894942 -0.528704 -0.704280 112.000000
4.892314 -0.543610 -0.704131 110.000000
4.884729 -0.557945 -0.703236 72.000000
4.882994 -0.572928 -0.703236 69.000000
4.884158 -0.588260 -0.703683 125.000000
4.879386 -0.602879 -0.703236 66.000000
4.947733 -0.242139 -0.769770 38.000000
4.916413 -0.255726 -0.764776 105.000000
4.894911 -0.269666 -0.761393 162.000000
4.900957 -0.285084 -0.762521 112.000000
4.895134 -0.299816 -0.761716 147.000000
4.897146 -0.315023 -0.762199 137.000000
4.900096 -0.330312 -0.762843 128.000000
4.909889 -0.346108 -0.764615 114.000000
4.913725 -0.361532 -0.765421 138.000000
4.923418 -0.377436 -0.767193 83.000000
4.929364 -0.499843 -0.769931 62.000000
4.916028 -0.513732 -0.767998 120.000000
4.919335 -0.529340 -0.768803 136.000000
4.913764 -0.543995 -0.768159 130.000000
4.912073 -0.559068 -0.768159 147.000000
4.911314 -0.574250 -0.768320 136.000000
4.907570 -0.589079 -0.767998 117.000000
4.905739 -0.604133 -0.767998 104.000000
4.938133 -0.623510 -0.773636 59.000000
