ply
format ascii 1.0
element vertex 864
property float x
property float y
property float z
property float intensity
end_header
4.522882 1.119109 0.764159 59.000000
4.526294 1.105228 0.764159 67.000000
4.529664 1.091336 0.764159 50.000000
4.531068 1.076977 0.763850 47.000000
4.499939 1.202241 0.706758 51.000000
4.494994 1.186155 0.705471 76.000000
4.495739 1.171609 0.705042 58.000000
4.499312 1.157811 0.705042 67.000000
4.500925 1.143514 0.704756 72.000000
4.505372 1.129941 0.704899 81.000000
4.510738 1.116590 0.705185 96.000000
4.517027 1.103451 0.705614 73.000000
4.522316 1.090052 0.705900 81.000000
4.528527 1.076860 0.706329 80.000000
4.528919 1.062283 0.705900 69.000000
4.535049 1.049053 0.706329 81.000000
4.536316 1.034695 0.706043 55.000000
4.463358 1.310139 0.648973 50.000000
4.463548 1.295335 0.648449 52.000000
4.461783 1.279995 0.647663 67.000000
4.465689 1.266300 0.647663 71.000000
4.471462 1.253129 0.647925 60.000000
4.476242 1.239669 0.648056 67.000000
4.481936 1.226454 0.648318 56.000000
4.485678 1.212697 0.648318 73.000000
4.488419 1.198674 0.648187 82.000000
4.492075 1.184898 0.648187 67.000000
4.496649 1.171361 0.648318 87.000000
4.502142 1.158054 0.648580 72.000000
4.507595 1.144724 0.648842 81.000000
4.514933 1.131853 0.649366 76.000000
4.521271 1.118711 0.649759 96.000000
4.522756 1.104364 0.649497 60.000000
4.529978 1.091412 0.650022 78.000000
4.530411 1.076821 0.649628 69.000000
4.536589 1.063596 0.650022 76.000000
4.538865 1.049449 0.649891 64.000000
4.542063 1.035519 0.649891 65.000000
4.548121 1.022232 0.650284 44.000000
4.552203 1.008488 0.650415 55.000000
4.550433 0.993460 0.649759 39.000000
4.419535 1.342900 0.587534 25.000000
4.440749 1.334482 0.589675 64.000000
4.442919 1.320286 0.589437 57.000000
4.447901 1.306929 0.589556 81.000000
4.451890 1.293277 0.589556 80.000000
4.453928 1.279064 0.589318 51.000000
4.459742 1.265936 0.589556 70.000000
4.465516 1.252785 0.589794 74.000000
4.471252 1.239610 0.590032 90.000000
4.477907 1.226674 0.590388 74.000000
4.486441 1.214229 0.590983 84.000000
4.493022 1.201229 0.591340 72.000000
4.498606 1.187946 0.591578 72.000000
4.503191 1.174390 0.591696 79.000000
4.504849 1.160073 0.591459 92.000000
4.504539 1.145267 0.590983 86.000000
4.506104 1.130958 0.590745 90.000000
4.512444 1.117845 0.591102 105.000000
4.518746 1.104704 0.591459 82.000000
4.525975 1.091768 0.591934 94.000000
4.534132 1.079028 0.592529 109.000000
4.537421 1.065112 0.592529 80.000000
4.541635 1.051411 0.592648 80.000000
4.542903 1.037030 0.592410 101.000000
4.544126 1.022651 0.592172 83.000000
4.545304 1.008275 0.591934 93.000000
4.548376 0.994325 0.591934 56.000000
4.554317 0.980994 0.592291 67.000000
4.559247 0.967430 0.592529 69.000000
4.565109 0.954048 0.592886 77.000000
4.412783 1.399743 0.531682 44.000000
4.413262 1.385007 0.531255 49.000000
4.417490 1.371461 0.531255 50.000000
4.421677 1.357902 0.531255 60.000000
4.423919 1.343752 0.531041 54.000000
4.427069 1.329888 0.530934 52.000000
4.433987 1.317148 0.531255 63.000000
4.439916 1.304099 0.531468 76.000000
4.447715 1.291580 0.531895 74.000000
4.454524 1.278752 0.532216 57.000000
4.461296 1.265893 0.532536 71.000000
4.467073 1.252737 0.532750 69.000000
4.474728 1.240088 0.533177 59.000000
4.478511 1.226354 0.533177 77.000000
4.485133 1.213387 0.533497 94.000000
4.492676 1.200648 0.533924 58.000000
4.497300 1.187113 0.534031 69.000000
4.502845 1.173811 0.534244 91.000000
4.504499 1.159495 0.534031 68.000000
4.504180 1.144691 0.533604 74.000000
4.505743 1.130383 0.533390 73.000000
4.504363 1.115360 0.532856 87.000000
4.507764 1.101535 0.532856 69.000000
4.514988 1.088633 0.533283 62.000000
4.520242 1.075236 0.533497 71.000000
4.528359 1.062498 0.534031 70.000000
4.538379 1.050169 0.534778 75.000000
4.543518 1.036682 0.534992 79.000000
4.548617 1.023174 0.535206 71.000000
4.556589 1.010290 0.535739 70.000000
4.559667 0.996306 0.535739 69.000000
4.566590 0.983149 0.536167 66.000000
4.574448 0.970166 0.536701 73.000000
4.580323 0.956737 0.537021 56.000000
4.593950 0.944882 0.538195 50.000000
4.590005 0.929403 0.537448 58.000000
4.594785 0.915705 0.537662 55.000000
4.579034 0.897970 0.535633 29.000000
4.369699 1.459852 0.474233 78.000000
4.375103 1.446752 0.474328 78.000000
4.383304 1.434562 0.474708 75.000000
4.391472 1.422335 0.475087 64.000000
4.394867 1.408552 0.474992 89.000000
4.401066 1.395664 0.475182 81.000000
4.406277 1.382453 0.475277 94.000000
4.410498 1.368929 0.475277 83.000000
4.414677 1.355391 0.475277 85.000000
4.416909 1.341262 0.475087 82.000000
4.420050 1.327418 0.474992 87.000000
4.424101 1.313851 0.474992 92.000000
4.428112 1.300272 0.474992 74.000000
4.433036 1.286958 0.475087 73.000000
4.439834 1.274176 0.475372 55.000000
4.444679 1.260821 0.475467 56.000000
4.450444 1.247717 0.475657 61.000000
4.454250 1.234057 0.475657 85.000000
4.458016 1.220386 0.475657 95.000000
4.460778 1.206443 0.475562 102.000000
4.469266 1.194038 0.476037 74.000000
4.474834 1.180830 0.476227 86.000000
4.481325 1.167849 0.476512 86.000000
4.490671 1.155585 0.477082 97.000000
4.497089 1.142539 0.477367 103.000000
4.502505 1.129221 0.477557 108.000000
4.512712 1.117079 0.478222 111.000000
4.516118 1.103228 0.478222 112.000000
4.521416 1.089835 0.478412 125.000000
4.522802 1.075497 0.478222 95.000000
4.522204 1.060706 0.477842 107.000000
4.523497 1.046378 0.477652 101.000000
4.527657 1.032717 0.477747 93.000000
4.532746 1.019259 0.477937 119.000000
4.541682 1.006642 0.478507 107.000000
4.547667 0.993341 0.478792 95.000000
4.553613 0.980014 0.479077 111.000000
4.560493 0.966865 0.479456 96.000000
4.560514 0.952258 0.479171 99.000000
4.565364 0.938664 0.479361 108.000000
4.568223 0.924653 0.479361 119.000000
4.582753 0.912971 0.480501 78.000000
4.590417 0.899865 0.480976 72.000000
4.593156 0.885778 0.480976 69.000000
4.595851 0.871682 0.480976 72.000000
4.596548 0.857213 0.480786 50.000000
4.365450 1.488638 0.416503 54.000000
4.372829 1.476194 0.416750 46.000000
4.376393 1.462456 0.416668 65.000000
4.381804 1.449335 0.416750 60.000000
4.385284 1.435575 0.416668 76.000000
4.391563 1.422729 0.416833 85.000000
4.400653 1.410770 0.417245 57.000000
4.404960 1.397262 0.417245 63.000000
4.412079 1.384636 0.417493 78.000000
4.415355 1.370798 0.417410 61.000000
4.419539 1.357246 0.417410 74.000000
4.421775 1.343101 0.417245 60.000000
4.425875 1.329529 0.417245 80.000000
4.429933 1.315944 0.417245 74.000000
4.433949 1.302347 0.417245 58.000000
4.444624 1.290683 0.417822 92.000000
4.447605 1.276766 0.417740 63.000000
4.454377 1.263931 0.417987 62.000000
4.458234 1.250259 0.417987 88.000000
4.462049 1.236576 0.417987 73.000000
4.466783 1.223143 0.418070 79.000000
4.471477 1.209694 0.418152 80.000000
4.479018 1.196999 0.418482 71.000000
4.485560 1.184015 0.418730 74.000000
4.492064 1.171002 0.418977 61.000000
4.498532 1.157960 0.419224 69.000000
4.503028 1.144398 0.419307 87.000000
4.505551 1.130335 0.419224 96.000000
4.509966 1.116747 0.419307 74.000000
4.513371 1.102905 0.419307 68.000000
4.516733 1.089053 0.419307 75.000000
4.521022 1.075421 0.419389 70.000000
4.521390 1.060863 0.419142 80.000000
4.525594 1.047212 0.419224 60.000000
4.528786 1.033322 0.419224 58.000000
4.528045 1.018549 0.418894 48.000000
4.538933 1.006377 0.419554 78.000000
4.543946 0.992873 0.419719 64.000000
4.553791 0.980395 0.420296 57.000000
4.559702 0.967040 0.420544 60.000000
4.561672 0.952842 0.420461 64.000000
4.565550 0.939044 0.420544 65.000000
4.567433 0.924834 0.420461 73.000000
4.570248 0.910817 0.420461 72.000000
4.576933 0.897559 0.420791 73.000000
4.583580 0.884267 0.421121 78.000000
4.590188 0.870944 0.421451 79.000000
4.601655 0.858501 0.422193 69.000000
4.607208 0.844919 0.422440 49.000000
4.615664 0.831840 0.422935 59.000000
4.622119 0.818370 0.423265 69.000000
4.366048 1.471846 0.361290 45.000000
4.373381 1.459392 0.361502 62.000000
4.377838 1.445968 0.361502 72.000000
4.385098 1.433461 0.361713 75.000000
4.389475 1.420001 0.361713 67.000000
4.395711 1.407136 0.361855 70.000000
4.399056 1.393342 0.361784 76.000000
4.401407 1.379242 0.361643 77.000000
4.407523 1.366324 0.361784 97.000000
4.410740 1.352502 0.361713 90.000000
4.416778 1.339544 0.361855 93.000000
4.418956 1.325413 0.361713 63.000000
4.427783 1.313269 0.362067 81.000000
4.432748 1.299960 0.362137 75.000000
4.437674 1.286632 0.362208 50.000000
4.446394 1.274387 0.362561 64.000000
4.454122 1.261828 0.362844 75.000000
4.457972 1.248157 0.362844 70.000000
4.460819 1.234208 0.362773 64.000000
4.462660 1.219990 0.362632 59.000000
4.466382 1.206293 0.362632 51.000000
4.469099 1.192327 0.362561 80.000000
4.473700 1.178865 0.362632 68.000000
4.479226 1.165637 0.362773 62.000000
4.484713 1.152387 0.362914 75.000000
4.489194 1.138868 0.362985 86.000000
4.492667 1.125090 0.362985 72.000000
4.496098 1.111302 0.362985 69.000000
4.500455 1.097739 0.363055 88.000000
4.506711 1.084628 0.363267 84.000000
4.513899 1.071719 0.363550 75.000000
4.519108 1.058321 0.363691 74.000000
4.525249 1.045125 0.363903 70.000000
4.530379 1.031681 0.364044 76.000000
4.534497 1.017996 0.364115 76.000000
4.537599 1.004079 0.364115 64.000000
4.539683 0.989940 0.364044 68.000000
4.548550 0.977267 0.364468 71.000000
4.554454 0.963928 0.364680 77.000000
4.557390 0.949951 0.364680 87.000000
4.563214 0.936567 0.364892 80.000000
4.568021 0.922958 0.365033 77.000000
4.573766 0.909524 0.365245 69.000000
4.580451 0.896254 0.365527 85.000000
4.586117 0.882764 0.365739 67.000000
4.591744 0.869247 0.365951 66.000000
4.602234 0.856618 0.366516 59.000000
4.608765 0.843214 0.366799 68.000000
4.609367 0.828717 0.366657 98.000000
4.613853 0.814919 0.366799 75.000000
4.616331 0.800760 0.366799 70.000000
4.615816 0.786090 0.366587 66.000000
4.620173 0.772255 0.366728 80.000000
4.385473 1.434793 0.303739 53.000000
4.387955 1.420717 0.303623 54.000000
4.384687 1.404812 0.303158 51.000000
4.390880 1.391956 0.303274 67.000000
4.391319 1.377284 0.303042 56.000000
4.395524 1.363805 0.303042 71.000000
4.402550 1.351192 0.303216 68.000000
4.409541 1.338548 0.303390 64.000000
4.414583 1.325301 0.303448 60.000000
4.421500 1.312603 0.303623 68.000000
4.426464 1.299313 0.303681 60.000000
4.430429 1.285727 0.303681 55.000000
4.440111 1.273780 0.304029 62.000000
4.445918 1.260696 0.304145 58.000000
4.447843 1.246511 0.304029 55.000000
4.455494 1.233925 0.304262 77.000000
4.462148 1.221040 0.304436 65.000000
4.466836 1.207605 0.304494 70.000000
4.472450 1.194411 0.304610 55.000000
4.476093 1.180684 0.304610 72.000000
4.478728 1.166694 0.304552 81.000000
4.480353 1.152451 0.304436 85.000000
4.483867 1.138700 0.304436 78.000000
4.488308 1.125181 0.304494 78.000000
4.495615 1.112365 0.304726 65.000000
4.505796 1.100224 0.305133 44.000000
4.512062 1.087097 0.305307 64.000000
4.520232 1.074403 0.305598 62.000000
4.523507 1.060530 0.305598 77.000000
4.527712 1.046872 0.305656 84.000000
4.530902 1.032976 0.305656 70.000000
4.535024 1.019289 0.305714 55.000000
4.540080 1.005803 0.305830 57.000000
4.545094 0.992295 0.305946 72.000000
4.552022 0.979186 0.306178 68.000000
4.557934 0.965836 0.306353 74.000000
4.560876 0.951848 0.306353 69.000000
4.565731 0.938253 0.306469 67.000000
4.569566 0.924439 0.306527 54.000000
4.576297 0.911195 0.306759 58.000000
4.579072 0.897151 0.306759 76.000000
4.582782 0.883287 0.306817 59.000000
4.586452 0.869409 0.306875 62.000000
4.587134 0.854968 0.306759 87.000000
4.591700 0.841250 0.306875 68.000000
4.595242 0.827336 0.306934 82.000000
4.602673 0.814103 0.307224 79.000000
4.609084 0.800662 0.307456 69.000000
4.614470 0.787021 0.307631 70.000000
4.619818 0.773354 0.307805 71.000000
4.621183 0.759016 0.307747 47.000000
4.625461 0.745152 0.307863 59.000000
4.627726 0.730958 0.307863 55.000000
4.626000 0.716146 0.307631 34.000000
4.390337 1.389738 0.248591 56.000000
4.394580 1.376262 0.248591 55.000000
4.397828 1.362477 0.248545 65.000000
4.398167 1.347807 0.248360 49.000000
4.405149 1.335177 0.248499 61.000000
4.410182 1.321943 0.248545 63.000000
4.412301 1.307838 0.248453 77.000000
4.415334 1.294014 0.248406 57.000000
4.419283 1.280462 0.248406 57.000000
4.423191 1.266898 0.248406 54.000000
4.430902 1.254411 0.248591 58.000000
4.436653 1.241350 0.248684 60.000000
4.441403 1.227999 0.248730 65.000000
4.448040 1.215158 0.248869 77.000000
4.453676 1.202027 0.248961 78.000000
4.457343 1.188357 0.248961 53.000000
4.458070 1.173913 0.248823 54.000000
4.461650 1.160230 0.248823 63.000000
4.466156 1.146785 0.248869 55.000000
4.475463 1.134552 0.249146 63.000000
4.482799 1.121788 0.249331 59.000000
4.493977 1.109947 0.249701 68.000000
4.500272 1.096865 0.249840 57.000000
4.507502 1.083989 0.250025 63.000000
4.511778 1.070386 0.250071 72.000000
4.513095 1.056083 0.249978 63.000000
4.516314 1.042232 0.249978 57.000000
4.519490 1.028371 0.249978 54.000000
4.525548 1.015157 0.250117 66.000000
4.531567 1.001916 0.250256 62.000000
4.538524 0.988860 0.250441 80.000000
4.543489 0.975352 0.250533 75.000000
4.548415 0.961821 0.250626 65.000000
4.544499 0.946435 0.250302 46.000000
4.553252 0.933694 0.250579 66.000000
4.555116 0.919522 0.250533 68.000000
4.556936 0.905348 0.250487 55.000000
4.561653 0.891747 0.250579 61.000000
4.566329 0.878126 0.250672 70.000000
4.563112 0.862997 0.250395 49.000000
4.574577 0.850640 0.250811 67.000000
4.577166 0.836601 0.250811 78.000000
4.582660 0.823085 0.250949 86.000000
4.588115 0.809543 0.251088 98.000000
4.596482 0.796488 0.251365 91.000000
4.605797 0.783557 0.251689 103.000000
4.616062 0.770741 0.252059 108.000000
4.624319 0.757546 0.252336 116.000000
4.625635 0.743196 0.252290 107.000000
4.624933 0.728535 0.252151 115.000000
4.628133 0.714495 0.252198 83.000000
4.632279 0.700592 0.252290 83.000000
4.638359 0.686963 0.252475 104.000000
4.642422 0.673017 0.252568 72.000000
4.410858 1.338110 0.191775 38.000000
4.409199 1.322849 0.191571 49.000000
4.411320 1.308747 0.191504 51.000000
4.415314 1.295207 0.191504 73.000000
4.419267 1.281655 0.191504 53.000000
4.421257 1.267540 0.191436 53.000000
4.427048 1.254515 0.191504 49.000000
4.426064 1.239580 0.191334 36.000000
4.438515 1.228393 0.191639 44.000000
4.449975 1.216879 0.191910 63.000000
4.456583 1.204002 0.192012 65.000000
4.462186 1.190840 0.192079 49.000000
4.463886 1.176635 0.192012 74.000000
4.464573 1.162179 0.191910 61.000000
4.467150 1.148228 0.191876 59.000000
4.473558 1.135255 0.191978 62.000000
4.479928 1.122253 0.192079 66.000000
4.487231 1.109463 0.192215 63.000000
4.496439 1.097112 0.192418 73.000000
4.502699 1.084013 0.192519 48.000000
4.507948 1.070656 0.192587 61.000000
4.509266 1.056365 0.192519 43.000000
4.518328 1.043875 0.192722 59.000000
4.524433 1.030674 0.192824 71.000000
4.529524 1.017226 0.192892 53.000000
4.533600 1.003541 0.192926 58.000000
4.538610 0.990053 0.192993 65.000000
4.541626 0.976124 0.192993 66.000000
4.548511 0.963014 0.193129 49.000000
4.550465 0.948850 0.193095 60.000000
4.554334 0.935086 0.193129 67.000000
4.558161 0.921307 0.193163 62.000000
4.562926 0.907709 0.193230 61.000000
4.568632 0.894281 0.193332 64.000000
4.571354 0.880261 0.193332 46.000000
4.582871 0.867905 0.193636 62.000000
4.587478 0.854206 0.193704 60.000000
4.594009 0.840848 0.193840 80.000000
4.595584 0.826572 0.193806 61.000000
4.599082 0.812643 0.193840 66.000000
4.601553 0.798530 0.193840 80.000000
4.603981 0.784409 0.193840 77.000000
4.612281 0.771269 0.194043 63.000000
4.617585 0.757600 0.194144 65.000000
4.622847 0.743906 0.194246 63.000000
4.629056 0.730342 0.194381 62.000000
4.634238 0.716595 0.194483 58.000000
4.638391 0.702673 0.194551 72.000000
4.643491 0.688879 0.194652 73.000000
4.649539 0.675204 0.194787 65.000000
4.656536 0.661639 0.194957 55.000000
4.658545 0.647350 0.194957 70.000000
4.657537 0.632651 0.194855 45.000000
4.412806 1.294940 0.135384 66.000000
4.415798 1.281116 0.135362 46.000000
4.421629 1.268115 0.135405 46.000000
4.425499 1.254543 0.135405 69.000000
4.430290 1.241230 0.135427 67.000000
4.437932 1.228700 0.135514 72.000000
4.445537 1.216136 0.135600 70.000000
4.455038 1.204058 0.135730 48.000000
4.460642 1.190900 0.135773 66.000000
4.465241 1.177465 0.135795 63.000000
4.470768 1.164264 0.135838 83.000000
4.472383 1.150044 0.135795 65.000000
4.472982 1.135579 0.135730 57.000000
4.476445 1.121851 0.135730 45.000000
4.479867 1.108112 0.135730 63.000000
4.489072 1.095787 0.135860 70.000000
4.495328 1.082712 0.135925 66.000000
4.501547 1.069610 0.135990 54.000000
4.506754 1.056251 0.136033 74.000000
4.509973 1.042420 0.136033 69.000000
4.513150 1.028578 0.136033 69.000000
4.517260 1.014947 0.136055 71.000000
4.520352 1.001083 0.136055 53.000000
4.526332 0.987851 0.136120 65.000000
4.529342 0.973959 0.136120 58.000000
4.534265 0.960474 0.136163 71.000000
4.539147 0.946967 0.136206 56.000000
4.544969 0.933641 0.136271 57.000000
4.547812 0.919693 0.136271 55.000000
4.555514 0.906713 0.136379 69.000000
4.557294 0.892540 0.136358 49.000000
4.566882 0.879880 0.136509 71.000000
4.568578 0.865679 0.136487 57.000000
4.575144 0.852392 0.136574 92.000000
4.577737 0.838352 0.136574 70.000000
4.582255 0.824658 0.136617 90.000000
4.585749 0.810770 0.136639 62.000000
4.589199 0.796869 0.136661 81.000000
4.595565 0.783459 0.136747 78.000000
4.603862 0.770347 0.136877 96.000000
4.613110 0.757355 0.137028 87.000000
4.621334 0.744154 0.137158 84.000000
4.625570 0.730284 0.137202 113.000000
4.628777 0.716243 0.137223 105.000000
4.633917 0.702489 0.137288 98.000000
4.637040 0.688416 0.137310 90.000000
4.641109 0.674475 0.137353 121.000000
4.647115 0.660797 0.137440 108.000000
4.653081 0.647088 0.137526 94.000000
4.655045 0.632810 0.137526 108.000000
4.657956 0.618657 0.137548 97.000000
4.653883 0.603591 0.137418 87.000000
4.655713 0.589310 0.137418 40.000000
4.428646 1.254135 0.078612 45.000000
4.431509 1.240273 0.078603 42.000000
4.436257 1.226938 0.078612 47.000000
4.441930 1.213849 0.078631 57.000000
4.448530 1.200997 0.078658 53.000000
4.453159 1.187601 0.078668 67.000000
4.457749 1.174188 0.078677 71.000000
4.462298 1.160758 0.078686 77.000000
4.465838 1.147063 0.078686 61.000000
4.468367 1.133111 0.078677 64.000000
4.474732 1.120125 0.078705 67.000000
4.478148 1.106391 0.078705 64.000000
4.485407 1.093594 0.078742 53.000000
4.491658 1.080529 0.078769 62.000000
4.496898 1.067206 0.078788 58.000000
4.503071 1.054088 0.078816 50.000000
4.509207 1.040942 0.078843 54.000000
4.512380 1.027103 0.078843 56.000000
4.519413 1.014130 0.078880 61.000000
4.525432 1.000908 0.078908 64.000000
4.530436 0.987445 0.078927 62.000000
4.534421 0.973751 0.078936 59.000000
4.538365 0.960042 0.078945 65.000000
4.541290 0.946114 0.078945 63.000000
4.546130 0.932579 0.078964 51.000000
4.547989 0.918429 0.078954 48.000000
4.551766 0.904666 0.078964 57.000000
4.554521 0.890698 0.078964 55.000000
4.557231 0.876720 0.078964 59.000000
4.561865 0.863106 0.078982 70.000000
4.565475 0.849290 0.078991 62.000000
4.571993 0.835998 0.079028 67.000000
4.578474 0.822674 0.079065 76.000000
4.585900 0.809493 0.079112 82.000000
4.593288 0.796273 0.079158 75.000000
4.600638 0.783016 0.079204 59.000000
4.609923 0.770050 0.079269 65.000000
4.614238 0.756227 0.079287 60.000000
4.617523 0.742226 0.079297 64.000000
4.618791 0.727900 0.079287 72.000000
4.620014 0.713574 0.079278 48.000000
4.619215 0.698948 0.079250 58.000000
4.616392 0.684041 0.079204 50.000000
4.620448 0.670162 0.079223 54.000000
4.574960 0.649243 0.078779 22.000000
4.479343 1.225393 0.020832 38.000000
4.464741 1.206683 0.020895 48.000000
4.473252 1.194270 0.020879 35.000000
4.464325 1.177223 0.020922 60.000000
4.466949 1.163269 0.020925 49.000000
4.466622 1.148562 0.020938 61.000000
4.470126 1.134853 0.020938 81.000000
4.474556 1.121377 0.020935 53.000000
4.478946 1.107884 0.020932 69.000000
4.484267 1.094613 0.020925 65.000000
4.487604 1.080850 0.020925 65.000000
4.490899 1.067077 0.020925 62.000000
4.493178 1.053066 0.020929 77.000000
4.494439 1.038825 0.020935 71.000000
4.497605 1.025031 0.020935 64.000000
4.501704 1.011448 0.020932 70.000000
4.509667 0.998714 0.020915 50.000000
4.515641 0.985514 0.020905 57.000000
4.524508 0.972919 0.020885 48.000000
4.534320 0.960485 0.020862 53.000000
4.542140 0.947592 0.020846 62.000000
4.547964 0.934257 0.020836 62.000000
4.549829 0.920101 0.020839 53.000000
4.552630 0.906138 0.020839 57.000000
4.556370 0.892359 0.020836 52.000000
4.556140 0.877808 0.020846 61.000000
4.558813 0.863826 0.020846 49.000000
4.563407 0.850202 0.020839 67.000000
4.565010 0.836018 0.020842 62.000000
4.572474 0.822895 0.020826 82.000000
4.578916 0.809561 0.020812 56.000000
4.584334 0.796023 0.020803 84.000000
4.592669 0.782964 0.020783 80.000000
4.597022 0.769201 0.020776 65.000000
4.605280 0.756068 0.020756 73.000000
4.611527 0.742572 0.020743 69.000000
4.610820 0.727952 0.020753 52.000000
4.661044 1.275449 -0.039485 49.000000
4.643699 1.255404 -0.039140 55.000000
4.623378 1.234704 -0.038747 51.000000
4.546897 1.199354 -0.037443 47.000000
4.514754 1.176076 -0.036862 43.000000
4.490258 1.154998 -0.036407 44.000000
4.481182 1.138018 -0.036202 55.000000
4.479803 1.123050 -0.036124 54.000000
4.482256 1.109060 -0.036108 57.000000
4.488552 1.096015 -0.036155 70.000000
4.494810 1.082942 -0.036202 57.000000
4.498111 1.069147 -0.036202 56.000000
4.502344 1.055570 -0.036218 54.000000
4.506535 1.041977 -0.036234 71.000000
4.511660 1.028590 -0.036265 77.000000
4.514794 1.014744 -0.036265 65.000000
4.519839 1.001321 -0.036297 64.000000
4.523867 0.987662 -0.036312 49.000000
4.531763 0.974830 -0.036391 59.000000
4.536689 0.961336 -0.036422 57.000000
4.541574 0.947822 -0.036454 72.000000
4.546420 0.934286 -0.036485 79.000000
4.550245 0.920532 -0.036501 49.000000
4.553047 0.906567 -0.036501 69.000000
4.555807 0.892595 -0.036501 61.000000
4.556561 0.878235 -0.036469 75.000000
4.564146 0.865182 -0.036548 59.000000
4.568744 0.851542 -0.036579 55.000000
4.577236 0.838602 -0.036674 54.000000
4.583724 0.825264 -0.036736 71.000000
4.590173 0.811893 -0.036799 71.000000
4.596582 0.798491 -0.036862 69.000000
4.597039 0.784049 -0.036831 71.000000
4.599423 0.769942 -0.036831 64.000000
4.566244 0.749997 -0.036265 24.000000
4.697356 1.300597 -0.098677 25.000000
4.669508 1.277467 -0.097761 34.000000
4.666651 1.261308 -0.097567 47.000000
4.663739 1.245178 -0.097373 46.000000
4.652073 1.226782 -0.096929 71.000000
4.647110 1.210235 -0.096679 83.000000
4.612078 1.186004 -0.095569 57.000000
4.514938 1.146242 -0.092683 43.000000
4.500981 1.128007 -0.092184 60.000000
4.490836 1.110829 -0.091795 63.000000
4.488397 1.095622 -0.091629 55.000000
4.483963 1.079972 -0.091407 44.000000
4.483365 1.065285 -0.091296 49.000000
4.486613 1.051525 -0.091296 60.000000
4.490791 1.037981 -0.091324 59.000000
4.495904 1.024643 -0.091379 56.000000
4.501952 1.011503 -0.091462 60.000000
4.507961 0.998336 -0.091546 58.000000
4.514909 0.985355 -0.091657 59.000000
4.520843 0.972130 -0.091740 69.000000
4.525760 0.958670 -0.091795 47.000000
4.530637 0.945189 -0.091851 58.000000
4.535473 0.931688 -0.091906 63.000000
4.543209 0.918761 -0.092045 40.000000
4.547967 0.905209 -0.092101 38.000000
4.551704 0.891444 -0.092128 49.000000
4.557362 0.878044 -0.092212 41.000000
4.562981 0.864617 -0.092295 31.000000
4.679044 1.280374 -0.158869 27.000000
4.653048 1.257931 -0.157620 63.000000
4.653024 1.242619 -0.157459 54.000000
4.645221 1.225281 -0.156975 48.000000
4.634454 1.207246 -0.156370 51.000000
4.623620 1.189290 -0.155766 61.000000
4.583666 1.164036 -0.153952 42.000000
4.595939 1.152154 -0.154315 72.000000
4.584902 1.134449 -0.153710 70.000000
4.556329 1.112559 -0.152380 56.000000
4.527664 1.090854 -0.151050 48.000000
4.508630 1.071646 -0.150123 49.000000
4.499250 1.054845 -0.149599 43.000000
4.495650 1.039461 -0.149317 38.000000
4.494922 1.024776 -0.149156 61.000000
4.500969 1.011638 -0.149277 45.000000
4.506979 0.998473 -0.149397 46.000000
4.514901 0.985706 -0.149599 52.000000
4.529626 0.974370 -0.150083 41.000000
4.549212 0.963989 -0.150768 39.000000
4.558995 0.951456 -0.151050 41.000000
4.609851 0.947316 -0.153025 27.000000
4.636240 0.937922 -0.153992 25.000000
4.637430 1.266949 -0.214938 36.000000
4.629726 1.249590 -0.214310 53.000000
4.629679 1.234350 -0.214101 61.000000
4.631513 1.219631 -0.213996 58.000000
4.627501 1.203404 -0.213577 74.000000
4.625368 1.187710 -0.213263 53.000000
4.626087 1.172777 -0.213106 83.000000
4.625788 1.157608 -0.212897 76.000000
4.627379 1.142931 -0.212792 81.000000
4.629894 1.128492 -0.212740 89.000000
4.642072 1.116387 -0.213211 101.000000
4.605639 1.092678 -0.211065 59.000000
4.594386 1.075127 -0.210280 63.000000
4.553877 1.050910 -0.207925 39.000000
4.544422 1.034051 -0.207245 44.000000
4.550496 1.020760 -0.207402 49.000000
4.557507 1.007658 -0.207611 35.000000
4.597652 1.001759 -0.209600 52.000000
4.638782 0.995833 -0.211641 51.000000
4.677963 0.989250 -0.213577 48.000000
4.704438 0.979786 -0.214833 53.000000
4.722095 0.968361 -0.215618 51.000000
4.732874 0.955452 -0.216037 30.000000
4.742640 0.942291 -0.216403 24.000000
4.644105 1.286143 -0.275265 37.000000
4.636479 1.268729 -0.274488 43.000000
4.633606 1.252677 -0.274035 47.000000
4.618145 1.233307 -0.272741 60.000000
4.612257 1.216588 -0.272094 66.000000
4.602448 1.198912 -0.271188 78.000000
4.603205 1.184041 -0.270994 76.000000
4.609718 1.170649 -0.271188 66.000000
4.616192 1.157229 -0.271382 59.000000
4.622627 1.143780 -0.271577 66.000000
4.624175 1.129120 -0.271447 50.000000
4.626647 1.114694 -0.271382 63.000000
4.628104 1.100033 -0.271253 69.000000
4.630485 1.085601 -0.271188 49.000000
4.630877 1.070716 -0.270994 65.000000
4.637059 1.057169 -0.271188 65.000000
4.639307 1.042719 -0.271124 48.000000
4.649304 1.029991 -0.271577 54.000000
4.655367 1.016361 -0.271771 90.000000
4.673098 1.005220 -0.272741 46.000000
4.691779 0.994187 -0.273777 44.000000
4.702622 0.981418 -0.274294 51.000000
4.710498 0.967990 -0.274618 49.000000
4.732030 0.957292 -0.275847 29.000000
4.737881 0.943354 -0.276041 31.000000
4.654029 1.302230 -0.333624 21.000000
4.643589 1.283956 -0.332476 32.000000
4.641736 1.268126 -0.332016 30.000000
4.631166 1.249979 -0.330868 37.000000
4.606078 1.228052 -0.328572 48.000000
4.599219 1.211119 -0.327730 50.000000
4.595194 1.194994 -0.327117 40.000000
4.599803 1.181139 -0.327194 58.000000
4.607272 1.168002 -0.327500 49.000000
4.615669 1.155073 -0.327883 62.000000
4.624999 1.142343 -0.328342 68.000000
4.630419 1.128621 -0.328495 58.000000
4.641614 1.116277 -0.329108 104.000000
4.640167 1.100879 -0.328725 43.000000
4.630902 1.083681 -0.327730 30.000000
4.647806 1.072611 -0.328801 41.000000
4.655936 1.059454 -0.329184 53.000000
4.655273 1.044291 -0.328878 116.000000
4.666243 1.031728 -0.329490 41.000000
4.666463 1.016770 -0.329261 77.000000
4.669561 1.002448 -0.329261 54.000000
4.669688 0.987498 -0.329031 72.000000
4.706858 0.980291 -0.331710 30.000000
4.722541 0.968453 -0.332705 29.000000
4.728421 0.954552 -0.332935 28.000000
4.740129 0.941792 -0.333624 22.000000
4.769415 0.932416 -0.335690 10.000000
4.630220 1.280565 -0.390316 38.000000
4.599536 1.256904 -0.387122 58.000000
4.600486 1.242008 -0.386856 62.000000
4.600425 1.226862 -0.386501 65.000000
4.598388 1.211221 -0.385969 59.000000
4.600154 1.196606 -0.385792 67.000000
4.606698 1.183230 -0.386058 72.000000
4.615134 1.170315 -0.386501 68.000000
4.630298 1.159052 -0.387566 51.000000
4.643502 1.147229 -0.388453 70.000000
4.655710 1.135101 -0.389252 61.000000
4.670792 1.123606 -0.390316 49.000000
4.678093 1.110191 -0.390671 81.000000
4.688266 1.097422 -0.391292 59.000000
4.681906 1.080794 -0.390405 125.000000
4.684228 1.066204 -0.390316 44.000000
4.684562 1.051174 -0.390050 45.000000
4.679011 1.034862 -0.389252 45.000000
4.679245 1.019866 -0.388986 41.000000
4.671638 1.003206 -0.388010 75.000000
4.676643 0.989281 -0.388187 67.000000
4.697209 0.978584 -0.389784 43.000000
4.713850 0.966969 -0.391026 35.000000
4.718747 0.952897 -0.391204 35.000000
4.726533 0.939386 -0.391647 34.000000
4.651444 1.271651 -0.452881 31.000000
4.617869 1.247248 -0.448933 55.000000
4.630324 1.235385 -0.449845 44.000000
4.623511 1.218382 -0.448731 58.000000
4.624339 1.203440 -0.448427 61.000000
4.632827 1.190486 -0.448933 44.000000
4.636457 1.176267 -0.448933 52.000000
4.645834 1.163488 -0.449541 50.000000
4.659039 1.151619 -0.450553 43.000000
4.671249 1.139444 -0.451464 37.000000
4.687295 1.128137 -0.452780 45.000000
4.727515 1.122494 -0.456627 105.000000
4.707690 1.102534 -0.454197 51.000000
4.710082 1.087862 -0.454096 42.000000
4.706606 1.071859 -0.453388 32.000000
4.700167 1.055232 -0.452375 40.000000
4.699497 1.039947 -0.451970 34.000000
4.693917 1.023614 -0.451059 49.000000
4.694118 1.008581 -0.450756 41.000000
4.700110 0.994793 -0.451059 47.000000
4.711905 0.982198 -0.451970 31.000000
4.712947 0.967337 -0.451768 53.000000
4.735394 0.956819 -0.453793 24.000000
4.751967 0.945006 -0.455210 12.000000
4.647396 1.270847 -0.510115 35.000000
4.639762 1.253474 -0.508759 73.000000
4.643586 1.239234 -0.508759 65.000000
4.642562 1.223716 -0.508193 59.000000
4.640524 1.207965 -0.507515 66.000000
4.643247 1.193475 -0.507402 65.000000
4.647850 1.179469 -0.507515 73.000000
4.660120 1.167376 -0.508533 70.000000
4.675255 1.155935 -0.509889 48.000000
4.687467 1.143705 -0.510906 61.000000
4.701580 1.131875 -0.512150 56.000000
4.719078 1.105498 -0.513393 55.000000
4.718575 1.090120 -0.512941 60.000000
4.718022 1.074757 -0.512489 48.000000
4.713542 1.058536 -0.511584 61.000000
4.711916 1.042996 -0.511019 61.000000
4.711211 1.027689 -0.510567 60.000000
4.713370 1.013022 -0.510454 53.000000
4.721316 0.999585 -0.511019 65.000000
4.726306 0.985501 -0.511245 53.000000
4.735147 0.972195 -0.511923 63.000000
4.769273 0.963959 -0.515540 33.000000
4.730503 1.293285 -0.581361 20.000000
4.655914 1.257534 -0.571084 45.000000
4.645372 1.239404 -0.569204 45.000000
4.647234 1.224640 -0.568953 45.000000
4.642329 1.208126 -0.567825 44.000000
4.650818 1.195114 -0.568452 58.000000
4.662156 1.182793 -0.569454 49.000000
4.681159 1.172344 -0.571460 45.000000
4.715552 1.165603 -0.575470 27.000000
4.722961 1.152072 -0.575972 36.000000
4.749622 1.143154 -0.578980 20.000000
4.753649 1.113310 -0.578604 26.000000
4.745443 1.096038 -0.577100 38.000000
4.735241 1.078387 -0.575345 40.000000
4.730784 1.062114 -0.574342 50.000000
4.722396 1.045020 -0.572838 44.000000
4.720734 1.029469 -0.572212 40.000000
4.723870 1.014981 -0.572212 26.000000
4.733756 1.001923 -0.573089 37.000000
4.741663 0.988409 -0.573716 42.000000
4.750504 0.975055 -0.574468 37.000000
4.774867 0.964804 -0.577225 23.000000
4.705298 1.272931 -0.638012 34.000000
4.681430 1.251075 -0.634026 53.000000
4.671839 1.233169 -0.632102 66.000000
4.667932 1.216832 -0.631002 90.000000
4.673562 1.202999 -0.631277 68.000000
4.681070 1.189630 -0.631827 73.000000
4.687581 1.175986 -0.632239 82.000000
4.700781 1.163979 -0.633614 61.000000
4.709141 1.150727 -0.634301 64.000000
4.742208 1.097317 -0.637050 43.000000
4.743621 1.082322 -0.636775 61.000000
4.742087 1.066677 -0.636088 53.000000
4.738568 1.050623 -0.635126 42.000000
4.737898 1.035235 -0.634576 58.000000
4.739116 1.020278 -0.634301 59.000000
4.736409 1.004501 -0.633476 72.000000
4.740438 0.990168 -0.633614 56.000000
4.757037 0.978412 -0.635538 31.000000
4.700808 1.268793 -0.696074 61.000000
4.700857 1.253346 -0.695478 72.000000
4.701811 1.238162 -0.695030 118.000000
4.699846 1.222236 -0.694135 107.000000
4.699743 1.206827 -0.693538 114.000000
4.701507 1.191916 -0.693240 112.000000
4.715692 1.180130 -0.694881 80.000000
4.764406 1.176811 -0.701893 38.000000
4.766073 1.161720 -0.701594 13.000000
4.767906 1.084962 -0.699207 30.000000
4.756741 1.067079 -0.696970 63.000000
4.757096 1.051839 -0.696522 76.000000
4.760300 1.037240 -0.696522 49.000000
4.766360 1.023254 -0.696970 50.000000
4.771411 1.009035 -0.697268 58.000000
4.778357 0.995200 -0.697865 71.000000
4.791074 0.982524 -0.699357 50.000000
4.741826 1.297548 -0.763649 48.000000
4.722918 1.276814 -0.759782 84.000000
4.713463 1.258754 -0.757527 117.000000
4.714440 1.243533 -0.757044 106.000000
4.719188 1.229312 -0.757205 102.000000
4.730584 1.216794 -0.758494 138.000000
4.733338 1.202032 -0.758333 122.000000
4.739875 1.188225 -0.758816 89.000000
4.745415 1.174151 -0.759138 99.000000
4.756665 1.161459 -0.760427 63.000000
4.787393 1.091429 -0.762682 66.000000
4.784942 1.075439 -0.761716 78.000000
4.780510 1.059047 -0.760427 92.000000
4.778915 1.043323 -0.759621 102.000000
4.783058 1.028864 -0.759782 100.000000
4.789089 1.014798 -0.760266 84.000000
4.797976 1.001310 -0.761232 80.000000
4.810693 0.988571 -0.762843 73.000000
4.838855 0.978894 -0.767031 26.000000
