ply
format ascii 1.0
element vertex 847
property float x
property float y
property float z
property float intensity
end_header
4.556449 1.083507 0.710475 63.000000
4.556861 1.068844 0.710046 66.000000
4.558190 1.054412 0.709760 71.000000
4.561403 1.040423 0.709760 59.000000
4.561677 1.025772 0.709331 52.000000
4.525188 1.002981 0.703469 28.000000
4.527434 1.134986 0.651070 52.000000
4.532819 1.121567 0.651332 66.000000
4.535276 1.107420 0.651201 60.000000
4.540580 1.093965 0.651463 51.000000
4.545844 1.080488 0.651725 59.000000
4.548172 1.066310 0.651594 78.000000
4.553353 1.052798 0.651856 54.000000
4.553662 1.038163 0.651463 73.000000
4.554892 1.023753 0.651201 61.000000
4.555107 1.009131 0.650808 63.000000
4.550433 0.993460 0.649759 49.000000
4.549583 0.978661 0.649235 51.000000
4.546744 0.963466 0.648449 54.000000
4.555502 0.950727 0.649235 33.000000
4.526444 1.195305 0.595026 48.000000
4.524326 1.179907 0.594313 57.000000
4.524079 1.165030 0.593837 52.000000
4.518010 1.148696 0.592648 68.000000
4.517660 1.133862 0.592172 93.000000
4.521118 1.119996 0.592172 87.000000
4.525497 1.106357 0.592291 67.000000
4.534661 1.093866 0.593005 107.000000
4.537995 1.079948 0.593005 93.000000
4.543221 1.066475 0.593242 99.000000
4.544537 1.052083 0.593005 97.000000
4.543871 1.037251 0.592529 91.000000
4.542189 1.022215 0.591934 86.000000
4.541427 1.007414 0.591459 75.000000
4.540617 0.992627 0.590983 72.000000
4.538787 0.977645 0.590388 80.000000
4.538851 0.963097 0.590032 74.000000
4.536926 0.948150 0.589437 61.000000
4.532033 0.932624 0.588485 57.000000
4.535846 0.918913 0.588604 56.000000
4.534750 0.904215 0.588129 47.000000
4.541399 0.891064 0.588604 62.000000
4.543137 0.876938 0.588485 41.000000
4.549707 0.863738 0.588961 64.000000
4.549408 0.849228 0.588604 46.000000
4.551992 0.835267 0.588604 25.000000
4.533178 1.256281 0.539690 49.000000
4.534133 1.241580 0.539370 51.000000
4.533123 1.226366 0.538836 52.000000
4.529179 1.210400 0.537982 60.000000
4.527102 1.194977 0.537341 72.000000
4.522088 1.178826 0.536380 86.000000
4.520869 1.163707 0.535846 79.000000
4.518636 1.148363 0.535206 73.000000
4.520209 1.134011 0.534992 73.000000
4.521736 1.119660 0.534778 85.000000
4.522253 1.105075 0.534458 86.000000
4.528521 1.091894 0.534778 77.000000
4.531850 1.077996 0.534778 70.000000
4.534168 1.063860 0.534672 61.000000
4.536441 1.049721 0.534565 52.000000
4.535763 1.034914 0.534138 67.000000
4.536006 1.020339 0.533817 64.000000
4.533291 1.005127 0.533177 48.000000
4.534411 0.990790 0.532963 61.000000
4.534513 0.976246 0.532643 53.000000
4.531651 0.961093 0.532002 63.000000
4.529712 0.946169 0.531468 58.000000
4.530645 0.931867 0.531255 63.000000
4.529585 0.917174 0.530827 64.000000
4.531402 0.903079 0.530721 62.000000
4.535127 0.889364 0.530827 82.000000
4.537834 0.875446 0.530827 52.000000
4.542453 0.861891 0.531041 49.000000
4.547030 0.848315 0.531255 50.000000
4.548634 0.834182 0.531148 70.000000
4.550193 0.820047 0.531041 53.000000
4.540939 0.804004 0.529760 34.000000
4.496128 1.305292 0.481356 54.000000
4.500112 1.291492 0.481356 63.000000
4.501179 1.276864 0.481071 45.000000
4.505075 1.263049 0.481071 60.000000
4.507970 1.248955 0.480976 79.000000
4.508901 1.234330 0.480691 78.000000
4.509783 1.219710 0.480406 78.000000
4.510619 1.205097 0.480121 70.000000
4.512370 1.190745 0.479931 88.000000
4.513112 1.176142 0.479646 101.000000
4.513808 1.161545 0.479361 81.000000
4.512526 1.146465 0.478887 68.000000
4.515056 1.132372 0.478792 89.000000
4.514644 1.117557 0.478412 85.000000
4.514184 1.102756 0.478032 101.000000
4.516578 1.088668 0.477937 80.000000
4.518929 1.074575 0.477842 89.000000
4.523173 1.060934 0.477937 106.000000
4.525436 1.046827 0.477842 112.000000
4.521833 1.031387 0.477177 132.000000
4.518178 1.015979 0.476512 99.000000
4.513499 1.000387 0.475752 86.000000
4.515574 0.986323 0.475657 87.000000
4.517606 0.972255 0.475562 67.000000
4.520568 0.958391 0.475562 87.000000
4.522512 0.944313 0.475467 80.000000
4.524413 0.930233 0.475372 88.000000
4.525294 0.915953 0.475182 87.000000
4.525155 0.901481 0.474898 79.000000
4.523015 0.886635 0.474423 68.000000
4.523759 0.872377 0.474233 78.000000
4.521524 0.857565 0.473758 95.000000
4.520220 0.842958 0.473378 90.000000
4.522784 0.829087 0.473378 93.000000
4.525307 0.815207 0.473378 68.000000
4.524846 0.800798 0.473093 64.000000
4.529243 0.787254 0.473283 88.000000
4.520843 0.771510 0.472238 73.000000
4.515334 0.756319 0.471478 55.000000
4.482806 1.361633 0.422523 58.000000
4.490780 1.349021 0.422853 51.000000
4.492987 1.334669 0.422688 43.000000
4.502798 1.322563 0.423182 66.000000
4.505877 1.308465 0.423100 68.000000
4.507954 1.294085 0.422935 53.000000
4.504233 1.278073 0.422275 61.000000
4.500456 1.262096 0.421616 69.000000
4.498545 1.246686 0.421121 70.000000
4.500426 1.232353 0.420956 52.000000
4.496489 1.216459 0.420296 80.000000
4.499237 1.202401 0.420214 80.000000
4.500014 1.187829 0.419966 81.000000
4.500744 1.173263 0.419719 73.000000
4.501427 1.158705 0.419472 73.000000
4.502063 1.144153 0.419224 53.000000
4.505551 1.130335 0.419224 75.000000
4.507064 1.116028 0.419059 65.000000
4.504657 1.100777 0.418565 59.000000
4.508014 1.086951 0.418565 92.000000
4.506479 1.071963 0.418152 65.000000
4.504896 1.056995 0.417740 56.000000
4.505204 1.042495 0.417493 48.000000
4.505466 1.028004 0.417245 50.000000
4.508599 1.014176 0.417245 68.000000
4.509743 0.999908 0.417080 54.000000
4.507922 0.985004 0.416668 49.000000
4.508000 0.970540 0.416421 49.000000
4.509006 0.956292 0.416256 57.000000
4.508992 0.941843 0.416008 76.000000
4.512836 0.928206 0.416091 60.000000
4.514687 0.914159 0.416008 66.000000
4.513560 0.899525 0.415678 52.000000
4.514343 0.885290 0.415514 60.000000
4.514101 0.870870 0.415266 70.000000
4.512836 0.856274 0.414936 81.000000
4.513482 0.842059 0.414771 65.000000
4.512123 0.827489 0.414442 53.000000
4.514640 0.813642 0.414442 67.000000
4.517115 0.799788 0.414442 67.000000
4.515620 0.785243 0.414112 62.000000
4.515060 0.770883 0.413864 74.000000
4.514456 0.756533 0.413617 47.000000
4.513805 0.742194 0.413370 48.000000
4.513110 0.727867 0.413122 30.000000
4.515322 0.714018 0.413122 43.000000
4.518476 0.700314 0.413205 39.000000
4.470371 1.415950 0.367081 75.000000
4.473742 1.401930 0.367010 54.000000
4.474211 1.387016 0.366728 70.000000
4.479400 1.373575 0.366799 58.000000
4.480729 1.358957 0.366587 75.000000
4.482966 1.344630 0.366445 89.000000
4.488983 1.331438 0.366587 71.000000
4.490175 1.316817 0.366375 73.000000
4.492278 1.302479 0.366234 55.000000
4.490500 1.287040 0.365810 71.000000
4.484831 1.270536 0.365104 82.000000
4.484866 1.255694 0.364821 62.000000
4.483890 1.240598 0.364468 77.000000
4.482865 1.225519 0.364115 62.000000
4.483715 1.210979 0.363903 51.000000
4.486445 1.196960 0.363832 66.000000
4.489132 1.182936 0.363762 55.000000
4.491775 1.168906 0.363691 63.000000
4.493408 1.154623 0.363550 71.000000
4.493062 1.139850 0.363267 85.000000
4.495570 1.125818 0.363197 86.000000
4.496098 1.111302 0.362985 72.000000
4.493672 1.096083 0.362561 62.000000
4.496043 1.082057 0.362490 54.000000
4.494490 1.067105 0.362137 68.000000
4.486088 1.050579 0.361290 102.000000
4.496093 1.038384 0.361784 78.000000
4.496340 1.023920 0.361572 59.000000
4.499461 1.010121 0.361572 66.000000
4.501565 0.996096 0.361502 72.000000
4.501676 0.981642 0.361290 90.000000
4.501740 0.967198 0.361078 71.000000
4.498831 0.952141 0.360654 55.000000
4.501731 0.938334 0.360654 70.000000
4.502635 0.924117 0.360513 51.000000
4.506426 0.910497 0.360583 64.000000
4.510177 0.896862 0.360654 59.000000
4.511929 0.882829 0.360583 66.000000
4.509718 0.868038 0.360230 53.000000
4.509420 0.853641 0.360018 57.000000
4.507115 0.838889 0.359665 59.000000
4.504761 0.824158 0.359312 73.000000
4.506287 0.810157 0.359242 70.000000
4.507769 0.796155 0.359171 70.000000
4.510190 0.782321 0.359171 75.000000
4.510603 0.768145 0.359030 64.000000
4.510970 0.753974 0.358888 83.000000
4.511294 0.739807 0.358747 88.000000
4.508618 0.725170 0.358394 81.000000
4.507866 0.710868 0.358182 100.000000
4.506083 0.696424 0.357900 91.000000
4.511157 0.683045 0.358112 74.000000
4.514218 0.669348 0.358182 68.000000
4.518224 0.655783 0.358323 62.000000
4.521203 0.642058 0.358394 65.000000
4.470153 1.477687 0.309199 57.000000
4.471818 1.463034 0.309025 57.000000
4.478185 1.449923 0.309141 49.000000
4.470253 1.432219 0.308386 54.000000
4.471771 1.417592 0.308212 64.000000
4.468479 1.401477 0.307747 79.000000
4.465129 1.385395 0.307282 68.000000
4.465541 1.370519 0.307050 92.000000
4.466859 1.355942 0.306875 73.000000
4.469085 1.341658 0.306759 62.000000
4.466481 1.325953 0.306353 54.000000
4.471486 1.312524 0.306411 59.000000
4.474533 1.298522 0.306353 68.000000
4.474657 1.283687 0.306120 71.000000
4.473772 1.268592 0.305830 71.000000
4.472836 1.253514 0.305540 64.000000
4.472813 1.238720 0.305307 76.000000
4.473703 1.224201 0.305133 62.000000
4.474546 1.209689 0.304959 54.000000
4.476308 1.195441 0.304842 65.000000
4.478024 1.181193 0.304726 78.000000
4.479694 1.166946 0.304610 73.000000
4.480353 1.152451 0.304436 76.000000
4.480964 1.137963 0.304262 64.000000
4.481530 1.123482 0.304087 47.000000
4.483017 1.109249 0.303971 66.000000
4.484459 1.095016 0.303855 73.000000
4.482945 1.080084 0.303565 46.000000
4.483324 1.065633 0.303390 70.000000
4.483656 1.051190 0.303216 62.000000
4.483942 1.036755 0.303042 76.000000
4.485155 1.022550 0.302926 47.000000
4.488271 1.008785 0.302926 43.000000
4.487446 0.994147 0.302693 59.000000
4.488524 0.979949 0.302577 67.000000
4.488582 0.965545 0.302403 56.000000
4.486639 0.950735 0.302112 47.000000
4.488558 0.936762 0.302054 54.000000
4.488477 0.922384 0.301880 47.000000
4.490307 0.908411 0.301822 63.000000
4.495031 0.895021 0.301938 58.000000
4.497756 0.881226 0.301938 56.000000
4.499458 0.867234 0.301880 51.000000
4.500136 0.853054 0.301764 47.000000
4.494880 0.837781 0.301299 62.000000
4.494483 0.823448 0.301125 51.000000
4.496006 0.809478 0.301067 45.000000
4.497485 0.795507 0.301009 66.000000
4.497937 0.781364 0.300893 62.000000
4.500313 0.767560 0.300893 68.000000
4.500678 0.753421 0.300776 51.000000
4.500998 0.739286 0.300660 59.000000
4.503245 0.725473 0.300660 44.000000
4.498547 0.710564 0.300254 44.000000
4.495772 0.695997 0.299963 57.000000
4.500847 0.682649 0.300137 46.000000
4.505883 0.669277 0.300312 40.000000
4.447311 1.498402 0.252660 59.000000
4.452835 1.485067 0.252706 66.000000
4.460216 1.472339 0.252845 83.000000
4.458065 1.456475 0.252521 77.000000
4.455859 1.440638 0.252198 73.000000
4.451696 1.424220 0.251782 66.000000
4.451283 1.409047 0.251550 63.000000
4.449866 1.393591 0.251273 76.000000
4.452212 1.379341 0.251180 68.000000
4.454513 1.365089 0.251088 64.000000
4.456769 1.350837 0.250996 68.000000
4.458022 1.336296 0.250857 63.000000
4.457312 1.321192 0.250626 52.000000
4.456551 1.306105 0.250395 69.000000
4.458619 1.291870 0.250302 53.000000
4.457760 1.276809 0.250071 65.000000
4.458773 1.262309 0.249932 51.000000
4.460701 1.248085 0.249840 62.000000
4.463546 1.234128 0.249793 48.000000
4.465384 1.219901 0.249701 55.000000
4.466213 1.205414 0.249562 59.000000
4.465064 1.190418 0.249331 51.000000
4.465797 1.175950 0.249192 63.000000
4.465517 1.161237 0.249007 63.000000
4.466156 1.146785 0.248869 56.000000
4.465781 1.132095 0.248684 67.000000
4.468264 1.118146 0.248638 66.000000
4.468764 1.103713 0.248499 65.000000
4.468247 1.089051 0.248314 63.000000
4.469625 1.074870 0.248221 71.000000
4.469015 1.060229 0.248037 58.000000
4.469328 1.045830 0.247898 57.000000
4.469596 1.031438 0.247759 66.000000
4.469817 1.017055 0.247620 68.000000
4.473891 1.003556 0.247667 67.000000
4.476949 0.989826 0.247667 68.000000
4.478989 0.975873 0.247620 68.000000
4.480008 0.961708 0.247528 62.000000
4.478052 0.946924 0.247297 76.000000
4.474090 0.931754 0.246973 73.000000
4.473992 0.917420 0.246834 53.000000
4.474827 0.903294 0.246742 52.000000
4.473659 0.888782 0.246557 55.000000
4.477345 0.875244 0.246603 46.000000
4.479028 0.861315 0.246557 60.000000
4.478704 0.847012 0.246418 72.000000
4.480300 0.833084 0.246372 74.000000
4.480870 0.818976 0.246280 60.000000
4.480412 0.804694 0.246141 78.000000
4.479909 0.790423 0.246002 73.000000
4.476407 0.775650 0.245725 68.000000
4.475811 0.761410 0.245586 52.000000
4.469259 0.746192 0.245170 87.000000
4.471527 0.732477 0.245170 71.000000
4.475726 0.719073 0.245262 47.000000
4.438766 1.496727 0.194314 79.000000
4.439544 1.481837 0.194178 71.000000
4.445968 1.468836 0.194246 83.000000
4.450453 1.455189 0.194246 74.000000
4.451093 1.440298 0.194110 52.000000
4.448828 1.424503 0.193873 66.000000
4.448413 1.409338 0.193704 74.000000
4.445087 1.393294 0.193433 76.000000
4.443613 1.377874 0.193230 56.000000
4.442086 1.362477 0.193027 59.000000
4.443376 1.347972 0.192926 54.000000
4.442704 1.332898 0.192756 68.000000
4.442940 1.318125 0.192621 48.000000
4.442167 1.303082 0.192452 52.000000
4.443264 1.288613 0.192350 66.000000
4.445276 1.274424 0.192282 61.000000
4.444356 1.259418 0.192113 53.000000
4.443388 1.244430 0.191944 51.000000
4.445258 1.230259 0.191876 62.000000
4.445156 1.215561 0.191741 59.000000
4.446934 1.201397 0.191673 66.000000
4.448667 1.187233 0.191605 53.000000
4.449390 1.172815 0.191504 51.000000
4.452967 1.159159 0.191504 67.000000
4.456502 1.145492 0.191504 52.000000
4.456120 1.130831 0.191368 50.000000
4.458600 1.116912 0.191334 63.000000
4.459095 1.102508 0.191233 61.000000
4.459543 1.088112 0.191131 77.000000
4.458973 1.073490 0.190996 63.000000
4.457384 1.058651 0.190827 53.000000
4.459638 1.044743 0.190793 51.000000
4.462822 1.031056 0.190793 54.000000
4.462067 1.016472 0.190657 48.000000
4.464189 1.002559 0.190624 49.000000
4.464316 0.988210 0.190522 54.000000
4.464397 0.973871 0.190420 52.000000
4.467364 0.960169 0.190420 45.000000
4.463445 0.945011 0.190183 48.000000
4.463387 0.930701 0.190082 55.000000
4.467201 0.917204 0.190116 56.000000
4.464116 0.902307 0.189913 49.000000
4.469804 0.889192 0.190014 42.000000
4.466626 0.874323 0.189811 50.000000
4.467325 0.860238 0.189743 59.000000
4.469943 0.846528 0.189743 57.000000
4.472519 0.832810 0.189743 34.000000
4.471120 0.818366 0.189608 40.000000
4.473610 0.804645 0.189608 47.000000
4.464247 0.788830 0.189202 28.000000
4.471570 0.775984 0.189371 31.000000
4.416785 0.752531 0.187408 12.000000
4.428707 1.493845 0.137007 74.000000
4.429477 1.478983 0.136920 76.000000
4.431146 1.464445 0.136855 65.000000
4.434668 1.450532 0.136834 71.000000
4.434341 1.435380 0.136725 87.000000
4.434916 1.420548 0.136639 71.000000
4.436395 1.406028 0.136574 86.000000
4.434964 1.390615 0.136444 84.000000
4.433480 1.375223 0.136314 79.000000
4.433856 1.360441 0.136228 78.000000
4.434183 1.345669 0.136141 74.000000
4.432545 1.330333 0.136011 64.000000
4.433730 1.315874 0.135946 70.000000
4.431991 1.300575 0.135817 72.000000
4.433080 1.286135 0.135752 51.000000
4.433161 1.271425 0.135665 57.000000
4.434155 1.257000 0.135600 50.000000
4.435103 1.242580 0.135535 54.000000
4.438895 1.228967 0.135535 52.000000
4.441679 1.215079 0.135514 61.000000
4.443457 1.200925 0.135470 48.000000
4.443257 1.186254 0.135384 67.000000
4.443008 1.171596 0.135297 78.000000
4.443680 1.157203 0.135232 57.000000
4.444304 1.142817 0.135167 61.000000
4.445851 1.128684 0.135124 82.000000
4.445415 1.114066 0.135038 67.000000
4.447842 1.100182 0.135016 62.000000
4.450224 1.086294 0.134994 71.000000
4.450621 1.071932 0.134929 61.000000
4.449025 1.057116 0.134821 78.000000
4.451274 1.043234 0.134799 60.000000
4.452506 1.029122 0.134756 65.000000
4.455642 1.015457 0.134756 80.000000
4.459712 1.002001 0.134778 63.000000
4.460813 0.987882 0.134735 64.000000
4.462845 0.973978 0.134713 66.000000
4.459949 0.959019 0.134583 65.000000
4.456024 0.943880 0.134432 65.000000
4.454005 0.929182 0.134323 67.000000
4.451939 0.914506 0.134215 54.000000
4.450804 0.900050 0.134129 44.000000
4.452564 0.886195 0.134107 46.000000
4.457224 0.872916 0.134150 46.000000
4.461844 0.859616 0.134194 47.000000
4.462496 0.845550 0.134150 36.000000
4.463104 0.831489 0.134107 30.000000
4.420526 1.489722 0.079186 56.000000
4.423179 1.475521 0.079167 72.000000
4.424836 1.461003 0.079139 69.000000
4.425496 1.446179 0.079102 75.000000
4.427057 1.431672 0.079075 64.000000
4.429523 1.417474 0.079056 70.000000
4.430038 1.402671 0.079019 77.000000
4.428595 1.387280 0.078964 67.000000
4.429010 1.372503 0.078927 82.000000
4.427463 1.357151 0.078871 70.000000
4.427778 1.342401 0.078834 47.000000
4.425171 1.326800 0.078769 74.000000
4.425385 1.312081 0.078732 48.000000
4.424592 1.297092 0.078686 47.000000
4.429511 1.283790 0.078695 47.000000
4.426700 1.268267 0.078631 51.000000
4.429608 1.254408 0.078621 50.000000
4.432472 1.240543 0.078612 58.000000
4.431438 1.225606 0.078566 46.000000
4.432284 1.211214 0.078538 63.000000
4.434048 1.197089 0.078520 73.000000
4.430936 1.181677 0.078455 61.000000
4.431640 1.167314 0.078427 54.000000
4.431329 1.152705 0.078390 63.000000
4.432908 1.138607 0.078372 55.000000
4.437350 1.125248 0.078381 53.000000
4.439811 1.111386 0.078372 43.000000
4.441258 1.097280 0.078353 58.000000
4.444603 1.083650 0.078353 64.000000
4.444018 1.069073 0.078316 59.000000
4.446304 1.055204 0.078307 47.000000
4.448547 1.041330 0.078298 52.000000
4.449772 1.027227 0.078279 45.000000
4.449977 1.012905 0.078251 56.000000
4.450137 0.998591 0.078224 53.000000
4.448298 0.983854 0.078177 54.000000
4.449341 0.969777 0.078159 50.000000
4.447407 0.955073 0.078113 45.000000
4.449337 0.941217 0.078103 46.000000
4.467868 0.930824 0.078251 31.000000
4.474621 0.917916 0.078288 36.000000
4.475455 0.903788 0.078270 48.000000
4.493900 0.893171 0.078418 35.000000
4.417400 1.490027 0.020773 40.000000
4.421002 1.476151 0.020776 51.000000
4.423611 1.461953 0.020783 54.000000
4.427125 1.448063 0.020786 46.000000
4.425839 1.432625 0.020806 56.000000
4.421643 1.416293 0.020836 70.000000
4.420249 1.400906 0.020856 77.000000
4.418800 1.385542 0.020875 71.000000
4.417301 1.370200 0.020895 71.000000
4.415748 1.354880 0.020915 70.000000
4.415100 1.339873 0.020932 64.000000
4.413443 1.324595 0.020952 71.000000
4.414610 1.310194 0.020962 50.000000
4.415731 1.295799 0.020972 51.000000
4.416805 1.281409 0.020982 51.000000
4.416871 1.266749 0.020995 48.000000
4.419774 1.252919 0.020998 54.000000
4.423597 1.239353 0.020998 47.000000
4.425451 1.225242 0.021005 56.000000
4.424367 1.210338 0.021021 39.000000
4.428060 1.196759 0.021021 46.000000
4.428812 1.182394 0.021031 56.000000
4.423717 1.166504 0.021061 64.000000
4.425340 1.152422 0.021068 48.000000
4.424012 1.137593 0.021084 72.000000
4.425543 1.123523 0.021091 55.000000
4.427030 1.109453 0.021098 62.000000
4.426529 1.094905 0.021111 58.000000
4.429868 1.081319 0.021111 65.000000
4.433164 1.067723 0.021111 54.000000
4.434474 1.053655 0.021118 68.000000
4.433791 1.039131 0.021131 62.000000
4.433061 1.024622 0.021144 65.000000
4.431309 1.009905 0.021161 63.000000
4.434387 0.996305 0.021161 44.000000
4.440351 0.983345 0.021151 54.000000
4.446278 0.970358 0.021141 65.000000
4.470741 0.961343 0.021068 43.000000
4.538233 0.961315 0.020849 29.000000
4.646878 0.969471 0.020491 41.000000
4.703703 0.966290 0.020308 62.000000
4.695864 0.949672 0.020345 31.000000
4.731119 0.941711 0.020235 25.000000
4.404984 1.456150 -0.036454 73.000000
4.403729 1.440764 -0.036359 64.000000
4.402421 1.425399 -0.036265 61.000000
4.409630 1.412801 -0.036312 91.000000
4.406319 1.396849 -0.036187 65.000000
4.406767 1.382128 -0.036124 64.000000
4.407167 1.367417 -0.036061 59.000000
4.411341 1.353889 -0.036061 73.000000
4.408776 1.338316 -0.035951 49.000000
4.410946 1.324209 -0.035920 59.000000
4.409236 1.308964 -0.035825 58.000000
4.405556 1.293178 -0.035700 62.000000
4.399900 1.276870 -0.035543 49.000000
4.401875 1.262814 -0.035511 53.000000
4.398995 1.247394 -0.035401 62.000000
4.401838 1.233623 -0.035386 69.000000
4.402711 1.219312 -0.035338 48.000000
4.407396 1.206063 -0.035354 58.000000
4.413005 1.193057 -0.035386 55.000000
4.416645 1.179513 -0.035386 56.000000
4.418309 1.165447 -0.035354 52.000000
4.419929 1.151382 -0.035323 63.000000
4.419567 1.136821 -0.035260 60.000000
4.419157 1.122272 -0.035197 56.000000
4.416760 1.107251 -0.035103 66.000000
4.414312 1.092255 -0.035009 64.000000
4.411814 1.077284 -0.034914 47.000000
4.415099 1.063744 -0.034914 39.000000
4.420287 1.050656 -0.034946 44.000000
4.427384 1.038002 -0.035009 47.000000
4.445160 1.027792 -0.035244 47.000000
4.468765 1.018815 -0.035574 41.000000
4.508941 1.013429 -0.036171 40.000000
4.629176 1.025533 -0.038056 45.000000
4.683099 1.022412 -0.038873 58.000000
4.709674 1.013085 -0.039250 71.000000
4.723520 1.000910 -0.039422 67.000000
4.734399 0.988047 -0.039548 59.000000
4.744264 0.974926 -0.039658 48.000000
4.753113 0.961555 -0.039752 40.000000
4.768789 0.949506 -0.039956 28.000000
4.393672 1.362864 -0.091074 49.000000
4.394967 1.348498 -0.090991 46.000000
4.390475 1.332393 -0.090741 43.000000
4.390712 1.317767 -0.090630 36.000000
4.388985 1.302582 -0.090463 57.000000
4.388165 1.287702 -0.090325 57.000000
4.389216 1.273397 -0.090242 65.000000
4.387337 1.258270 -0.090075 47.000000
4.383483 1.242621 -0.089853 48.000000
4.388237 1.229437 -0.089881 43.000000
4.389099 1.215167 -0.089798 40.000000
4.386057 1.199848 -0.089603 57.000000
4.387788 1.185864 -0.089548 52.000000
4.388508 1.171622 -0.089465 59.000000
4.393049 1.158408 -0.089492 59.000000
4.396582 1.144925 -0.089492 53.000000
4.396201 1.130435 -0.089381 55.000000
4.396742 1.116203 -0.089298 64.000000
4.401116 1.102952 -0.089326 58.000000
4.415152 1.092087 -0.089631 49.000000
4.424308 1.079961 -0.089798 48.000000
4.448008 1.071303 -0.090380 47.000000
4.443493 1.055801 -0.090158 35.000000
4.617019 1.082124 -0.095014 70.000000
4.650508 1.074940 -0.095874 79.000000
4.645012 1.058666 -0.095624 61.000000
4.666769 1.048578 -0.096152 63.000000
4.683626 1.037285 -0.096540 75.000000
4.692646 1.024192 -0.096707 65.000000
4.701629 1.011052 -0.096873 72.000000
4.710576 0.997868 -0.097040 64.000000
4.737099 0.988316 -0.097705 38.000000
4.742067 0.974181 -0.097761 37.000000
4.752872 0.961215 -0.097983 31.000000
4.762661 0.947997 -0.098177 27.000000
4.774375 0.935112 -0.098427 7.000000
4.380344 1.300389 -0.147503 38.000000
4.383355 1.286663 -0.147463 35.000000
4.387281 1.273209 -0.147463 35.000000
4.383483 1.257539 -0.147140 35.000000
4.384437 1.243268 -0.147019 52.000000
4.387269 1.229541 -0.146979 53.000000
4.386205 1.214742 -0.146778 58.000000
4.388947 1.201016 -0.146737 57.000000
4.389718 1.186763 -0.146616 48.000000
4.393338 1.173290 -0.146616 48.000000
4.402714 1.161335 -0.146858 50.000000
4.414958 1.150088 -0.147221 47.000000
4.432981 1.140270 -0.147826 38.000000
4.453891 1.131090 -0.148551 42.000000
4.499987 1.128108 -0.150325 38.000000
4.571323 1.131091 -0.153146 56.000000
4.577684 1.117771 -0.153267 37.000000
4.618005 1.112612 -0.154799 56.000000
4.629173 1.100287 -0.155121 55.000000
4.637392 1.087220 -0.155322 59.000000
4.647520 1.074563 -0.155605 42.000000
4.651769 1.060521 -0.155645 57.000000
4.660850 1.047559 -0.155887 46.000000
4.670871 1.034767 -0.156169 41.000000
4.681833 1.022136 -0.156491 51.000000
4.694715 1.009868 -0.156894 42.000000
4.708544 0.997738 -0.157338 45.000000
4.723320 0.985736 -0.157821 35.000000
4.738068 0.973653 -0.158305 33.000000
4.749847 0.960895 -0.158668 22.000000
4.375766 1.238787 -0.201331 32.000000
4.380507 1.225626 -0.201383 42.000000
4.389059 1.213513 -0.201645 43.000000
4.397578 1.201358 -0.201906 40.000000
4.411848 1.190726 -0.202482 41.000000
4.429953 1.181048 -0.203267 34.000000
4.428727 1.166179 -0.203005 25.000000
4.572415 1.189064 -0.210594 60.000000
4.580878 1.176274 -0.210856 51.000000
4.613503 1.169583 -0.212426 57.000000
4.624820 1.157365 -0.212845 78.000000
4.625440 1.142452 -0.212688 94.000000
4.624073 1.127072 -0.212426 77.000000
4.618771 1.110777 -0.211955 104.000000
4.630901 1.098678 -0.212426 62.000000
4.636195 1.084921 -0.212531 68.000000
4.640474 1.070917 -0.212583 68.000000
4.646659 1.057341 -0.212740 54.000000
4.651830 1.043518 -0.212845 80.000000
4.658909 1.030105 -0.213054 62.000000
4.671804 1.017935 -0.213577 67.000000
4.682716 1.005276 -0.213996 56.000000
4.694571 0.992766 -0.214467 60.000000
4.706393 0.980194 -0.214938 51.000000
4.714270 0.966754 -0.215200 47.000000
4.719171 0.952682 -0.215304 36.000000
4.696606 0.933134 -0.213944 15.000000
4.590249 1.271233 -0.271641 37.000000
4.609528 1.261357 -0.272677 53.000000
4.605669 1.245126 -0.272159 46.000000
4.620073 1.233822 -0.272871 51.000000
4.623837 1.219642 -0.272871 87.000000
4.622728 1.204193 -0.272547 67.000000
4.620602 1.188514 -0.272159 70.000000
4.620358 1.173350 -0.271900 82.000000
4.610384 1.155774 -0.270994 58.000000
4.611002 1.140905 -0.270800 74.000000
4.612542 1.126280 -0.270671 71.000000
4.613065 1.111423 -0.270477 83.000000
4.618395 1.097726 -0.270606 87.000000
4.629513 1.085373 -0.271124 59.000000
4.641572 1.073188 -0.271706 50.000000
4.647761 1.059608 -0.271900 52.000000
4.655859 1.046437 -0.272224 65.000000
4.663918 1.033227 -0.272547 55.000000
4.667067 1.018914 -0.272547 99.000000
4.680902 1.006898 -0.273259 60.000000
4.691779 0.994187 -0.273777 43.000000
4.699692 0.980807 -0.274100 41.000000
4.702678 0.966384 -0.274100 44.000000
4.708556 0.952545 -0.274294 37.000000
4.716349 0.939069 -0.274618 38.000000
4.634940 1.281563 -0.331787 36.000000
4.644621 1.268915 -0.332246 29.000000
4.625390 1.248418 -0.330409 42.000000
4.621492 1.232165 -0.329797 59.000000
4.620430 1.216710 -0.329414 51.000000
4.616422 1.200520 -0.328801 63.000000
4.615254 1.185110 -0.328419 66.000000
4.616936 1.170454 -0.328266 50.000000
4.615669 1.155073 -0.327883 48.000000
4.624031 1.142103 -0.328266 70.000000
4.626544 1.127675 -0.328189 55.000000
4.634829 1.114643 -0.328572 85.000000
4.643077 1.101570 -0.328955 57.000000
4.654201 1.089140 -0.329567 39.000000
4.654606 1.074182 -0.329337 52.000000
4.656908 1.059676 -0.329261 58.000000
4.654300 1.044073 -0.328801 91.000000
4.653587 1.028926 -0.328495 47.000000
4.654774 1.014220 -0.328342 74.000000
4.653964 0.999096 -0.328036 55.000000
4.660909 0.985639 -0.328342 57.000000
4.670743 0.972760 -0.328878 37.000000
4.679566 0.959629 -0.329337 38.000000
4.688352 0.946453 -0.329797 42.000000
4.701990 0.934205 -0.330639 26.000000
4.739082 0.926479 -0.333318 8.000000
4.619659 1.277645 -0.389340 39.000000
4.609145 1.259529 -0.388010 50.000000
4.609140 1.244344 -0.387655 57.000000
4.610049 1.229428 -0.387389 65.000000
4.610909 1.214518 -0.387122 62.000000
4.617506 1.201118 -0.387389 65.000000
4.620204 1.186698 -0.387300 80.000000
4.631548 1.174476 -0.388010 48.000000
4.635129 1.160261 -0.388010 53.000000
4.641568 1.146752 -0.388276 53.000000
4.652806 1.134393 -0.388986 61.000000
4.659170 1.120812 -0.389252 57.000000
4.687785 1.112490 -0.391559 98.000000
4.666929 1.092430 -0.389340 48.000000
4.670259 1.078107 -0.389340 65.000000
4.661890 1.061121 -0.388276 38.000000
4.659292 1.045506 -0.387744 45.000000
4.655669 1.029701 -0.387122 40.000000
4.650048 1.013505 -0.386324 52.000000
4.652161 0.999025 -0.386235 60.000000
4.659102 0.985572 -0.386590 52.000000
4.670881 0.973101 -0.387389 40.000000
4.683601 0.960767 -0.388276 38.000000
4.697267 0.948561 -0.389252 31.000000
4.706017 0.935310 -0.389784 32.000000
4.629374 1.265611 -0.450553 37.000000
4.652442 1.256595 -0.452578 29.000000
4.626479 1.234358 -0.449440 50.000000
4.628321 1.219651 -0.449237 41.000000
4.629153 1.204694 -0.448933 35.000000
4.636681 1.191477 -0.449338 55.000000
4.644171 1.178226 -0.449743 48.000000
4.653554 1.165424 -0.450351 46.000000
4.666765 1.153531 -0.451363 47.000000
4.682847 1.142276 -0.452679 44.000000
4.692132 1.129302 -0.453286 40.000000
4.700414 1.116052 -0.453793 63.000000
4.696067 1.099809 -0.452983 40.000000
4.687788 1.082707 -0.451768 32.000000
4.681387 1.066109 -0.450756 38.000000
4.672988 1.049124 -0.449541 45.000000
4.667443 1.032845 -0.448630 47.000000
4.665730 1.017460 -0.448124 37.000000
4.666884 1.002723 -0.447921 49.000000
4.675778 0.989637 -0.448529 46.000000
4.679767 0.975491 -0.448630 59.000000
4.685661 0.961730 -0.448933 60.000000
4.700291 0.949717 -0.450148 33.000000
4.706109 0.935875 -0.450452 20.000000
4.654105 1.272681 -0.510906 47.000000
4.642640 1.254251 -0.509098 77.000000
4.650306 1.241026 -0.509550 45.000000
4.648326 1.225235 -0.508872 57.000000
4.644371 1.208966 -0.507967 80.000000
4.649983 1.195206 -0.508193 73.000000
4.657480 1.181912 -0.508646 69.000000
4.668795 1.169549 -0.509550 72.000000
4.677184 1.156411 -0.510115 68.000000
4.684571 1.142998 -0.510567 72.000000
4.693852 1.130016 -0.511245 45.000000
4.710371 1.103459 -0.512376 24.000000
4.704053 1.086767 -0.511245 52.000000
4.701552 1.071006 -0.510567 47.000000
4.696091 1.054618 -0.509550 74.000000
4.694454 1.039133 -0.508985 60.000000
4.689854 1.023032 -0.508080 55.000000
4.689085 1.007804 -0.507628 54.000000
4.693126 0.993619 -0.507741 59.000000
4.697125 0.979419 -0.507854 45.000000
4.701081 0.965203 -0.507967 46.000000
4.708890 0.951760 -0.508533 56.000000
4.655914 1.257534 -0.571084 47.000000
4.659750 1.243244 -0.571084 41.000000
4.662583 1.228689 -0.570958 43.000000
4.657691 1.212128 -0.569830 56.000000
4.662348 1.198079 -0.569956 56.000000
4.673695 1.185724 -0.570958 62.000000
4.686934 1.173792 -0.572212 52.000000
4.697254 1.161075 -0.573089 36.000000
4.710432 1.149012 -0.574342 35.000000
4.729367 1.138273 -0.576348 13.000000
4.739643 1.094697 -0.576348 34.000000
4.734274 1.078166 -0.575220 34.000000
4.728848 1.061679 -0.574092 33.000000
4.722396 1.045020 -0.572838 37.000000
4.714919 1.028199 -0.571460 37.000000
4.715140 1.013103 -0.571084 50.000000
4.716286 0.998221 -0.570833 58.000000
4.727096 0.985369 -0.571836 31.000000
4.733012 0.971461 -0.572212 35.000000
4.731108 0.955952 -0.571585 42.000000
4.715816 1.275775 -0.639524 26.000000
4.687172 1.252609 -0.634851 72.000000
4.681416 1.235696 -0.633476 66.000000
4.676558 1.219080 -0.632239 84.000000
4.682195 1.205220 -0.632514 87.000000
4.688750 1.191581 -0.632927 81.000000
4.699110 1.178877 -0.633889 89.000000
4.720011 1.168739 -0.636363 55.000000
4.725499 1.154723 -0.636638 87.000000
4.745103 1.097986 -0.637462 50.000000
4.737826 1.081000 -0.635951 69.000000
4.731457 1.064287 -0.634576 61.000000
4.726964 1.048051 -0.633476 70.000000
4.723383 1.032065 -0.632514 63.000000
4.727496 1.017777 -0.632652 64.000000
4.731565 1.003474 -0.632789 59.000000
4.738499 0.989763 -0.633339 54.000000
4.748305 0.976617 -0.634301 38.000000
4.715127 1.272662 -0.698312 63.000000
4.708500 1.255385 -0.696671 75.000000
4.699899 1.237658 -0.694732 111.000000
4.703674 1.223233 -0.694732 109.000000
4.707404 1.208796 -0.694732 113.000000
4.712049 1.194592 -0.694881 100.000000
4.719529 1.181091 -0.695478 75.000000
4.718330 1.165419 -0.694732 39.000000
4.726687 1.152110 -0.695478 17.000000
4.743803 1.079471 -0.695478 40.000000
4.739375 1.063179 -0.694284 47.000000
4.741649 1.048420 -0.694135 64.000000
4.742911 1.033446 -0.693837 52.000000
4.749926 1.019721 -0.694433 43.000000
4.756901 1.005963 -0.695030 60.000000
4.764805 0.992374 -0.695776 67.000000
4.776545 0.979541 -0.697119 46.000000
4.775651 0.964098 -0.696522 15.000000
4.756105 1.301454 -0.766065 39.000000
4.702910 1.271407 -0.756400 87.000000
4.702974 1.255954 -0.755755 104.000000
4.709668 1.242275 -0.756239 95.000000
4.708682 1.226576 -0.755433 115.000000
4.718158 1.213599 -0.756400 114.000000
4.730468 1.201304 -0.757849 130.000000
4.739875 1.188225 -0.758816 92.000000
4.749247 1.175099 -0.759782 106.000000
4.748995 1.159587 -0.759138 66.000000
4.793167 1.092745 -0.763649 52.000000
4.768571 1.071761 -0.758977 92.000000
4.769910 1.056699 -0.758655 102.000000
4.768309 1.041008 -0.757849 105.000000
4.766655 1.025337 -0.757044 94.000000
4.767847 1.010299 -0.756722 104.000000
4.768992 0.995264 -0.756400 74.000000
4.772990 0.980827 -0.756561 77.000000
4.783715 0.967744 -0.757849 34.000000
