ply
format ascii 1.0
element vertex 916
property float x
property float y
property float z
property float intensity
end_header
4.306655 1.454310 0.578734 50.000000
4.311097 1.441091 0.578734 55.000000
4.313612 1.427234 0.578496 67.000000
4.317028 1.413684 0.578377 60.000000
4.319455 1.399820 0.578139 53.000000
4.322784 1.386258 0.578020 62.000000
4.325124 1.372388 0.577782 64.000000
4.330262 1.359410 0.577901 62.000000
4.336308 1.346708 0.578139 72.000000
4.339470 1.333106 0.578020 56.000000
4.346390 1.320654 0.578377 52.000000
4.352323 1.307885 0.578615 62.000000
4.351556 1.293110 0.578020 46.000000
4.356456 1.280034 0.578139 43.000000
4.353688 1.264722 0.577307 54.000000
4.354685 1.250536 0.576950 58.000000
4.363276 1.238527 0.577545 51.000000
4.368012 1.225404 0.577663 46.000000
4.368880 1.211200 0.577307 48.000000
4.374491 1.198316 0.577545 63.000000
4.374313 1.183852 0.577069 57.000000
4.378883 1.170682 0.577188 53.000000
4.384375 1.157750 0.577426 68.000000
4.390788 1.145046 0.577782 63.000000
4.396204 1.132066 0.578020 64.000000
4.399656 1.118573 0.578020 79.000000
4.404993 1.105554 0.578258 76.000000
4.408364 1.092034 0.578258 57.000000
4.413622 1.078976 0.578496 79.000000
4.412086 1.064265 0.577901 59.000000
4.424989 1.053025 0.579091 84.000000
4.427232 1.039217 0.578972 69.000000
4.431367 1.025854 0.579091 63.000000
4.434494 1.012254 0.579091 59.000000
4.437578 0.998644 0.579091 74.000000
4.438683 0.984595 0.578853 76.000000
4.442652 0.971185 0.578972 61.000000
4.444640 0.957341 0.578853 64.000000
4.449499 0.944113 0.579091 63.000000
4.456262 0.931271 0.579566 70.000000
4.463960 0.918597 0.580161 56.000000
4.466757 0.904898 0.580161 59.000000
4.470486 0.891384 0.580280 67.000000
4.476123 0.878239 0.580637 57.000000
4.479771 0.864691 0.580755 66.000000
4.482403 0.850943 0.580755 66.000000
4.484016 0.837004 0.580637 64.000000
4.485586 0.823064 0.580518 72.000000
4.491022 0.809828 0.580874 76.000000
4.493485 0.796046 0.580874 54.000000
4.495906 0.782257 0.580874 80.000000
4.501221 0.768962 0.581231 69.000000
4.507475 0.755807 0.581707 74.000000
4.514672 0.742782 0.582301 91.000000
4.518890 0.729244 0.582539 65.000000
4.523067 0.715688 0.582777 90.000000
4.525242 0.701808 0.582777 83.000000
4.526392 0.687772 0.582658 80.000000
4.527499 0.673735 0.582539 74.000000
4.529544 0.659842 0.582539 68.000000
4.315615 1.456885 0.523673 48.000000
4.320065 1.443638 0.523673 42.000000
4.327305 1.431314 0.523993 35.000000
4.330731 1.417722 0.523886 66.000000
4.335060 1.404428 0.523886 51.000000
4.340295 1.391426 0.523993 64.000000
4.345491 1.378404 0.524100 55.000000
4.351597 1.365661 0.524314 63.000000
4.355766 1.352304 0.524314 51.000000
4.360845 1.339226 0.524420 55.000000
4.361127 1.324685 0.523993 48.000000
4.365171 1.311299 0.523993 64.000000
4.365361 1.296769 0.523566 58.000000
4.369319 1.283370 0.523566 39.000000
4.368461 1.268573 0.523032 57.000000
4.370421 1.254616 0.522819 70.000000
4.376163 1.241745 0.523032 52.000000
4.382824 1.229118 0.523352 58.000000
4.389450 1.216462 0.523673 62.000000
4.395079 1.203515 0.523886 70.000000
4.401630 1.190804 0.524207 57.000000
4.405262 1.177295 0.524207 57.000000
4.411737 1.164535 0.524527 62.000000
4.416252 1.151245 0.524634 45.000000
4.419763 1.137691 0.524634 72.000000
4.423233 1.124126 0.524634 64.000000
4.426661 1.110550 0.524634 59.000000
4.430047 1.096964 0.524634 64.000000
4.435323 1.083840 0.524847 68.000000
4.439594 1.070460 0.524954 60.000000
4.442857 1.056835 0.524954 69.000000
4.446078 1.043199 0.524954 66.000000
4.448289 1.029330 0.524847 53.000000
4.449487 1.015236 0.524634 48.000000
4.455492 1.002235 0.524954 62.000000
4.456604 0.988130 0.524741 42.000000
4.465443 0.975726 0.525381 60.000000
4.471332 0.962649 0.525702 60.000000
4.474264 0.948927 0.525702 53.000000
4.482994 0.936415 0.526342 65.000000
4.486819 0.922857 0.526449 68.000000
4.489630 0.909087 0.526449 64.000000
4.493372 0.895503 0.526556 67.000000
4.498050 0.882096 0.526770 62.000000
4.502687 0.868669 0.526983 79.000000
4.505332 0.854850 0.526983 65.000000
4.509888 0.841389 0.527197 65.000000
4.514404 0.827907 0.527410 59.000000
4.517901 0.814230 0.527517 54.000000
4.519399 0.800192 0.527410 49.000000
4.521832 0.786323 0.527410 77.000000
4.523244 0.772279 0.527304 64.000000
4.526572 0.758562 0.527410 69.000000
4.528878 0.744672 0.527410 79.000000
4.534087 0.731248 0.527731 72.000000
4.538273 0.717645 0.527944 67.000000
4.542418 0.704023 0.528158 76.000000
4.543574 0.689934 0.528051 60.000000
4.543703 0.675699 0.527837 57.000000
4.541818 0.661184 0.527410 46.000000
4.328418 1.460827 0.470529 65.000000
4.330991 1.446909 0.470339 82.000000
4.336355 1.433928 0.470434 83.000000
4.343571 1.421547 0.470719 64.000000
4.347912 1.408214 0.470719 79.000000
4.351264 1.394565 0.470624 80.000000
4.357420 1.381811 0.470813 63.000000
4.362588 1.368734 0.470908 101.000000
4.363915 1.354457 0.470624 83.000000
4.368050 1.341063 0.470624 79.000000
4.370239 1.327077 0.470434 66.000000
4.373336 1.313376 0.470339 65.000000
4.373528 1.298818 0.469959 83.000000
4.376537 1.285113 0.469864 71.000000
4.378548 1.271125 0.469674 65.000000
4.383384 1.257960 0.469769 63.000000
4.390095 1.245322 0.470054 84.000000
4.394853 1.232117 0.470149 76.000000
4.399572 1.218894 0.470244 68.000000
4.407131 1.206443 0.470624 76.000000
4.413694 1.193697 0.470908 70.000000
4.417336 1.180150 0.470908 75.000000
4.426711 1.168118 0.471478 59.000000
4.432200 1.155034 0.471668 88.000000
4.434759 1.141182 0.471573 93.000000
4.441133 1.128307 0.471858 78.000000
4.445539 1.114919 0.471953 79.000000
4.450871 1.101754 0.472143 90.000000
4.452297 1.087621 0.471953 81.000000
4.453677 1.073489 0.471763 82.000000
4.455013 1.059359 0.471573 85.000000
4.457273 1.045459 0.471478 95.000000
4.460459 1.031779 0.471478 86.000000
4.465545 1.018533 0.471668 93.000000
4.473504 1.005921 0.472143 108.000000
4.478513 0.992624 0.472333 97.000000
4.483482 0.979304 0.472523 96.000000
4.488412 0.965964 0.472713 86.000000
4.494276 0.952809 0.472998 79.000000
4.498152 0.939220 0.473093 84.000000
4.503938 0.926018 0.473378 77.000000
4.506757 0.912196 0.473378 75.000000
4.507582 0.897976 0.473188 78.000000
4.507386 0.883567 0.472903 66.000000
4.508120 0.869357 0.472713 75.000000
4.508810 0.855151 0.472523 87.000000
4.514349 0.841862 0.472808 96.000000
4.518867 0.828368 0.472998 70.000000
4.523348 0.814853 0.473188 88.000000
4.527787 0.801320 0.473378 84.000000
4.530223 0.787425 0.473378 85.000000
4.534581 0.773858 0.473568 89.000000
4.538897 0.760272 0.473758 96.000000
4.547101 0.747313 0.474328 103.000000
4.554286 0.734153 0.474803 113.000000
4.551601 0.719399 0.474328 121.000000
4.560673 0.706500 0.474992 108.000000
4.558882 0.691906 0.474613 79.000000
4.562953 0.678210 0.474803 84.000000
4.563042 0.663920 0.474613 73.000000
4.359610 1.471732 0.415596 43.000000
4.365050 1.458666 0.415678 40.000000
4.361934 1.442765 0.415019 48.000000
4.363499 1.428446 0.414771 73.000000
4.367861 1.415052 0.414771 72.000000
4.373131 1.401949 0.414854 58.000000
4.376461 1.388225 0.414771 73.000000
4.377847 1.373896 0.414524 50.000000
4.382993 1.360754 0.414606 64.000000
4.387147 1.347301 0.414606 49.000000
4.394121 1.334704 0.414854 61.000000
4.400104 1.321790 0.415019 59.000000
4.407005 1.309135 0.415266 70.000000
4.414825 1.296732 0.415596 61.000000
4.418783 1.283181 0.415596 54.000000
4.421741 1.269344 0.415514 65.000000
4.424655 1.255500 0.415431 76.000000
4.428486 1.241919 0.415431 60.000000
4.428434 1.227263 0.415101 68.000000
4.431217 1.213408 0.415019 59.000000
4.434919 1.199807 0.415019 67.000000
4.436654 1.185681 0.414854 62.000000
4.440270 1.172064 0.414854 62.000000
4.442881 1.158185 0.414771 51.000000
4.446414 1.144549 0.414771 62.000000
4.453767 1.131883 0.415101 69.000000
4.459152 1.118699 0.415266 65.000000
4.465466 1.105731 0.415514 72.000000
4.470773 1.092499 0.415678 70.000000
4.474104 1.078778 0.415678 68.000000
4.475453 1.064586 0.415514 55.000000
4.478698 1.050850 0.415514 52.000000
4.478988 1.036431 0.415266 61.000000
4.481175 1.022463 0.415184 49.000000
4.483318 1.008492 0.415101 61.000000
4.487365 0.994948 0.415184 51.000000
4.497211 0.982665 0.415761 45.000000
4.501180 0.969073 0.415843 50.000000
4.510956 0.956705 0.416421 68.000000
4.516797 0.943473 0.416668 61.000000
4.522598 0.930213 0.416915 66.000000
4.526408 0.916531 0.416998 59.000000
4.529198 0.902640 0.416998 80.000000
4.531946 0.888740 0.416998 88.000000
4.537587 0.875398 0.417245 76.000000
4.545147 0.862402 0.417658 81.000000
4.550711 0.849001 0.417905 71.000000
4.555254 0.835395 0.418070 72.000000
4.556815 0.821239 0.417987 72.000000
4.559313 0.807255 0.417987 61.000000
4.561768 0.793264 0.417987 65.000000
4.564180 0.779265 0.417987 63.000000
4.569499 0.765752 0.418235 61.000000
4.574776 0.752215 0.418482 71.000000
4.579031 0.738493 0.418647 60.000000
4.583243 0.724752 0.418812 81.000000
4.584461 0.710535 0.418730 63.000000
4.586618 0.696467 0.418730 61.000000
4.588734 0.682392 0.418730 64.000000
4.590806 0.668311 0.418730 45.000000
4.375675 1.490061 0.362349 62.000000
4.378335 1.475992 0.362208 89.000000
4.382843 1.462552 0.362208 72.000000
4.387309 1.449099 0.362208 74.000000
4.387942 1.434391 0.361925 54.000000
4.390424 1.420308 0.361784 74.000000
4.392861 1.406223 0.361643 65.000000
4.395253 1.392136 0.361502 74.000000
4.396648 1.377750 0.361290 78.000000
4.400854 1.364254 0.361290 78.000000
4.405019 1.350746 0.361290 77.000000
4.410096 1.337515 0.361360 63.000000
4.415135 1.324266 0.361431 74.000000
4.421089 1.311282 0.361572 58.000000
4.425091 1.297712 0.361572 40.000000
4.430967 1.284686 0.361713 53.000000
4.436806 1.271636 0.361855 64.000000
4.435888 1.256658 0.361502 39.000000
4.447407 1.245196 0.362067 64.000000
4.449283 1.231013 0.361925 65.000000
4.453039 1.217357 0.361925 61.000000
4.454827 1.203169 0.361784 66.000000
4.457534 1.189239 0.361713 70.000000
4.461161 1.175558 0.361713 55.000000
4.463781 1.161614 0.361643 56.000000
4.466358 1.147666 0.361572 81.000000
4.470825 1.134203 0.361643 71.000000
4.475251 1.120724 0.361713 73.000000
4.479637 1.107228 0.361784 77.000000
4.484951 1.093953 0.361925 73.000000
4.488286 1.080188 0.361925 81.000000
4.492549 1.066644 0.361996 69.000000
4.497743 1.053311 0.362137 73.000000
4.500953 1.039508 0.362137 79.000000
4.504121 1.025694 0.362137 66.000000
4.506273 1.011652 0.362067 78.000000
4.509356 0.997822 0.362067 78.000000
4.515319 0.984621 0.362279 75.000000
4.522220 0.971603 0.362561 63.000000
4.527131 0.958138 0.362702 69.000000
4.534931 0.945263 0.363055 69.000000
4.538787 0.931547 0.363126 70.000000
4.542601 0.917815 0.363197 59.000000
4.548330 0.904459 0.363409 56.000000
4.550105 0.890309 0.363338 64.000000
4.554774 0.876723 0.363479 63.000000
4.559403 0.863116 0.363620 68.000000
4.563991 0.849490 0.363762 71.000000
4.568537 0.835843 0.363903 86.000000
4.572062 0.822000 0.363974 76.000000
4.576527 0.808317 0.364115 77.000000
4.578985 0.794272 0.364115 92.000000
4.582384 0.780388 0.364185 93.000000
4.583772 0.766161 0.364115 77.000000
4.583149 0.751610 0.363903 104.000000
4.584448 0.737387 0.363832 96.000000
4.586689 0.723318 0.363832 93.000000
4.591844 0.709701 0.364044 103.000000
4.596958 0.696059 0.364256 100.000000
4.603019 0.682538 0.364539 102.000000
4.608052 0.668844 0.364750 73.000000
4.613045 0.655125 0.364962 95.000000
4.636770 0.643994 0.366516 27.000000
4.388325 1.495585 0.305017 43.000000
4.393839 1.482433 0.305075 39.000000
4.394578 1.467682 0.304842 69.000000
4.398113 1.453879 0.304784 77.000000
4.402553 1.440379 0.304784 60.000000
4.404101 1.425943 0.304610 77.000000
4.408456 1.412425 0.304610 74.000000
4.412768 1.398893 0.304610 66.000000
4.417039 1.385348 0.304610 67.000000
4.421268 1.371791 0.304610 60.000000
4.423547 1.357634 0.304494 73.000000
4.429602 1.344636 0.304610 61.000000
4.433707 1.331040 0.304610 67.000000
4.438726 1.317716 0.304668 47.000000
4.444664 1.304654 0.304784 59.000000
4.448646 1.291012 0.304784 56.000000
4.455465 1.278183 0.304959 62.000000
4.458405 1.264235 0.304901 73.000000
4.463223 1.250821 0.304959 67.000000
4.468002 1.237388 0.305017 64.000000
4.470815 1.223411 0.304959 63.000000
4.471655 1.208908 0.304784 66.000000
4.476308 1.195441 0.304842 62.000000
4.478989 1.181447 0.304784 74.000000
4.485491 1.168455 0.304959 58.000000
4.491955 1.155434 0.305133 64.000000
4.493543 1.141157 0.305017 78.000000
4.500897 1.128336 0.305249 61.000000
4.505307 1.114762 0.305307 67.000000
4.508706 1.100934 0.305307 67.000000
4.512062 1.087097 0.305307 63.000000
4.511491 1.072326 0.305075 66.000000
4.512815 1.058024 0.304959 54.000000
4.516040 1.044174 0.304959 51.000000
4.521169 1.030758 0.305075 49.000000
4.526258 1.017320 0.305191 52.000000
4.533257 1.004292 0.305423 59.000000
4.540218 0.991231 0.305656 67.000000
4.545190 0.977717 0.305772 67.000000
4.549144 0.963974 0.305830 59.000000
4.554035 0.950421 0.305946 65.000000
4.557908 0.936646 0.306004 67.000000
4.561738 0.922856 0.306062 67.000000
4.569443 0.909831 0.306353 68.000000
4.573193 0.895999 0.306411 56.000000
4.579841 0.882720 0.306643 72.000000
4.583509 0.868851 0.306701 68.000000
4.583209 0.854237 0.306527 72.000000
4.584826 0.839992 0.306469 73.000000
4.585416 0.825568 0.306353 65.000000
4.584978 0.810975 0.306178 70.000000
4.581543 0.795880 0.305830 46.000000
4.592820 0.783330 0.306353 72.000000
4.596187 0.769400 0.306411 82.000000
4.603451 0.756105 0.306701 74.000000
4.608706 0.742454 0.306875 72.000000
4.613920 0.728778 0.307050 61.000000
4.616134 0.714619 0.307050 78.000000
4.624227 0.701352 0.307398 56.000000
4.620432 0.686282 0.307050 70.000000
4.640299 0.674688 0.308095 41.000000
4.396196 1.481166 0.250163 38.000000
4.407352 1.469886 0.250487 55.000000
4.412790 1.456671 0.250533 45.000000
4.414390 1.442194 0.250395 64.000000
4.418793 1.428644 0.250395 69.000000
4.421253 1.414472 0.250302 75.000000
4.427476 1.401504 0.250395 64.000000
4.433662 1.388512 0.250487 74.000000
4.438854 1.375199 0.250533 81.000000
4.445918 1.362453 0.250672 63.000000
4.451989 1.349387 0.250764 83.000000
4.457065 1.336009 0.250811 72.000000
4.458270 1.321476 0.250672 68.000000
4.460385 1.307230 0.250579 67.000000
4.464375 1.293539 0.250579 58.000000
4.467362 1.279561 0.250533 54.000000
4.471267 1.265850 0.250533 56.000000
4.475129 1.252126 0.250533 56.000000
4.476061 1.237591 0.250395 59.000000
4.483692 1.224907 0.250579 65.000000
4.492250 1.212448 0.250811 51.000000
4.493053 1.197888 0.250672 59.000000
4.497673 1.184352 0.250718 87.000000
4.501286 1.170548 0.250718 67.000000
4.509693 1.157976 0.250949 52.000000
4.510320 1.143398 0.250811 78.000000
4.514776 1.129798 0.250857 77.000000
4.519190 1.116181 0.250903 66.000000
4.520652 1.101838 0.250811 63.000000
4.523040 1.087730 0.250764 82.000000
4.523440 1.073156 0.250626 78.000000
4.524766 1.058817 0.250533 75.000000
4.529940 1.045380 0.250626 64.000000
4.533126 1.031477 0.250626 75.000000
4.540167 1.018441 0.250811 65.000000
4.549122 1.005802 0.251088 65.000000
4.558043 0.993118 0.251365 72.000000
4.563998 0.979760 0.251504 82.000000
4.569915 0.966374 0.251643 60.000000
4.572858 0.952349 0.251643 60.000000
4.578693 0.938918 0.251782 70.000000
4.578615 0.924272 0.251643 72.000000
4.579470 0.909831 0.251550 76.000000
4.581259 0.895585 0.251504 57.000000
4.585948 0.881904 0.251597 43.000000
4.587649 0.867644 0.251550 70.000000
4.595200 0.854480 0.251782 71.000000
4.600748 0.840917 0.251920 61.000000
4.606256 0.827329 0.252059 66.000000
4.613691 0.814063 0.252290 77.000000
4.618135 0.800246 0.252383 80.000000
4.620568 0.786074 0.252383 92.000000
4.623943 0.772059 0.252429 122.000000
4.629247 0.758355 0.252568 110.000000
4.632538 0.744307 0.252614 108.000000
4.637760 0.730559 0.252752 122.000000
4.639980 0.716327 0.252752 97.000000
4.644131 0.702387 0.252845 83.000000
4.647252 0.688283 0.252891 79.000000
4.650331 0.674165 0.252937 37.000000
4.423428 1.476459 0.193603 67.000000
4.439325 1.466642 0.194009 53.000000
4.440004 1.451773 0.193873 50.000000
4.438731 1.436299 0.193670 66.000000
4.443117 1.422675 0.193670 67.000000
4.443649 1.407830 0.193535 69.000000
4.452717 1.395684 0.193704 58.000000
4.449340 1.379650 0.193433 92.000000
4.458330 1.367458 0.193603 68.000000
4.469199 1.355804 0.193840 62.000000
4.473338 1.342086 0.193840 68.000000
4.477434 1.328356 0.193840 70.000000
4.481488 1.314613 0.193840 70.000000
4.484540 1.300579 0.193806 69.000000
4.496195 1.289018 0.194077 45.000000
4.490513 1.272493 0.193738 67.000000
4.489584 1.257363 0.193569 59.000000
4.498236 1.244916 0.193738 52.000000
4.501070 1.230846 0.193704 76.000000
4.516404 1.220159 0.194110 49.000000
4.517229 1.205524 0.194009 70.000000
4.522839 1.192169 0.194077 61.000000
4.529377 1.179042 0.194178 59.000000
4.534909 1.165638 0.194246 58.000000
4.535557 1.150983 0.194144 58.000000
4.536159 1.136334 0.194043 73.000000
4.536713 1.121693 0.193941 77.000000
4.536249 1.106822 0.193806 85.000000
4.539623 1.092899 0.193806 77.000000
4.541010 1.078505 0.193738 63.000000
4.545271 1.064796 0.193772 73.000000
4.553385 1.051971 0.193941 69.000000
4.554642 1.037553 0.193873 49.000000
4.565605 1.025326 0.194144 57.000000
4.572633 1.012177 0.194280 54.000000
4.579622 0.998996 0.194415 52.000000
4.580711 0.984521 0.194347 44.000000
4.589577 0.971705 0.194551 57.000000
4.595472 0.958231 0.194652 62.000000
4.603285 0.945133 0.194821 55.000000
4.609102 0.931599 0.194923 53.000000
4.612918 0.917649 0.194957 64.000000
4.615712 0.903493 0.194957 71.000000
4.618463 0.889328 0.194957 70.000000
4.621169 0.875154 0.194957 54.000000
4.623832 0.860973 0.194957 51.000000
4.629401 0.847322 0.195058 61.000000
4.633946 0.833469 0.195126 64.000000
4.639434 0.819770 0.195228 58.000000
4.645866 0.806216 0.195363 56.000000
4.650288 0.792294 0.195431 71.000000
4.650725 0.777694 0.195363 87.000000
4.656048 0.763907 0.195465 54.000000
4.655410 0.749143 0.195363 70.000000
4.659660 0.735168 0.195431 71.000000
4.668808 0.721938 0.195668 54.000000
4.671989 0.707760 0.195702 52.000000
4.676116 0.693717 0.195769 46.000000
4.696025 0.681951 0.196379 14.000000
4.448441 1.485321 0.137353 59.000000
4.454875 1.472294 0.137396 61.000000
4.456522 1.457686 0.137331 70.000000
4.461923 1.444315 0.137353 95.000000
4.463477 1.429704 0.137288 97.000000
4.459266 1.413283 0.137093 61.000000
4.468350 1.401092 0.137202 84.000000
4.472628 1.387377 0.137202 74.000000
4.477818 1.373942 0.137223 75.000000
4.482970 1.360488 0.137245 76.000000
4.488080 1.347016 0.137266 96.000000
4.491232 1.332956 0.137245 87.000000
4.494342 1.318889 0.137223 77.000000
4.498367 1.305094 0.137223 73.000000
4.504272 1.291839 0.137266 85.000000
4.509175 1.278287 0.137288 73.000000
4.514039 1.264717 0.137310 49.000000
4.515007 1.250061 0.137245 62.000000
4.521714 1.236995 0.137310 70.000000
4.522593 1.222334 0.137245 77.000000
4.526321 1.208453 0.137245 80.000000
4.530974 1.194816 0.137266 71.000000
4.534618 1.180910 0.137266 80.000000
4.542093 1.167989 0.137353 81.000000
4.542748 1.153310 0.137288 89.000000
4.547235 1.139611 0.137310 59.000000
4.551680 1.125895 0.137331 68.000000
4.553170 1.111450 0.137288 61.000000
4.561419 1.098648 0.137396 75.000000
4.568658 1.085574 0.137483 79.000000
4.575861 1.072466 0.137569 72.000000
4.583999 1.059550 0.137678 72.000000
4.588203 1.045703 0.137699 76.000000
4.591390 1.031622 0.137699 78.000000
4.592581 1.017098 0.137656 89.000000
4.595679 1.003004 0.137656 85.000000
4.599713 0.989110 0.137678 79.000000
4.601747 0.974786 0.137656 54.000000
4.608631 0.961481 0.137743 76.000000
4.614497 0.947942 0.137807 73.000000
4.619343 0.934177 0.137851 58.000000
4.626109 0.920783 0.137937 74.000000
4.632837 0.907355 0.138024 55.000000
4.634617 0.892948 0.138002 62.000000
4.643228 0.879843 0.138132 70.000000
4.641974 0.864861 0.138046 57.000000
4.643622 0.850435 0.138024 78.000000
4.645226 0.836007 0.138002 100.000000
4.647769 0.821752 0.138002 78.000000
4.650268 0.807489 0.138002 97.000000
4.656666 0.793891 0.138089 95.000000
4.660065 0.779766 0.138110 92.000000
4.665395 0.765952 0.138175 87.000000
4.670684 0.752113 0.138240 84.000000
4.672970 0.737780 0.138240 90.000000
4.673235 0.723134 0.138197 95.000000
4.678397 0.709243 0.138262 91.000000
4.678573 0.694593 0.138219 80.000000
4.466814 1.490073 0.079593 60.000000
4.481810 1.479810 0.079694 47.000000
4.478725 1.463568 0.079620 68.000000
4.491757 1.452590 0.079704 46.000000
4.493335 1.437888 0.079676 82.000000
4.499632 1.424699 0.079694 68.000000
4.512570 1.413578 0.079778 51.000000
4.519751 1.400614 0.079805 53.000000
4.522115 1.386155 0.079787 53.000000
4.525389 1.371985 0.079778 58.000000
4.525745 1.356946 0.079741 61.000000
4.531805 1.343624 0.079759 44.000000
4.530148 1.328027 0.079704 51.000000
4.528438 1.312452 0.079648 58.000000
4.530520 1.298003 0.079630 55.000000
4.535444 1.284369 0.079639 53.000000
4.552845 1.274221 0.079768 28.000000
4.547094 1.257582 0.079676 53.000000
4.549002 1.243099 0.079657 59.000000
4.555691 1.229919 0.079685 49.000000
4.563307 1.216967 0.079722 52.000000
4.565085 1.202451 0.079704 57.000000
4.581334 1.191712 0.079824 43.000000
4.599497 1.181381 0.079963 31.000000
4.592437 1.164562 0.079861 40.000000
4.589198 1.148768 0.079796 53.000000
4.599497 1.136361 0.079861 41.000000
4.603932 1.122481 0.079870 44.000000
4.607355 1.108352 0.079870 49.000000
4.612679 1.094673 0.079889 51.000000
4.619910 1.081427 0.079926 41.000000
4.621258 1.066799 0.079907 54.000000
4.626459 1.053060 0.079926 51.000000
4.635523 1.040174 0.079981 37.000000
4.641621 1.026595 0.080009 38.000000
4.633024 1.009796 0.079898 43.000000
4.636100 0.995577 0.079898 41.000000
4.634241 0.980315 0.079852 55.000000
4.637228 0.966093 0.079852 49.000000
4.639190 0.951660 0.079842 40.000000
4.647968 0.938610 0.079898 42.000000
4.650826 0.924346 0.079898 43.000000
4.656584 0.910649 0.079926 48.000000
4.669176 0.898246 0.080018 33.000000
4.667980 0.883174 0.079981 44.000000
4.673616 0.869397 0.080009 57.000000
4.677246 0.855234 0.080018 45.000000
4.678863 0.840704 0.080009 49.000000
4.681421 0.826346 0.080009 48.000000
4.682948 0.811809 0.080000 59.000000
4.684431 0.797270 0.079990 51.000000
4.686855 0.782894 0.079990 62.000000
4.699103 0.770128 0.080083 57.000000
4.699469 0.755391 0.080064 67.000000
4.703740 0.741281 0.080083 29.000000
4.705992 0.726846 0.080083 46.000000
4.708200 0.712405 0.080083 42.000000
4.712341 0.698250 0.080101 47.000000
4.730935 1.309903 0.019954 24.000000
4.651021 1.272404 0.020242 38.000000
4.654903 1.258129 0.020242 48.000000
4.653911 1.242551 0.020259 54.000000
4.663502 1.229799 0.020239 80.000000
4.661448 1.213972 0.020259 75.000000
4.658370 1.197920 0.020282 67.000000
4.655240 1.181899 0.020305 64.000000
4.654964 1.166638 0.020318 66.000000
4.655609 1.151630 0.020328 70.000000
4.665921 1.139003 0.020305 81.000000
4.668421 1.124449 0.020308 83.000000
4.667957 1.109195 0.020322 75.000000
4.672312 1.095097 0.020318 57.000000
4.680521 1.081885 0.020302 78.000000
4.687718 1.068410 0.020289 62.000000
4.689023 1.053584 0.020295 45.000000
4.703948 1.041791 0.020255 58.000000
4.710053 1.027995 0.020245 55.000000
4.722960 1.015645 0.020212 42.000000
4.740728 1.004262 0.020163 66.000000
4.744765 0.989918 0.020159 81.000000
4.756596 0.977170 0.020129 66.000000
4.732128 0.957015 0.020222 38.000000
4.768386 0.949138 0.020109 17.000000
4.737235 1.296292 -0.040726 30.000000
4.682309 1.265839 -0.039768 66.000000
4.681340 1.250178 -0.039689 87.000000
4.682253 1.235046 -0.039642 62.000000
4.676344 1.218155 -0.039485 40.000000
4.664566 1.199819 -0.039234 48.000000
4.666286 1.185010 -0.039202 77.000000
4.661171 1.168501 -0.039061 71.000000
4.660851 1.153235 -0.038998 60.000000
4.658539 1.137508 -0.038904 65.000000
4.662008 1.123210 -0.038904 51.000000
4.666404 1.109133 -0.038920 64.000000
4.671732 1.095268 -0.038951 52.000000
4.679941 1.082056 -0.039030 56.000000
4.691038 1.069470 -0.039155 49.000000
4.703077 1.057046 -0.039297 52.000000
4.718989 1.045423 -0.039501 41.000000
4.731943 1.033072 -0.039658 60.000000
4.741933 1.020021 -0.039768 48.000000
4.760691 1.008783 -0.040019 49.000000
4.776487 0.996827 -0.040223 58.000000
4.787359 0.983778 -0.040349 58.000000
4.801135 0.971266 -0.040522 46.000000
4.810956 0.957898 -0.040632 15.000000
4.694467 1.299796 -0.098593 17.000000
4.682042 1.280899 -0.098122 37.000000
4.677266 1.264179 -0.097872 41.000000
4.678225 1.249049 -0.097789 36.000000
4.661738 1.229333 -0.097206 53.000000
4.657750 1.213008 -0.096984 64.000000
4.651768 1.196221 -0.096707 87.000000
4.641853 1.178497 -0.096318 55.000000
4.638660 1.162547 -0.096124 63.000000
4.636383 1.146869 -0.095957 76.000000
4.635995 1.131690 -0.095846 80.000000
4.638474 1.117228 -0.095819 72.000000
4.644797 1.103686 -0.095902 68.000000
4.651081 1.090116 -0.095985 54.000000
4.659273 1.076968 -0.096124 76.000000
4.669377 1.064225 -0.096318 68.000000
4.677496 1.050992 -0.096457 75.000000
4.687530 1.038151 -0.096651 55.000000
4.697529 1.025259 -0.096845 48.000000
4.712379 1.013367 -0.097178 54.000000
4.731111 1.002223 -0.097622 65.000000
4.749820 0.990974 -0.098066 28.000000
4.756754 0.977202 -0.098177 34.000000
4.773446 0.965382 -0.098566 25.000000
4.784228 0.952295 -0.098788 28.000000
4.680008 1.280637 -0.158910 29.000000
4.660765 1.260016 -0.157942 65.000000
4.657851 1.243907 -0.157660 56.000000
4.651018 1.226809 -0.157217 71.000000
4.647024 1.210520 -0.156894 65.000000
4.640071 1.193520 -0.156451 67.000000
4.634995 1.177066 -0.156088 46.000000
4.628892 1.160412 -0.155685 69.000000
4.628551 1.145245 -0.155524 58.000000
4.629130 1.130329 -0.155403 60.000000
4.633548 1.116356 -0.155443 57.000000
4.639867 1.102828 -0.155564 63.000000
4.646147 1.089272 -0.155685 59.000000
4.656281 1.076588 -0.155967 55.000000
4.664434 1.063407 -0.156169 51.000000
4.671574 1.049968 -0.156330 62.000000
4.678676 1.036495 -0.156491 47.000000
4.691596 1.024267 -0.156894 66.000000
4.703507 1.011759 -0.157257 53.000000
4.722229 1.000637 -0.157902 81.000000
4.733102 0.987777 -0.158225 55.000000
4.744919 0.975061 -0.158587 58.000000
4.752785 0.961489 -0.158789 29.000000
4.664320 1.289694 -0.216613 26.000000
4.651879 1.270900 -0.215723 34.000000
4.647079 1.254278 -0.215252 54.000000
4.648976 1.239500 -0.215147 50.000000
4.645998 1.223450 -0.214781 76.000000
4.642964 1.207429 -0.214415 55.000000
4.638909 1.191190 -0.213996 59.000000
4.633831 1.174742 -0.213525 66.000000
4.630632 1.158821 -0.213159 74.000000
4.610898 1.138857 -0.211903 125.000000
4.629894 1.128492 -0.212740 78.000000
4.633334 1.114283 -0.212740 78.000000
4.636730 1.100063 -0.212740 62.000000
4.640084 1.085832 -0.212740 59.000000
4.646312 1.072266 -0.212897 71.000000
4.655422 1.059337 -0.213211 66.000000
4.651830 1.043518 -0.212845 88.000000
4.676460 1.033990 -0.213996 55.000000
4.697172 1.023469 -0.214938 35.000000
4.696385 1.008214 -0.214729 64.000000
4.710203 0.996076 -0.215304 57.000000
4.714214 0.981825 -0.215357 43.000000
4.722095 0.968361 -0.215618 37.000000
4.737769 0.956441 -0.216299 23.000000
4.640258 1.285078 -0.275006 38.000000
4.641292 1.270046 -0.274812 39.000000
4.628789 1.251375 -0.273712 58.000000
4.626822 1.235623 -0.273324 70.000000
4.627696 1.220659 -0.273129 71.000000
4.628522 1.205702 -0.272935 63.000000
4.625434 1.189756 -0.272482 51.000000
4.629063 1.175560 -0.272482 65.000000
4.630712 1.160868 -0.272353 49.000000
4.635220 1.146895 -0.272418 62.000000
4.637747 1.132432 -0.272353 42.000000
4.641200 1.118199 -0.272353 68.000000
4.640725 1.103032 -0.272094 55.000000
4.639229 1.087650 -0.271771 52.000000
4.640600 1.072963 -0.271641 51.000000
4.642897 1.058499 -0.271577 57.000000
4.646122 1.044250 -0.271577 68.000000
4.653202 1.030854 -0.271835 68.000000
4.666092 1.018701 -0.272482 71.000000
4.681878 1.007108 -0.273324 53.000000
4.697637 0.995427 -0.274165 42.000000
4.705553 0.982030 -0.274488 46.000000
4.714408 0.968793 -0.274877 51.000000
4.728117 0.956501 -0.275588 45.000000
4.742774 0.944328 -0.276365 19.000000
4.606023 1.288785 -0.329797 25.000000
4.626292 1.279169 -0.331098 31.000000
4.618653 1.261814 -0.330179 37.000000
4.613840 1.245298 -0.329490 50.000000
4.610895 1.229337 -0.328955 61.000000
4.613681 1.214931 -0.328878 47.000000
4.615457 1.200268 -0.328725 63.000000
4.618151 1.185855 -0.328648 66.000000
4.623701 1.172171 -0.328801 53.000000
4.629210 1.158465 -0.328955 71.000000
4.636614 1.145214 -0.329261 62.000000
4.640105 1.130984 -0.329261 77.000000
4.658094 1.120244 -0.330409 106.000000
4.659569 1.105487 -0.330256 35.000000
4.667792 1.092324 -0.330639 29.000000
4.665292 1.076651 -0.330179 45.000000
4.669546 1.062555 -0.330256 50.000000
4.665974 1.046694 -0.329720 93.000000
4.665269 1.031512 -0.329414 53.000000
4.666463 1.016770 -0.329261 76.000000
4.668586 1.002239 -0.329184 64.000000
4.679442 0.989563 -0.329797 48.000000
4.699049 0.978662 -0.331098 33.000000
4.698123 0.963439 -0.330792 41.000000
4.713762 0.951589 -0.331787 32.000000
4.722526 0.938290 -0.332246 29.000000
4.622540 1.278441 -0.389607 61.000000
4.618753 1.262154 -0.388897 64.000000
4.615872 1.246161 -0.388276 69.000000
4.614861 1.230711 -0.387832 64.000000
4.614763 1.215532 -0.387477 61.000000
4.614614 1.200366 -0.387122 84.000000
4.619240 1.186450 -0.387211 88.000000
4.630582 1.174231 -0.387921 68.000000
4.639961 1.161470 -0.388453 58.000000
4.646403 1.147946 -0.388719 80.000000
4.657645 1.135572 -0.389429 57.000000
4.666918 1.122675 -0.389962 66.000000
4.695538 1.114329 -0.392268 123.000000
4.674688 1.094245 -0.390050 69.000000
4.675112 1.079226 -0.389784 74.000000
4.677429 1.064657 -0.389695 36.000000
4.677758 1.049648 -0.389429 48.000000
4.677066 1.034432 -0.389074 51.000000
4.676325 1.019230 -0.388719 48.000000
4.678455 1.004669 -0.388631 54.000000
4.688338 0.991754 -0.389252 49.000000
4.697209 0.978584 -0.389784 44.000000
4.707995 0.965769 -0.390494 36.000000
4.716794 0.952503 -0.391026 31.000000
4.723602 0.938804 -0.391381 11.000000
4.666697 1.291226 -0.454906 14.000000
4.633212 1.266661 -0.450958 34.000000
4.629394 1.250364 -0.450148 40.000000
4.626479 1.234358 -0.449440 57.000000
4.626397 1.219144 -0.449035 49.000000
4.629153 1.204694 -0.448933 39.000000
4.632827 1.190486 -0.448933 67.000000
4.642242 1.177736 -0.449541 52.000000
4.654519 1.165666 -0.450452 57.000000
4.667731 1.153770 -0.451464 48.000000
4.681880 1.142040 -0.452578 42.000000
4.694066 1.129768 -0.453489 38.000000
4.710093 1.118352 -0.454805 99.000000
4.710596 1.103216 -0.454501 44.000000
4.706204 1.086966 -0.453691 37.000000
4.701756 1.070753 -0.452881 43.000000
4.696284 1.054359 -0.451970 37.000000
4.693669 1.038656 -0.451363 38.000000
4.691001 1.022977 -0.450756 38.000000
4.693145 1.008371 -0.450654 44.000000
4.703030 0.995412 -0.451363 47.000000
4.711905 0.982198 -0.451970 43.000000
4.723666 0.969540 -0.452881 31.000000
4.744170 0.958594 -0.454704 26.000000
4.657938 1.273729 -0.511358 60.000000
4.654150 1.257360 -0.510454 65.000000
4.653186 1.241795 -0.509889 57.000000
4.649287 1.225488 -0.508985 75.000000
4.649179 1.210217 -0.508533 78.000000
4.651907 1.195701 -0.508420 89.000000
4.658443 1.182156 -0.508759 68.000000
4.668795 1.169549 -0.509550 67.000000
4.675255 1.155935 -0.509889 71.000000
4.698085 1.146294 -0.512150 56.000000
4.730560 1.138850 -0.515540 34.000000
4.731655 1.108443 -0.514862 57.000000
4.732129 1.093251 -0.514523 56.000000
4.723835 1.076080 -0.513167 59.000000
4.722267 1.060494 -0.512602 36.000000
4.709976 1.042567 -0.510793 56.000000
4.704415 1.026207 -0.509776 63.000000
4.702684 1.010726 -0.509211 64.000000
4.702847 0.995676 -0.508872 82.000000
4.712688 0.982663 -0.509663 48.000000
4.717628 0.968599 -0.509889 51.000000
4.729342 0.955892 -0.510906 30.000000
4.702752 1.285691 -0.577726 30.000000
4.666450 1.260382 -0.572462 37.000000
4.661667 1.243756 -0.571334 52.000000
4.658746 1.227677 -0.570457 54.000000
4.657691 1.212128 -0.569830 43.000000
4.662348 1.198079 -0.569956 62.000000
4.672733 1.185479 -0.570833 64.000000
4.692708 1.175239 -0.572964 39.000000
4.704958 1.162982 -0.574092 40.000000
4.718143 1.150895 -0.575345 45.000000
4.748820 1.112177 -0.577977 23.000000
4.737710 1.094250 -0.576097 24.000000
4.725568 1.076182 -0.574092 30.000000
4.723040 1.060373 -0.573340 68.000000
4.708836 1.042016 -0.571084 30.000000
4.714919 1.028199 -0.571460 45.000000
4.713201 1.012686 -0.570833 37.000000
4.721138 0.999250 -0.571460 45.000000
4.725153 0.984963 -0.571585 40.000000
4.733012 0.971461 -0.572212 36.000000
4.750556 0.959886 -0.574092 19.000000
4.679482 1.265949 -0.634301 48.000000
4.691957 1.253887 -0.635538 41.000000
4.667050 1.231905 -0.631415 77.000000
4.671766 1.217831 -0.631552 85.000000
4.680276 1.204726 -0.632239 68.000000
4.682990 1.190118 -0.632102 105.000000
4.701992 1.179600 -0.634301 72.000000
4.718088 1.168263 -0.636088 74.000000
4.729347 1.155663 -0.637187 59.000000
4.750894 1.099325 -0.638287 52.000000
4.742655 1.082102 -0.636638 73.000000
4.741121 1.066460 -0.635951 51.000000
4.737601 1.050409 -0.634988 72.000000
4.733060 1.034178 -0.633889 63.000000
4.730401 1.018402 -0.633064 77.000000
4.730596 1.003269 -0.632652 72.000000
4.751104 0.992395 -0.635126 37.000000
4.786144 0.984396 -0.639661 19.000000
4.711308 1.271630 -0.697716 63.000000
4.715187 1.257170 -0.697716 109.000000
4.717110 1.242194 -0.697417 108.000000
4.729511 1.229958 -0.698760 156.000000
4.721769 1.212489 -0.696970 111.000000
4.723550 1.197510 -0.696671 78.000000
4.724324 1.182292 -0.696224 56.000000
4.743288 1.171590 -0.698611 23.000000
4.799722 1.092209 -0.704131 34.000000
4.766388 1.069245 -0.698461 59.000000
4.760957 1.052694 -0.697119 77.000000
4.762232 1.037661 -0.696820 55.000000
4.768293 1.023669 -0.697268 44.000000
4.772379 1.009240 -0.697417 69.000000
4.778357 0.995200 -0.697865 74.000000
4.788168 0.981927 -0.698909 39.000000
4.707555 1.288173 -0.757849 47.000000
4.695288 1.269347 -0.755111 89.000000
4.701067 1.255445 -0.755433 114.000000
4.707760 1.241771 -0.755916 121.000000
4.714412 1.228068 -0.756400 119.000000
4.724849 1.215319 -0.757527 109.000000
4.733338 1.202032 -0.758333 113.000000
4.742747 1.188944 -0.759299 102.000000
4.755953 1.176758 -0.760910 81.000000
4.771047 1.164970 -0.762843 48.000000
4.780657 1.089894 -0.761554 77.000000
4.783016 1.075006 -0.761393 113.000000
4.785328 1.060113 -0.761232 95.000000
4.783736 1.044375 -0.760427 98.000000
4.783058 1.028864 -0.759782 96.000000
4.778468 1.012549 -0.758494 112.000000
4.791214 0.999899 -0.760105 74.000000
4.794259 0.985195 -0.760105 69.000000
4.823377 0.975764 -0.764454 25.000000
