ply
format ascii 1.0
element vertex 892
property float x
property float y
property float z
property float intensity
end_header
4.285468 1.446711 0.520256 49.000000
4.291773 1.434186 0.520469 48.000000
4.298985 1.421949 0.520790 36.000000
4.300492 1.407825 0.520469 45.000000
4.309520 1.396157 0.521003 43.000000
4.313784 1.382929 0.521003 47.000000
4.322745 1.371191 0.521537 46.000000
4.325034 1.357327 0.521324 43.000000
4.331077 1.344641 0.521537 37.000000
4.336132 1.331639 0.521644 37.000000
4.341148 1.318618 0.521751 41.000000
4.348031 1.306152 0.522071 41.000000
4.351064 1.292523 0.521964 49.000000
4.351193 1.278047 0.521537 46.000000
4.354138 1.264415 0.521430 39.000000
4.351307 1.249131 0.520683 44.000000
4.353207 1.235233 0.520469 40.000000
4.352189 1.220529 0.519935 56.000000
4.353038 1.206375 0.519615 55.000000
4.353841 1.192227 0.519295 49.000000
4.359398 1.179383 0.519508 48.000000
4.362996 1.166003 0.519508 48.000000
4.372321 1.154134 0.520149 54.000000
4.378727 1.141467 0.520469 45.000000
4.385098 1.128771 0.520790 38.000000
4.389504 1.115557 0.520896 37.000000
4.395799 1.102811 0.521217 51.000000
4.398196 1.089080 0.521110 74.000000
4.406346 1.076761 0.521644 51.000000
4.415429 1.064636 0.522285 40.000000
4.413838 1.049934 0.521751 53.000000
4.418006 1.036615 0.521858 48.000000
4.428916 1.024849 0.522712 43.000000
4.423314 1.009266 0.521751 44.000000
4.426390 0.995691 0.521751 47.000000
4.430395 0.982321 0.521858 51.000000
4.431445 0.968300 0.521644 42.000000
4.435367 0.954909 0.521751 35.000000
4.445084 0.942741 0.522498 32.000000
4.438222 0.927067 0.521430 40.000000
4.452733 0.915849 0.522712 51.000000
4.455522 0.902184 0.522712 45.000000
4.461194 0.889093 0.523032 52.000000
4.458046 0.874254 0.522391 44.000000
4.469493 0.862268 0.523352 45.000000
4.472118 0.848551 0.523352 46.000000
4.477633 0.835374 0.523673 57.000000
4.478219 0.821274 0.523459 48.000000
4.484631 0.808236 0.523886 47.000000
4.491006 0.795167 0.524314 49.000000
4.495383 0.781726 0.524527 59.000000
4.498741 0.768098 0.524634 65.000000
4.499115 0.753964 0.524420 49.000000
4.504350 0.740641 0.524741 53.000000
4.496785 0.725236 0.523673 43.000000
4.501935 0.711902 0.523993 48.000000
4.504098 0.698087 0.523993 42.000000
4.512117 0.685160 0.524634 52.000000
4.514198 0.671314 0.524634 52.000000
4.517220 0.657605 0.524741 45.000000
4.497561 0.640660 0.522391 20.000000
4.292579 1.448721 0.466919 65.000000
4.297947 1.435861 0.467014 78.000000
4.307057 1.424232 0.467489 73.000000
4.314244 1.411941 0.467774 78.000000
4.318556 1.398698 0.467774 101.000000
4.322827 1.385442 0.467774 99.000000
4.326108 1.371872 0.467679 95.000000
4.327447 1.357699 0.467394 99.000000
4.333494 1.345007 0.467584 73.000000
4.335697 1.331121 0.467394 74.000000
4.339760 1.317813 0.467394 69.000000
4.345689 1.305066 0.467584 65.000000
4.349673 1.291727 0.467584 88.000000
4.355525 1.278938 0.467774 82.000000
4.359429 1.265569 0.467774 80.000000
4.360421 1.251364 0.467489 73.000000
4.367112 1.238796 0.467774 71.000000
4.370892 1.225392 0.467774 69.000000
4.374631 1.211977 0.467774 70.000000
4.380249 1.199076 0.467964 67.000000
4.384868 1.185892 0.468059 74.000000
4.386562 1.171920 0.467869 93.000000
4.389174 1.158202 0.467774 83.000000
4.394633 1.145234 0.467964 78.000000
4.401019 1.132491 0.468249 73.000000
4.404472 1.118983 0.468249 87.000000
4.407884 1.105465 0.468249 91.000000
4.409323 1.091458 0.468059 95.000000
4.407815 1.076743 0.467584 95.000000
4.402389 1.061113 0.466729 104.000000
4.411434 1.048985 0.467299 100.000000
4.416570 1.035901 0.467489 98.000000
4.425546 1.023694 0.468059 100.000000
4.433518 1.011220 0.468534 96.000000
4.440485 0.998488 0.468914 86.000000
4.443527 0.984860 0.468914 71.000000
4.445555 0.971010 0.468819 110.000000
4.449486 0.957576 0.468914 84.000000
4.449481 0.943301 0.468629 94.000000
4.453329 0.929849 0.468724 89.000000
4.455186 0.915982 0.468629 76.000000
4.461877 0.903100 0.469009 79.000000
4.469509 0.890381 0.469484 89.000000
4.473196 0.876856 0.469579 104.000000
4.483685 0.864638 0.470339 79.000000
4.489250 0.851436 0.470624 69.000000
4.489884 0.837293 0.470434 74.000000
4.491452 0.823335 0.470339 72.000000
4.491019 0.809021 0.470054 87.000000
4.484658 0.793675 0.469199 99.000000
4.488052 0.780084 0.469294 94.000000
4.491405 0.766479 0.469389 88.000000
4.496681 0.753190 0.469674 108.000000
4.502900 0.740037 0.470054 99.000000
4.511045 0.727171 0.470624 105.000000
4.516205 0.713795 0.470908 104.000000
4.517390 0.699784 0.470813 96.000000
4.519516 0.685921 0.470813 79.000000
4.519629 0.671759 0.470624 91.000000
4.518713 0.657459 0.470339 97.000000
4.329393 1.461535 0.412957 47.000000
4.333857 1.448245 0.412957 46.000000
4.340172 1.435568 0.413122 41.000000
4.339820 1.420696 0.412710 54.000000
4.341313 1.406454 0.412463 57.000000
4.343710 1.392520 0.412298 66.000000
4.346062 1.378585 0.412133 51.000000
4.349320 1.364946 0.412050 52.000000
4.348728 1.350119 0.411638 72.000000
4.355708 1.337649 0.411885 51.000000
4.360745 1.324569 0.411968 57.000000
4.363834 1.310897 0.411885 58.000000
4.365924 1.296936 0.411720 59.000000
4.370839 1.283816 0.411803 58.000000
4.375714 1.270678 0.411885 50.000000
4.381507 1.257798 0.412050 56.000000
4.387264 1.244893 0.412215 62.000000
4.397779 1.233311 0.412792 49.000000
4.406345 1.221143 0.413205 45.000000
4.409109 1.207356 0.413122 66.000000
4.412792 1.193823 0.413122 61.000000
4.416434 1.180279 0.413122 58.000000
4.418108 1.166216 0.412957 58.000000
4.420700 1.152404 0.412875 54.000000
4.424215 1.138836 0.412875 49.000000
4.429619 1.125749 0.413040 58.000000
4.434019 1.112396 0.413122 55.000000
4.439346 1.099266 0.413287 53.000000
4.443666 1.085878 0.413370 49.000000
4.446976 1.072240 0.413370 60.000000
4.449275 1.058361 0.413287 68.000000
4.453472 1.044933 0.413370 58.000000
4.453743 1.030592 0.413122 50.000000
4.459799 1.017588 0.413370 45.000000
4.460955 1.003463 0.413205 56.000000
4.460121 0.988910 0.412875 44.000000
4.463134 0.975222 0.412875 52.000000
4.463182 0.960895 0.412627 51.000000
4.465134 0.946991 0.412545 43.000000
4.471921 0.934103 0.412875 67.000000
4.471837 0.919777 0.412627 53.000000
4.480499 0.907239 0.413122 53.000000
4.489125 0.894657 0.413617 74.000000
4.496739 0.881839 0.414029 70.000000
4.503337 0.868794 0.414359 62.000000
4.505002 0.854788 0.414277 51.000000
4.509563 0.841328 0.414442 76.000000
4.512123 0.827489 0.414442 69.000000
4.513659 0.813466 0.414359 58.000000
4.516134 0.799614 0.414359 63.000000
4.520529 0.786096 0.414524 65.000000
4.525867 0.772727 0.414771 72.000000
4.532148 0.759496 0.415101 62.000000
4.536423 0.745912 0.415266 67.000000
4.540659 0.732308 0.415431 68.000000
4.545837 0.718841 0.415678 81.000000
4.547037 0.704738 0.415596 67.000000
4.550162 0.690934 0.415678 53.000000
4.550289 0.676678 0.415514 48.000000
4.552343 0.662715 0.415514 51.000000
4.355651 1.468338 0.360513 46.000000
4.358243 1.454336 0.360372 60.000000
4.360790 1.440332 0.360230 59.000000
4.364241 1.426637 0.360160 63.000000
4.365750 1.412319 0.359948 64.000000
4.370062 1.398918 0.359948 66.000000
4.372432 1.384902 0.359807 70.000000
4.375709 1.371182 0.359736 65.000000
4.378942 1.357456 0.359665 73.000000
4.383086 1.344015 0.359665 76.000000
4.386234 1.330272 0.359595 79.000000
4.388384 1.316235 0.359453 75.000000
4.393358 1.303049 0.359524 63.000000
4.397335 1.289565 0.359524 69.000000
4.401270 1.276068 0.359524 65.000000
4.407082 1.263109 0.359665 46.000000
4.411897 1.249854 0.359736 61.000000
4.418591 1.237121 0.359948 60.000000
4.421405 1.223292 0.359877 76.000000
4.423213 1.209195 0.359736 74.000000
4.427865 1.195880 0.359807 50.000000
4.428622 1.181517 0.359595 52.000000
4.429332 1.167162 0.359383 82.000000
4.433857 1.153819 0.359453 67.000000
4.437376 1.140211 0.359453 66.000000
4.441821 1.126837 0.359524 87.000000
4.449127 1.114175 0.359807 81.000000
4.453493 1.100759 0.359877 71.000000
4.456849 1.087091 0.359877 75.000000
4.462102 1.073880 0.360018 66.000000
4.466346 1.060416 0.360089 78.000000
4.470550 1.046936 0.360160 69.000000
4.474712 1.033440 0.360230 64.000000
4.476889 1.019486 0.360160 60.000000
4.479996 1.005746 0.360160 64.000000
4.481113 0.991565 0.360018 78.000000
4.484134 0.977813 0.360018 81.000000
4.488088 0.964261 0.360089 64.000000
4.491025 0.950487 0.360089 74.000000
4.495873 0.937112 0.360230 61.000000
4.498727 0.923314 0.360230 68.000000
4.500560 0.909310 0.360160 60.000000
4.504307 0.895693 0.360230 60.000000
4.506055 0.881678 0.360160 65.000000
4.509718 0.868038 0.360230 73.000000
4.512361 0.854199 0.360230 54.000000
4.513979 0.840168 0.360160 51.000000
4.517516 0.826495 0.360230 70.000000
4.520031 0.812632 0.360230 71.000000
4.523485 0.798935 0.360301 82.000000
4.526898 0.785224 0.360372 72.000000
4.530269 0.771499 0.360442 80.000000
4.536549 0.758256 0.360725 81.000000
4.543777 0.745143 0.361078 81.000000
4.548995 0.731675 0.361290 75.000000
4.557130 0.718649 0.361713 99.000000
4.562271 0.705123 0.361925 97.000000
4.567371 0.691571 0.362137 70.000000
4.570458 0.677702 0.362208 82.000000
4.571528 0.663533 0.362137 62.000000
4.368481 1.488823 0.303797 52.000000
4.369245 1.474138 0.303565 74.000000
4.373746 1.460726 0.303565 82.000000
4.378208 1.447301 0.303565 67.000000
4.382627 1.433862 0.303565 56.000000
4.387005 1.420409 0.303565 75.000000
4.391343 1.406944 0.303565 75.000000
4.395638 1.393464 0.303565 67.000000
4.398940 1.379673 0.303506 69.000000
4.404106 1.366467 0.303565 59.000000
4.407322 1.352656 0.303506 60.000000
4.410497 1.338838 0.303448 51.000000
4.413627 1.325014 0.303390 56.000000
4.414800 1.310615 0.303216 63.000000
4.418800 1.297064 0.303216 58.000000
4.424677 1.284058 0.303332 81.000000
4.429554 1.270752 0.303390 60.000000
4.436314 1.257973 0.303565 54.000000
4.441114 1.244626 0.303623 57.000000
4.444911 1.230995 0.303623 62.000000
4.446741 1.216826 0.303506 66.000000
4.448525 1.202657 0.303390 76.000000
4.449301 1.188231 0.303216 63.000000
4.450030 1.173811 0.303042 55.000000
4.452643 1.159902 0.302984 57.000000
4.457148 1.146484 0.303042 66.000000
4.461612 1.133050 0.303100 48.000000
4.468941 1.120328 0.303332 55.000000
4.474295 1.107091 0.303448 62.000000
4.479610 1.093832 0.303565 80.000000
4.482945 1.080084 0.303565 70.000000
4.486238 1.066326 0.303565 65.000000
4.488516 1.052329 0.303506 68.000000
4.489778 1.038104 0.303390 65.000000
4.490022 1.023659 0.303216 61.000000
4.492167 1.009660 0.303158 57.000000
4.499142 0.996737 0.303390 65.000000
4.506080 0.983781 0.303623 55.000000
4.511030 0.970371 0.303739 49.000000
4.516915 0.957148 0.303913 55.000000
4.522762 0.943897 0.304087 50.000000
4.525637 0.930017 0.304087 58.000000
4.527491 0.915930 0.304029 68.000000
4.528321 0.901646 0.303913 58.000000
4.531066 0.887749 0.303913 55.000000
4.533768 0.873844 0.303913 56.000000
4.537409 0.860116 0.303971 61.000000
4.542970 0.846740 0.304145 61.000000
4.546528 0.832978 0.304204 57.000000
4.551028 0.819380 0.304320 58.000000
4.554503 0.805587 0.304378 74.000000
4.555969 0.791440 0.304320 64.000000
4.559360 0.777626 0.304378 90.000000
4.563694 0.763964 0.304494 68.000000
4.570941 0.750768 0.304784 82.000000
4.576180 0.737217 0.304959 55.000000
4.582365 0.723797 0.305191 60.000000
4.590484 0.710651 0.305540 52.000000
4.594616 0.696863 0.305656 83.000000
4.594758 0.682471 0.305540 67.000000
4.594854 0.668084 0.305423 66.000000
4.594905 0.653703 0.305307 69.000000
4.620620 0.642903 0.306701 22.000000
4.374611 1.488849 0.249331 60.000000
4.373479 1.473506 0.249054 76.000000
4.377979 1.460081 0.249054 77.000000
4.383387 1.446956 0.249100 70.000000
4.388754 1.433812 0.249146 72.000000
4.394083 1.420648 0.249192 80.000000
4.399372 1.407465 0.249239 77.000000
4.402717 1.393660 0.249192 74.000000
4.407926 1.380445 0.249239 77.000000
4.413093 1.367211 0.249285 64.000000
4.417267 1.353665 0.249285 86.000000
4.422356 1.340397 0.249331 76.000000
4.430274 1.327971 0.249516 77.000000
4.434328 1.314373 0.249516 53.000000
4.441215 1.301606 0.249655 64.000000
4.446146 1.288253 0.249701 57.000000
4.447197 1.273780 0.249562 54.000000
4.449162 1.259586 0.249470 70.000000
4.449158 1.244852 0.249285 55.000000
4.449105 1.230131 0.249100 60.000000
4.451894 1.216212 0.249054 57.000000
4.456569 1.202808 0.249100 61.000000
4.461203 1.189388 0.249146 47.000000
4.467729 1.176459 0.249285 67.000000
4.474218 1.163502 0.249424 63.000000
4.481637 1.150764 0.249609 73.000000
4.486114 1.137255 0.249655 64.000000
4.489582 1.123487 0.249655 58.000000
4.493008 1.109708 0.249655 70.000000
4.493479 1.095208 0.249516 51.000000
4.496819 1.081417 0.249516 67.000000
4.501087 1.067846 0.249562 90.000000
4.502397 1.053577 0.249470 86.000000
4.507554 1.040208 0.249562 60.000000
4.511698 1.026596 0.249609 67.000000
4.514826 1.012750 0.249609 54.000000
4.525715 1.000621 0.249978 76.000000
4.531692 0.987370 0.250117 73.000000
4.534699 0.973462 0.250117 57.000000
4.537665 0.959545 0.250117 73.000000
4.536675 0.944804 0.249932 61.000000
4.537595 0.930479 0.249840 66.000000
4.536512 0.915762 0.249655 52.000000
4.540280 0.902035 0.249701 63.000000
4.545967 0.888677 0.249840 51.000000
4.550634 0.875104 0.249932 53.000000
4.556242 0.861696 0.250071 40.000000
4.563775 0.848628 0.250302 80.000000
4.571270 0.835522 0.250533 74.000000
4.578727 0.822378 0.250764 60.000000
4.584180 0.808848 0.250903 85.000000
4.590577 0.795463 0.251088 73.000000
4.595950 0.781879 0.251227 69.000000
4.600297 0.768105 0.251319 81.000000
4.603618 0.754149 0.251365 94.000000
4.605910 0.740022 0.251365 99.000000
4.605198 0.725421 0.251227 90.000000
4.607402 0.711289 0.251227 85.000000
4.606600 0.696701 0.251088 87.000000
4.605751 0.682126 0.250949 87.000000
4.604857 0.667561 0.250811 59.000000
4.622707 0.655679 0.251550 41.000000
4.394254 1.481722 0.192722 35.000000
4.402571 1.469499 0.192858 52.000000
4.407059 1.455985 0.192858 54.000000
4.413405 1.443079 0.192926 57.000000
4.417811 1.429532 0.192926 68.000000
4.422176 1.415972 0.192926 71.000000
4.428405 1.403001 0.192993 68.000000
4.430781 1.388811 0.192926 57.000000
4.433112 1.374619 0.192858 66.000000
4.441131 1.362184 0.192993 53.000000
4.440507 1.347102 0.192824 59.000000
4.444619 1.333472 0.192824 64.000000
4.450605 1.320399 0.192892 61.000000
4.455594 1.307019 0.192926 58.000000
4.462462 1.294179 0.193027 68.000000
4.466412 1.280482 0.193027 73.000000
4.469358 1.266501 0.192993 49.000000
4.473223 1.252783 0.192993 51.000000
4.478008 1.239320 0.193027 66.000000
4.484682 1.226366 0.193129 58.000000
4.486493 1.212080 0.193061 43.000000
4.492122 1.198826 0.193129 62.000000
4.496745 1.185293 0.193163 53.000000
4.500360 1.171492 0.193163 63.000000
4.505869 1.158177 0.193230 53.000000
4.504558 1.143119 0.193061 54.000000
4.507074 1.129051 0.193027 64.000000
4.509546 1.114978 0.192993 48.000000
4.517801 1.102322 0.193163 51.000000
4.523105 1.088924 0.193230 60.000000
4.526424 1.075042 0.193230 63.000000
4.529701 1.061150 0.193230 47.000000
4.541699 1.049272 0.193535 41.000000
4.538076 1.033780 0.193298 60.000000
4.542201 1.020072 0.193332 67.000000
4.545310 1.006132 0.193332 56.000000
4.548375 0.992182 0.193332 55.000000
4.552374 0.978433 0.193366 61.000000
4.555355 0.964462 0.193366 64.000000
4.559271 0.950686 0.193400 58.000000
4.560208 0.936292 0.193332 56.000000
4.560120 0.921703 0.193230 49.000000
4.561946 0.907514 0.193196 45.000000
4.570594 0.894665 0.193400 58.000000
4.576262 0.881205 0.193501 90.000000
4.575997 0.866604 0.193400 59.000000
4.578635 0.852560 0.193400 58.000000
4.583195 0.838869 0.193467 61.000000
4.587714 0.825158 0.193535 56.000000
4.597114 0.812296 0.193772 62.000000
4.607462 0.799555 0.194043 66.000000
4.612849 0.785919 0.194144 76.000000
4.616224 0.771928 0.194178 57.000000
4.618571 0.757762 0.194178 75.000000
4.621860 0.743747 0.194212 68.000000
4.623133 0.729408 0.194178 68.000000
4.625349 0.715221 0.194178 52.000000
4.623569 0.700429 0.194043 55.000000
4.641514 0.688586 0.194584 34.000000
4.669321 0.678075 0.195465 23.000000
4.427580 1.478349 0.136877 66.000000
4.430196 1.464131 0.136834 70.000000
4.431818 1.449599 0.136769 61.000000
4.435292 1.435688 0.136747 68.000000
4.440628 1.422379 0.136769 90.000000
4.444018 1.408446 0.136747 95.000000
4.446411 1.394207 0.136704 78.000000
4.451622 1.380855 0.136725 86.000000
4.452014 1.366017 0.136639 74.000000
4.459054 1.353224 0.136704 73.000000
4.463185 1.339538 0.136704 60.000000
4.467273 1.325838 0.136704 69.000000
4.472279 1.312409 0.136725 75.000000
4.473404 1.297845 0.136661 61.000000
4.479287 1.284667 0.136704 51.000000
4.481283 1.270373 0.136661 61.000000
4.489010 1.257698 0.136747 48.000000
4.492848 1.243920 0.136747 59.000000
4.502429 1.231714 0.136877 68.000000
4.509081 1.218679 0.136942 71.000000
4.512799 1.204839 0.136942 62.000000
4.514541 1.190478 0.136899 74.000000
4.516237 1.176118 0.136855 67.000000
4.517888 1.161758 0.136812 66.000000
4.519493 1.147400 0.136769 69.000000
4.523962 1.133772 0.136790 59.000000
4.530330 1.120608 0.136855 74.000000
4.536660 1.107416 0.136920 57.000000
4.541980 1.093961 0.136964 66.000000
4.543370 1.079559 0.136920 67.000000
4.545687 1.065386 0.136899 81.000000
4.546012 1.050759 0.136834 72.000000
4.547265 1.036363 0.136790 79.000000
4.549448 1.022187 0.136769 78.000000
4.552562 1.008225 0.136769 74.000000
4.557588 0.994680 0.136812 74.000000
4.562572 0.981114 0.136855 75.000000
4.567517 0.967526 0.136899 63.000000
4.574378 0.954326 0.136985 77.000000
4.580223 0.940892 0.137050 73.000000
4.587007 0.927629 0.137137 66.000000
4.596695 0.914920 0.137288 66.000000
4.599480 0.900814 0.137288 69.000000
4.604186 0.887077 0.137331 69.000000
4.607868 0.873134 0.137353 62.000000
4.613473 0.859543 0.137418 57.000000
4.617072 0.845565 0.137440 60.000000
4.618660 0.831219 0.137418 65.000000
4.621189 0.817045 0.137418 80.000000
4.628598 0.803720 0.137526 91.000000
4.631043 0.789516 0.137526 72.000000
4.634429 0.775470 0.137548 79.000000
4.636786 0.761248 0.137548 70.000000
4.639100 0.747019 0.137548 98.000000
4.639395 0.732471 0.137505 90.000000
4.637668 0.717621 0.137418 78.000000
4.639848 0.703390 0.137418 87.000000
4.641984 0.689152 0.137418 92.000000
4.623301 0.671882 0.136964 25.000000
4.453534 1.485644 0.079463 61.000000
4.461869 1.473227 0.079500 63.000000
4.466368 1.459532 0.079500 51.000000
4.471776 1.446130 0.079509 73.000000
4.478096 1.433013 0.079528 64.000000
4.477705 1.417759 0.079482 66.000000
4.479171 1.403118 0.079454 67.000000
4.482500 1.389074 0.079445 86.000000
4.484828 1.374729 0.079426 71.000000
4.490938 1.361544 0.079445 57.000000
4.492221 1.346898 0.079417 63.000000
4.491538 1.331689 0.079371 59.000000
4.495603 1.317903 0.079371 59.000000
4.496743 1.303269 0.079343 73.000000
4.501681 1.289743 0.079352 56.000000
4.513315 1.278105 0.079426 51.000000
4.517214 1.264252 0.079426 52.000000
4.522036 1.250654 0.079435 64.000000
4.525851 1.236775 0.079435 65.000000
4.527694 1.222363 0.079417 68.000000
4.529490 1.207951 0.079398 73.000000
4.527372 1.192521 0.079343 65.000000
4.531010 1.178626 0.079343 70.000000
4.532668 1.164222 0.079324 74.000000
4.538157 1.150802 0.079343 49.000000
4.545546 1.137845 0.079380 75.000000
4.551928 1.124613 0.079408 64.000000
4.561186 1.112063 0.079463 58.000000
4.569437 1.099233 0.079509 58.000000
4.571815 1.084979 0.079500 66.000000
4.576096 1.071175 0.079509 55.000000
4.578386 1.056906 0.079500 63.000000
4.581607 1.042855 0.079500 65.000000
4.582834 1.028356 0.079482 69.000000
4.585967 1.014291 0.079482 66.000000
4.588081 1.000004 0.079472 57.000000
4.589171 0.985504 0.079454 49.000000
4.592173 0.971420 0.079454 68.000000
4.592196 0.956715 0.079426 57.000000
4.596088 0.942822 0.079435 56.000000
4.603860 0.929707 0.079482 67.000000
4.610614 0.916357 0.079519 44.000000
4.618310 0.903167 0.079565 46.000000
4.626951 0.890127 0.079620 74.000000
4.632608 0.876485 0.079648 66.000000
4.639208 0.862999 0.079685 57.000000
4.643801 0.849122 0.079704 71.000000
4.649336 0.835401 0.079731 66.000000
4.653848 0.821481 0.079750 62.000000
4.657331 0.807370 0.079759 58.000000
4.662744 0.793581 0.079787 59.000000
4.665156 0.779272 0.079787 65.000000
4.668512 0.765117 0.079796 71.000000
4.672812 0.751108 0.079815 62.000000
4.678058 0.737235 0.079842 68.000000
4.683262 0.723337 0.079870 59.000000
4.685460 0.708966 0.079870 59.000000
4.681677 0.693709 0.079815 42.000000
4.469372 1.492315 0.020607 51.000000
4.478677 1.480167 0.020590 60.000000
4.481296 1.465797 0.020597 62.000000
4.483869 1.451425 0.020604 64.000000
4.489254 1.437967 0.020600 73.000000
4.493644 1.424188 0.020600 73.000000
4.498946 1.410694 0.020597 67.000000
4.505163 1.397478 0.020590 66.000000
4.504650 1.382182 0.020607 58.000000
4.508869 1.368356 0.020607 67.000000
4.509214 1.353365 0.020620 61.000000
4.507594 1.337816 0.020640 55.000000
4.512637 1.324262 0.020637 66.000000
4.517639 1.310691 0.020633 66.000000
4.523561 1.297377 0.020627 67.000000
4.526558 1.283219 0.020630 52.000000
4.533362 1.270136 0.020620 52.000000
4.538201 1.256489 0.020617 50.000000
4.541070 1.242296 0.020620 65.000000
4.546791 1.228881 0.020613 56.000000
4.550539 1.214925 0.020613 60.000000
4.555212 1.201214 0.020610 52.000000
4.561779 1.187990 0.020600 54.000000
4.565402 1.173989 0.020600 55.000000
4.573828 1.161209 0.020584 63.000000
4.580279 1.147901 0.020574 67.000000
4.582808 1.133603 0.020577 49.000000
4.589179 1.120250 0.020567 53.000000
4.592594 1.106165 0.020567 43.000000
4.593048 1.091376 0.020577 63.000000
4.595401 1.077051 0.020580 59.000000
4.594787 1.062046 0.020594 63.000000
4.597049 1.047722 0.020597 64.000000
4.602193 1.034052 0.020590 64.000000
4.610225 1.021010 0.020574 44.000000
4.611382 1.006435 0.020580 59.000000
4.616402 0.992703 0.020574 67.000000
4.621383 0.978951 0.020567 58.000000
4.624364 0.964768 0.020567 56.000000
4.633180 0.951785 0.020547 40.000000
4.633137 0.936970 0.020557 64.000000
4.639913 0.923534 0.020544 49.000000
4.647631 0.910256 0.020527 47.000000
4.650402 0.895993 0.020527 52.000000
4.657059 0.882468 0.020514 42.000000
4.659744 0.868176 0.020514 39.000000
4.657468 0.852974 0.020531 55.000000
4.660063 0.838681 0.020531 47.000000
4.656706 0.823334 0.020550 69.000000
4.664136 0.809900 0.020534 63.000000
4.670542 0.796260 0.020521 56.000000
4.677894 0.782754 0.020504 54.000000
4.685206 0.769210 0.020487 53.000000
4.693468 0.755788 0.020468 64.000000
4.698728 0.741853 0.020458 89.000000
4.707900 0.728506 0.020434 86.000000
4.714067 0.714660 0.020421 56.000000
4.721183 0.700929 0.020405 82.000000
4.731448 1.294709 -0.040632 23.000000
4.649491 1.256970 -0.039234 39.000000
4.640767 1.239347 -0.039030 57.000000
4.642613 1.224593 -0.038998 63.000000
4.641510 1.209084 -0.038920 57.000000
4.640357 1.193594 -0.038841 40.000000
4.636243 1.177383 -0.038716 54.000000
4.634015 1.161695 -0.038621 70.000000
4.632703 1.146273 -0.038543 72.000000
4.631341 1.130869 -0.038464 70.000000
4.634789 1.116655 -0.038464 75.000000
4.645003 1.104048 -0.038574 47.000000
4.644475 1.088880 -0.038511 72.000000
4.651690 1.075526 -0.038574 73.000000
4.657892 1.061916 -0.038621 56.000000
4.667957 1.049155 -0.038731 69.000000
4.679940 1.036775 -0.038873 64.000000
4.687006 1.023265 -0.038935 45.000000
4.696966 1.010352 -0.039045 41.000000
4.707869 0.997595 -0.039171 32.000000
4.719717 0.984984 -0.039312 32.000000
4.725655 0.971103 -0.039360 42.000000
4.715871 0.954024 -0.039155 68.000000
4.671347 1.293389 -0.097927 32.000000
4.675293 1.279051 -0.097927 30.000000
4.661827 1.260003 -0.097428 44.000000
4.657944 1.243630 -0.097206 58.000000
4.653039 1.227037 -0.096956 49.000000
4.647110 1.210235 -0.096679 77.000000
4.644024 1.194227 -0.096485 92.000000
4.637978 1.177512 -0.096207 49.000000
4.631873 1.160845 -0.095930 57.000000
4.628620 1.144947 -0.095735 77.000000
4.628227 1.129792 -0.095624 62.000000
4.633615 1.116056 -0.095680 70.000000
4.637017 1.101835 -0.095680 83.000000
4.649135 1.089659 -0.095930 47.000000
4.647586 1.074264 -0.095791 71.000000
4.656707 1.061334 -0.095957 76.000000
4.665793 1.048359 -0.096124 65.000000
4.681674 1.036853 -0.096485 54.000000
4.694599 1.024618 -0.096762 41.000000
4.699675 1.010632 -0.096818 46.000000
4.715465 0.998905 -0.097178 43.000000
4.727314 0.986273 -0.097428 56.000000
4.736192 0.972973 -0.097594 56.000000
4.751892 0.961017 -0.097955 34.000000
4.799914 0.955421 -0.099232 26.000000
4.702175 1.286701 -0.159837 24.000000
4.638579 1.254021 -0.157015 57.000000
4.650128 1.241846 -0.157338 45.000000
4.637491 1.223242 -0.156653 72.000000
4.636387 1.207750 -0.156451 70.000000
4.632329 1.191529 -0.156129 64.000000
4.627247 1.175099 -0.155766 48.000000
4.625985 1.159683 -0.155564 72.000000
4.622731 1.143806 -0.155282 70.000000
4.624277 1.129144 -0.155202 54.000000
4.626748 1.114718 -0.155161 66.000000
4.630146 1.100518 -0.155161 72.000000
4.633501 1.086308 -0.155161 38.000000
4.642653 1.073437 -0.155403 46.000000
4.648847 1.059855 -0.155524 62.000000
4.657926 1.046902 -0.155766 50.000000
4.665994 1.033687 -0.155967 55.000000
4.676952 1.021071 -0.156290 57.000000
4.689831 1.008818 -0.156693 62.000000
4.702679 0.996496 -0.157096 55.000000
4.714518 0.983900 -0.157459 71.000000
4.725344 0.971040 -0.157781 58.000000
4.744950 0.959905 -0.158466 34.000000
4.638393 1.267212 -0.214990 36.000000
4.631654 1.250111 -0.214415 46.000000
4.633538 1.235380 -0.214310 51.000000
4.630547 1.219377 -0.213944 65.000000
4.626535 1.203152 -0.213525 69.000000
4.625368 1.187710 -0.213263 59.000000
4.624151 1.172285 -0.213002 71.000000
4.624820 1.157365 -0.212845 66.000000
4.625440 1.142452 -0.212688 98.000000
4.629894 1.128492 -0.212740 78.000000
4.633334 1.114283 -0.212740 69.000000
4.635759 1.099832 -0.212688 70.000000
4.635222 1.084694 -0.212478 71.000000
4.632690 1.069119 -0.212164 59.000000
4.637896 1.055345 -0.212269 60.000000
4.629419 1.038485 -0.211641 95.000000
4.649159 1.027946 -0.212531 70.000000
4.662047 1.015806 -0.213054 45.000000
4.676858 1.004017 -0.213682 44.000000
4.685779 0.990905 -0.213996 61.000000
4.700527 0.978971 -0.214624 52.000000
4.706444 0.965148 -0.214781 54.000000
4.721128 0.953078 -0.215409 32.000000
4.781817 0.950085 -0.218497 10.000000
4.632565 1.282948 -0.274488 33.000000
4.625891 1.265833 -0.273777 51.000000
4.623009 1.249813 -0.273324 51.000000
4.618145 1.233307 -0.272741 54.000000
4.610327 1.216080 -0.271965 47.000000
4.602448 1.198912 -0.271188 60.000000
4.600306 1.183295 -0.270800 56.000000
4.600046 1.168194 -0.270541 66.000000
4.600704 1.153348 -0.270347 73.000000
4.603252 1.138988 -0.270282 50.000000
4.611572 1.126043 -0.270606 59.000000
4.617916 1.112591 -0.270800 64.000000
4.620337 1.098187 -0.270735 70.000000
4.624655 1.084235 -0.270800 58.000000
4.626988 1.069817 -0.270735 65.000000
4.633167 1.056282 -0.270929 52.000000
4.634439 1.041625 -0.270800 38.000000
4.646381 1.029343 -0.271382 78.000000
4.658292 1.016999 -0.271965 65.000000
4.671146 1.004800 -0.272612 64.000000
4.681041 0.991912 -0.273065 55.000000
4.696761 0.980196 -0.273906 43.000000
4.705611 0.966986 -0.274294 38.000000
4.713446 0.953534 -0.274618 50.000000
4.722221 0.940238 -0.275006 35.000000
4.634940 1.281563 -0.331787 26.000000
4.627309 1.264181 -0.330868 31.000000
4.640791 1.252579 -0.331634 26.000000
4.606078 1.228052 -0.328572 63.000000
4.604040 1.212390 -0.328113 52.000000
4.600983 1.196501 -0.327577 49.000000
4.603666 1.182131 -0.327500 51.000000
4.605339 1.167511 -0.327347 71.000000
4.607932 1.153135 -0.327271 70.000000
4.615320 1.139949 -0.327577 58.000000
4.621701 1.126494 -0.327806 63.000000
4.627074 1.112776 -0.327959 93.000000
4.634346 1.099497 -0.328266 45.000000
4.635756 1.084819 -0.328113 31.000000
4.642949 1.071489 -0.328419 43.000000
4.645242 1.057018 -0.328342 33.000000
4.648463 1.042762 -0.328342 80.000000
4.653587 1.028926 -0.328495 90.000000
4.659644 1.015282 -0.328725 61.000000
4.663712 1.001191 -0.328801 69.000000
4.672614 0.988118 -0.329261 59.000000
4.707834 0.980494 -0.331787 32.000000
4.724494 0.968854 -0.332858 24.000000
4.733308 0.955540 -0.333318 22.000000
4.748930 0.943543 -0.334313 19.000000
4.767458 0.932033 -0.335537 10.000000
4.617740 1.277114 -0.389163 48.000000
4.611067 1.260054 -0.388187 67.000000
4.612987 1.245382 -0.388010 66.000000
4.612937 1.230197 -0.387655 71.000000
4.611873 1.214771 -0.387211 84.000000
4.614614 1.200366 -0.387122 70.000000
4.619240 1.186450 -0.387211 57.000000
4.624789 1.172763 -0.387389 73.000000
4.634163 1.160019 -0.387921 71.000000
4.656073 1.150334 -0.389607 39.000000
4.654742 1.134865 -0.389163 47.000000
4.676602 1.125004 -0.390849 60.000000
4.689723 1.112950 -0.391736 87.000000
4.689236 1.097649 -0.391381 72.000000
4.687729 1.082138 -0.390937 56.000000
4.685199 1.066425 -0.390405 61.000000
4.673871 1.048776 -0.389074 39.000000
4.674148 1.033787 -0.388808 48.000000
4.667566 1.017321 -0.387921 48.000000
4.670665 1.002997 -0.387921 58.000000
4.678593 0.989693 -0.388365 47.000000
4.689408 0.976959 -0.389074 47.000000
4.699214 0.963968 -0.389695 44.000000
4.714842 0.952109 -0.390849 36.000000
4.741188 0.942297 -0.392978 24.000000
4.611142 1.260622 -0.448630 21.000000
4.610186 1.245171 -0.448124 49.000000
4.610139 1.229995 -0.447719 47.000000
4.616777 1.216606 -0.448022 57.000000
4.617600 1.201684 -0.447719 69.000000
4.624156 1.188255 -0.448022 45.000000
4.636457 1.176267 -0.448933 36.000000
4.651624 1.164940 -0.450148 45.000000
4.662902 1.152575 -0.450958 34.000000
4.673182 1.139916 -0.451667 32.000000
4.690197 1.128836 -0.453084 38.000000
4.704285 1.116972 -0.454197 65.000000
4.706721 1.102307 -0.454096 57.000000
4.704266 1.086517 -0.453489 35.000000
4.693027 1.068763 -0.451970 33.000000
4.690460 1.053051 -0.451363 31.000000
4.687841 1.037364 -0.450756 52.000000
4.685170 1.021704 -0.450148 45.000000
4.684391 1.006489 -0.449743 57.000000
4.687458 0.992112 -0.449743 45.000000
4.694375 0.978540 -0.450148 45.000000
4.693457 0.963332 -0.449743 55.000000
4.749046 0.959581 -0.455210 23.000000
4.793923 0.953360 -0.459563 12.000000
4.650271 1.271633 -0.510454 35.000000
4.648395 1.255806 -0.509776 80.000000
4.646466 1.240002 -0.509098 59.000000
4.643523 1.223969 -0.508307 71.000000
4.641486 1.208216 -0.507628 87.000000
4.642284 1.193228 -0.507289 75.000000
4.647850 1.179469 -0.507515 68.000000
4.659156 1.167135 -0.508420 72.000000
4.670432 1.154743 -0.509324 71.000000
4.684571 1.142998 -0.510567 51.000000
4.704478 1.132573 -0.512489 38.000000
4.720046 1.105724 -0.513506 43.000000
4.721479 1.090791 -0.513280 48.000000
4.723835 1.076080 -0.513167 32.000000
4.714511 1.058753 -0.511697 67.000000
4.713856 1.043426 -0.511245 51.000000
4.711211 1.027689 -0.510567 54.000000
4.709485 1.012187 -0.510002 71.000000
4.714511 0.998145 -0.510228 72.000000
4.719497 0.984082 -0.510454 56.000000
4.723467 0.969798 -0.510567 52.000000
4.730316 0.956089 -0.511019 48.000000
4.723804 1.291452 -0.580484 14.000000
4.684646 1.265302 -0.574844 28.000000
4.683713 1.249643 -0.574217 32.000000
4.668339 1.230207 -0.571710 42.000000
4.668252 1.214879 -0.571209 48.000000
4.667152 1.199315 -0.570582 61.000000
4.670810 1.184991 -0.570582 41.000000
4.681159 1.172344 -0.571460 51.000000
4.692439 1.159884 -0.572462 43.000000
4.703686 1.147365 -0.573465 45.000000
4.743835 1.141759 -0.578228 20.000000
4.730944 1.092686 -0.575220 38.000000
4.731372 1.077505 -0.574844 35.000000
4.730784 1.062114 -0.574342 44.000000
4.726271 1.045878 -0.573340 50.000000
4.724611 1.030315 -0.572713 42.000000
4.725810 1.015398 -0.572462 42.000000
4.728903 1.000895 -0.572462 50.000000
4.747490 0.989625 -0.574468 31.000000
4.745645 0.974057 -0.573841 35.000000
4.784591 0.966772 -0.578478 24.000000
4.691912 1.269310 -0.636088 29.000000
4.675689 1.249541 -0.633202 48.000000
4.664177 1.231147 -0.631002 70.000000
4.657388 1.214084 -0.629491 90.000000
4.663010 1.200283 -0.629766 90.000000
4.673390 1.187679 -0.630728 88.000000
4.686620 1.175745 -0.632102 94.000000
4.699820 1.163741 -0.633476 58.000000
4.703368 1.149317 -0.633476 68.000000
4.759579 1.101334 -0.639524 33.000000
4.747484 1.083203 -0.637325 69.000000
4.746919 1.067764 -0.636775 55.000000
4.741469 1.051266 -0.635538 64.000000
4.736931 1.035024 -0.634439 67.000000
4.734274 1.019236 -0.633614 59.000000
4.730596 1.003269 -0.632652 72.000000
4.753043 0.992800 -0.635401 52.000000
4.821072 0.991577 -0.644610 27.000000
4.695080 1.267246 -0.695179 59.000000
4.688437 1.250031 -0.693538 74.000000
4.701811 1.238162 -0.695030 120.000000
4.703674 1.223233 -0.694732 129.000000
4.703574 1.207812 -0.694135 121.000000
4.705340 1.192889 -0.693837 85.000000
4.714733 1.179889 -0.694732 65.000000
4.770165 1.178235 -0.702788 29.000000
4.776583 1.086938 -0.700550 34.000000
4.763494 1.068595 -0.698014 59.000000
4.767715 1.054190 -0.698163 92.000000
4.765131 1.038293 -0.697268 58.000000
4.780861 1.026370 -0.699207 36.000000
4.775281 1.009855 -0.697865 56.000000
4.792877 0.998227 -0.700103 83.000000
4.808508 0.986104 -0.702042 44.000000
4.722786 1.292339 -0.760427 49.000000
4.707674 1.272694 -0.757205 84.000000
4.710603 1.257990 -0.757044 116.000000
4.711577 1.242778 -0.756561 105.000000
4.715367 1.228317 -0.756561 113.000000
4.718158 1.213599 -0.756400 101.000000
4.723772 1.199604 -0.756722 110.000000
4.728387 1.185346 -0.756883 108.000000
4.734876 1.171545 -0.757366 89.000000
4.745160 1.158651 -0.758494 51.000000
4.777770 1.089236 -0.761071 60.000000
4.779164 1.074141 -0.760749 88.000000
4.779546 1.058833 -0.760266 123.000000
4.783736 1.044375 -0.760427 87.000000
4.784988 1.029279 -0.760105 102.000000
4.790054 1.015003 -0.760427 91.000000
4.789281 0.999496 -0.759782 97.000000
4.809727 0.988373 -0.762682 65.000000
4.835953 0.978307 -0.766548 39.000000
