ply
format ascii 1.0
element vertex 1284
property float x
property float y
property float z
property float intensity
end_header
2.808024 1.083679 0.468705 37.000000
2.815033 1.076474 0.469277 41.000000
2.822024 1.069237 0.469849 44.000000
2.823438 1.059877 0.469563 32.000000
2.830387 1.052592 0.470135 46.000000
2.835459 1.044588 0.470421 43.000000
2.839581 1.036224 0.470564 43.000000
2.845538 1.028518 0.470993 51.000000
2.844954 1.018447 0.470421 58.000000
2.857392 1.013025 0.471851 37.000000
2.857685 1.003269 0.471422 50.000000
2.857946 0.993521 0.470993 34.000000
2.863787 0.985716 0.471422 37.000000
2.866798 0.976925 0.471422 58.000000
2.866969 0.967175 0.470993 40.000000
2.872738 0.959316 0.471422 44.000000
2.867212 0.947700 0.470135 38.000000
2.872927 0.939823 0.470564 45.000000
2.875797 0.931005 0.470564 52.000000
2.878640 0.922177 0.470564 38.000000
2.884286 0.914240 0.470993 58.000000
2.891798 0.906869 0.471708 52.000000
2.897402 0.898874 0.472137 45.000000
2.903931 0.891144 0.472709 47.000000
2.906651 0.882230 0.472709 58.000000
2.916926 0.875588 0.473852 50.000000
2.919599 0.866635 0.473852 50.000000
2.922244 0.857673 0.473852 45.000000
2.932465 0.850913 0.474996 28.000000
2.929354 0.840273 0.474138 47.000000
2.933822 0.831823 0.474424 42.000000
2.936361 0.822818 0.474424 57.000000
2.936010 0.813012 0.473995 52.000000
2.937536 0.803739 0.473852 42.000000
2.940943 0.794982 0.473995 45.000000
2.940500 0.785188 0.473566 28.000000
2.947680 0.777427 0.474281 41.000000
2.951966 0.768880 0.474567 35.000000
2.955270 0.760066 0.474710 49.000000
2.961424 0.751972 0.475282 36.000000
2.968517 0.744088 0.475997 43.000000
2.974629 0.735930 0.476569 38.000000
2.980718 0.727740 0.477141 47.000000
2.982937 0.718592 0.477141 37.000000
2.988979 0.710354 0.477713 66.000000
2.991144 0.701181 0.477713 42.000000
2.989424 0.691108 0.477141 40.000000
2.987671 0.681052 0.476569 45.000000
2.990712 0.672100 0.476712 57.000000
2.988895 0.662064 0.476140 50.000000
2.992846 0.653314 0.476426 43.000000
2.997739 0.644754 0.476855 56.000000
2.998734 0.635348 0.476712 44.000000
3.011326 0.628374 0.478285 35.000000
3.018086 0.620130 0.478999 37.000000
3.019975 0.610868 0.478999 31.000000
3.019894 0.601212 0.478714 34.000000
3.020753 0.591754 0.478571 37.000000
2.996316 0.577417 0.474710 6.000000
2.770742 1.198575 0.433142 48.000000
2.778050 1.191632 0.433666 50.000000
2.785342 1.184655 0.434190 32.000000
2.784396 1.174179 0.433535 59.000000
2.788900 1.166013 0.433666 49.000000
2.789717 1.156313 0.433273 30.000000
2.795085 1.148502 0.433535 53.000000
2.794923 1.138426 0.433011 42.000000
2.794725 1.128362 0.432486 44.000000
2.802776 1.121624 0.433142 47.000000
2.805282 1.112654 0.433011 50.000000
2.805914 1.102955 0.432617 40.000000
2.810209 1.094701 0.432748 43.000000
2.811704 1.085360 0.432486 55.000000
2.815021 1.076729 0.432486 41.000000
2.820165 1.068790 0.432748 44.000000
2.823431 1.060133 0.432748 43.000000
2.826670 1.051466 0.432748 59.000000
2.832674 1.043817 0.433142 64.000000
2.838656 1.036141 0.433535 50.000000
2.844619 1.028438 0.433928 52.000000
2.846828 1.019372 0.433797 56.000000
2.851810 1.011295 0.434059 54.000000
2.853964 1.002213 0.433928 46.000000
2.859835 0.994429 0.434321 49.000000
2.863809 0.985973 0.434452 45.000000
2.865882 0.976863 0.434321 54.000000
2.868866 0.968066 0.434321 53.000000
2.873703 0.959887 0.434583 55.000000
2.876635 0.951066 0.434583 54.000000
2.881423 0.942853 0.434845 52.000000
2.886189 0.934619 0.435107 58.000000
2.889043 0.925760 0.435107 61.000000
2.894704 0.917791 0.435500 56.000000
2.901290 0.910092 0.436025 42.000000
2.905015 0.901480 0.436156 56.000000
2.905872 0.891982 0.435894 52.000000
2.911441 0.883926 0.436287 55.000000
2.915089 0.875275 0.436418 50.000000
2.919661 0.866892 0.436680 49.000000
2.924210 0.858488 0.436942 44.000000
2.931590 0.850894 0.437597 62.000000
2.937046 0.842716 0.437990 47.000000
2.942479 0.834512 0.438383 59.000000
2.943116 0.824946 0.438121 49.000000
2.945633 0.815913 0.438121 63.000000
2.945254 0.806087 0.437728 45.000000
2.949627 0.797565 0.437990 61.000000
2.950144 0.788001 0.437728 55.000000
2.952548 0.778946 0.437728 52.000000
2.958761 0.770883 0.438252 51.000000
2.965913 0.763037 0.438908 50.000000
2.971123 0.754666 0.439301 55.000000
2.977271 0.746511 0.439825 54.000000
2.977622 0.736897 0.439563 53.000000
2.981795 0.728229 0.439825 53.000000
2.982087 0.718613 0.439563 46.000000
2.988136 0.710377 0.440087 55.000000
2.993197 0.701885 0.440480 39.000000
2.995337 0.692699 0.440480 40.000000
2.998414 0.683726 0.440611 41.000000
3.004367 0.675393 0.441135 65.000000
3.001585 0.665101 0.440480 38.000000
3.007486 0.656735 0.441004 48.000000
3.008517 0.647296 0.440873 44.000000
3.011459 0.638269 0.441004 47.000000
3.016315 0.629634 0.441397 51.000000
3.022116 0.621175 0.441922 45.000000
3.020121 0.611114 0.441397 37.000000
3.023926 0.602233 0.441660 47.000000
3.023814 0.592572 0.441397 46.000000
3.023671 0.582917 0.441135 43.000000
3.024471 0.573453 0.441004 40.000000
3.013546 0.561811 0.439301 22.000000
2.779368 1.172366 0.395591 38.000000
2.783868 1.164217 0.395710 45.000000
2.783758 1.154148 0.395234 45.000000
2.783613 1.144091 0.394759 59.000000
2.788949 1.136295 0.394996 56.000000
2.793342 1.128106 0.395115 53.000000
2.800477 1.121008 0.395591 54.000000
2.806671 1.113511 0.395948 59.000000
2.810998 1.105258 0.396067 61.000000
2.817150 1.097712 0.396423 48.000000
2.822357 1.089779 0.396661 47.000000
2.826614 1.081471 0.396780 63.000000
2.828063 1.072089 0.396542 70.000000
2.825762 1.061311 0.395829 55.000000
2.828074 1.052290 0.395710 66.000000
2.827564 1.042233 0.395234 49.000000
2.828883 1.032872 0.394996 44.000000
2.829237 1.023174 0.394640 57.000000
2.833298 1.014824 0.394759 52.000000
2.840141 1.007456 0.395234 58.000000
2.846965 1.000056 0.395710 62.000000
2.850019 0.991317 0.395710 49.000000
2.856802 0.983863 0.396186 49.000000
2.862626 0.976056 0.396542 63.000000
2.865607 0.967269 0.396542 63.000000
2.866678 0.957843 0.396305 72.000000
2.870545 0.949356 0.396423 60.000000
2.871557 0.939926 0.396186 53.000000
2.879150 0.932644 0.396780 77.000000
2.880107 0.923199 0.396542 57.000000
2.883872 0.914660 0.396661 50.000000
2.887612 0.906105 0.396780 56.000000
2.890378 0.897242 0.396780 61.000000
2.892168 0.888078 0.396661 53.000000
2.898679 0.880357 0.397137 50.000000
2.898514 0.870602 0.396780 55.000000
2.904978 0.862837 0.397256 60.000000
2.909516 0.854481 0.397494 41.000000
2.918798 0.847492 0.398326 56.000000
2.921384 0.838533 0.398326 53.000000
2.925853 0.830109 0.398564 54.000000
2.927430 0.820860 0.398445 68.000000
2.930892 0.812141 0.398564 71.000000
2.933369 0.803145 0.398564 36.000000
2.935820 0.794142 0.398564 56.000000
2.938242 0.785131 0.398564 60.000000
2.945437 0.777382 0.399159 44.000000
2.948769 0.768592 0.399278 68.000000
2.953997 0.760286 0.399634 54.000000
2.956316 0.751219 0.399634 67.000000
2.960533 0.742630 0.399872 52.000000
2.957978 0.732349 0.399278 65.000000
2.956354 0.722326 0.398802 72.000000
2.961451 0.713952 0.399159 56.000000
2.967491 0.705783 0.399634 64.000000
2.968676 0.696449 0.399516 55.000000
2.970799 0.687338 0.399516 81.000000
2.980637 0.679990 0.400467 59.000000
2.992395 0.673025 0.401656 59.000000
2.994446 0.663841 0.401656 69.000000
3.000349 0.655500 0.402132 63.000000
3.004287 0.646711 0.402370 51.000000
3.012084 0.638729 0.403083 64.000000
3.011114 0.628875 0.402726 49.000000
3.014001 0.619834 0.402845 62.000000
3.012970 0.609992 0.402489 72.000000
3.018722 0.601523 0.402964 73.000000
3.022501 0.592642 0.403202 57.000000
3.024305 0.583366 0.403202 51.000000
3.030958 0.575012 0.403797 35.000000
3.033684 0.565893 0.403916 45.000000
3.038335 0.557122 0.404272 40.000000
3.046870 0.549033 0.405105 27.000000
2.789383 1.156743 0.358797 40.000000
2.789240 1.146667 0.358370 50.000000
2.787220 1.135854 0.357729 64.000000
2.793458 1.128415 0.358050 56.000000
2.795984 1.119470 0.357943 51.000000
2.800329 1.111253 0.358050 57.000000
2.805576 1.103384 0.358263 46.000000
2.809874 1.095132 0.358370 59.000000
2.813221 1.086507 0.358370 60.000000
2.819327 1.078937 0.358690 61.000000
2.820764 1.069577 0.358477 56.000000
2.822171 1.060219 0.358263 57.000000
2.826342 1.051902 0.358370 52.000000
2.826757 1.042195 0.358050 66.000000
2.829007 1.033177 0.357943 66.000000
2.834034 1.025169 0.358157 52.000000
2.835294 1.015799 0.357943 81.000000
2.841208 1.008092 0.358263 59.000000
2.850854 1.001677 0.359011 50.000000
2.852975 0.992600 0.358904 43.000000
2.861647 0.985785 0.359545 70.000000
2.865599 0.977321 0.359652 48.000000
2.866700 0.967889 0.359438 69.000000
2.871542 0.959720 0.359652 64.000000
2.871641 0.949969 0.359331 62.000000
2.873597 0.940845 0.359224 68.000000
2.877416 0.932331 0.359331 55.000000
2.879316 0.923196 0.359224 71.000000
2.884978 0.915259 0.359545 52.000000
2.888721 0.906702 0.359652 35.000000
2.894338 0.898719 0.359972 53.000000
2.899933 0.890711 0.360292 53.000000
2.902652 0.881810 0.360292 57.000000
2.906296 0.873186 0.360399 72.000000
2.912774 0.865398 0.360826 59.000000
2.916369 0.856738 0.360933 50.000000
2.919938 0.848064 0.361040 58.000000
2.924438 0.839650 0.361253 47.000000
2.927000 0.830674 0.361253 52.000000
2.929535 0.821690 0.361253 48.000000
2.934916 0.813495 0.361574 53.000000
2.936440 0.804224 0.361467 48.000000
2.939853 0.795471 0.361574 52.000000
2.941319 0.786192 0.361467 55.000000
2.940833 0.776403 0.361147 48.000000
2.941277 0.766875 0.360933 41.000000
2.940727 0.757105 0.360613 61.000000
2.943036 0.748079 0.360613 55.000000
2.945317 0.739047 0.360613 52.000000
2.949501 0.730485 0.360826 58.000000
2.957523 0.722848 0.361467 49.000000
2.961660 0.714237 0.361680 51.000000
2.968674 0.706298 0.362214 56.000000
2.973731 0.697868 0.362535 56.000000
2.980702 0.689861 0.363069 39.000000
2.980865 0.680271 0.362855 48.000000
2.989729 0.672650 0.363603 34.000000
2.991778 0.663474 0.363603 67.000000
2.997685 0.655141 0.364030 52.000000
3.004541 0.646987 0.364564 52.000000
3.010403 0.638591 0.364991 52.000000
3.013321 0.629556 0.365098 61.000000
3.016212 0.620508 0.365204 51.000000
3.018102 0.611252 0.365204 58.000000
3.019963 0.601989 0.365204 45.000000
3.024722 0.593295 0.365525 40.000000
3.026529 0.584013 0.365525 58.000000
3.030260 0.575095 0.365738 38.000000
3.034942 0.566343 0.366059 42.000000
3.038621 0.557387 0.366272 37.000000
3.046188 0.549120 0.366913 39.000000
3.047859 0.539772 0.366913 40.000000
3.049500 0.530419 0.366913 37.000000
3.056994 0.522064 0.367554 13.000000
2.776750 1.120837 0.320370 50.000000
2.781100 1.112682 0.320465 44.000000
2.792827 1.107451 0.321320 54.000000
2.791580 1.097055 0.320845 50.000000
2.794005 1.088124 0.320750 42.000000
2.801973 1.081340 0.321225 42.000000
2.808996 1.074163 0.321605 64.000000
2.809486 1.064481 0.321320 52.000000
2.811807 1.055506 0.321225 60.000000
2.815032 1.046875 0.321225 52.000000
2.819164 1.038578 0.321320 45.000000
2.824207 1.030607 0.321510 40.000000
2.828292 1.022276 0.321605 45.000000
2.828604 1.012587 0.321320 50.000000
2.837326 1.005902 0.321889 58.000000
2.845094 0.998843 0.322364 59.000000
2.846265 0.989455 0.322174 56.000000
2.853052 0.982016 0.322554 51.000000
2.855109 0.972937 0.322459 56.000000
2.856194 0.963536 0.322269 44.000000
2.859137 0.954768 0.322269 71.000000
2.861107 0.945679 0.322174 62.000000
2.863995 0.936897 0.322174 50.000000
2.865909 0.927799 0.322079 49.000000
2.869690 0.919306 0.322174 48.000000
2.878190 0.912305 0.322744 55.000000
2.880975 0.903471 0.322744 71.000000
2.887536 0.895809 0.323124 61.000000
2.892174 0.887531 0.323314 54.000000
2.897741 0.879522 0.323599 76.000000
2.903286 0.871487 0.323884 57.000000
2.905945 0.862576 0.323884 62.000000
2.907623 0.853376 0.323789 64.000000
2.911183 0.844729 0.323884 45.000000
2.915675 0.836344 0.324074 61.000000
2.916312 0.826851 0.323884 63.000000
2.918835 0.817900 0.323884 62.000000
2.921330 0.808941 0.323884 47.000000
2.928599 0.801290 0.324359 57.000000
2.928161 0.791521 0.324074 46.000000
2.931537 0.782791 0.324169 43.000000
2.931037 0.773031 0.323884 52.000000
2.936285 0.764789 0.324169 57.000000
2.937653 0.755529 0.324074 74.000000
2.941887 0.747003 0.324264 58.000000
2.948027 0.738944 0.324644 45.000000
2.956078 0.731332 0.325214 69.000000
2.958308 0.722260 0.325214 62.000000
2.964380 0.714115 0.325594 57.000000
2.969462 0.705708 0.325878 55.000000
2.974521 0.697277 0.326163 39.000000
2.978586 0.688598 0.326353 54.000000
2.978743 0.679013 0.326163 74.000000
2.977899 0.669215 0.325878 54.000000
2.983825 0.660939 0.326258 68.000000
2.984866 0.651569 0.326163 53.000000
2.988798 0.642828 0.326353 66.000000
2.986861 0.632828 0.325973 77.000000
2.991711 0.624273 0.326258 57.000000
2.994588 0.615292 0.326353 54.000000
2.997437 0.606300 0.326448 49.000000
2.997330 0.596711 0.326258 55.000000
3.004031 0.588472 0.326733 48.000000
3.006800 0.579441 0.326828 67.000000
3.012475 0.570957 0.327208 46.000000
3.018127 0.562443 0.327588 50.000000
3.024734 0.554080 0.328063 36.000000
3.030339 0.545504 0.328443 44.000000
3.039840 0.537594 0.329203 39.000000
3.038532 0.527754 0.328918 36.000000
3.046024 0.519435 0.329488 47.000000
3.041713 0.509100 0.328918 39.000000
3.028527 0.497340 0.327493 14.000000
2.804029 1.112720 0.284484 43.000000
2.809284 1.104842 0.284649 55.000000
2.810803 1.095494 0.284484 44.000000
2.816010 1.087584 0.284649 45.000000
2.821195 1.079651 0.284814 49.000000
2.828222 1.072404 0.285144 53.000000
2.831499 1.063722 0.285144 63.000000
2.833815 1.054682 0.285061 63.000000
2.835167 1.045294 0.284896 66.000000
2.836488 1.035908 0.284731 60.000000
2.838716 1.026862 0.284649 52.000000
2.839976 1.017476 0.284484 46.000000
2.842145 1.008425 0.284402 45.000000
2.842405 0.998710 0.284154 60.000000
2.845456 0.989985 0.284154 57.000000
2.849422 0.981575 0.284237 57.000000
2.849590 0.971864 0.283989 61.000000
2.852558 0.963117 0.283989 63.000000
2.858335 0.955308 0.284237 49.000000
2.861252 0.946534 0.284237 60.000000
2.866037 0.938371 0.284402 57.000000
2.867954 0.929267 0.284319 53.000000
2.870792 0.920464 0.284319 69.000000
2.874552 0.911953 0.284402 61.000000
2.878287 0.903428 0.284484 53.000000
2.883901 0.895480 0.284731 49.000000
2.891398 0.888090 0.285144 46.000000
2.897924 0.880374 0.285474 59.000000
2.900611 0.871479 0.285474 44.000000
2.904227 0.862860 0.285556 77.000000
2.905904 0.853665 0.285474 57.000000
2.907552 0.844468 0.285391 57.000000
2.910129 0.835544 0.285391 59.000000
2.911720 0.826340 0.285309 58.000000
2.915201 0.817672 0.285391 47.000000
2.920577 0.809522 0.285639 55.000000
2.931698 0.802926 0.286381 54.000000
2.933186 0.793668 0.286298 64.000000
2.940421 0.785952 0.286711 70.000000
2.945709 0.777690 0.286958 63.000000
2.948081 0.768649 0.286958 46.000000
2.954286 0.760594 0.287288 43.000000
2.956606 0.751527 0.287288 57.000000
2.957931 0.742210 0.287205 60.000000
2.964064 0.734089 0.287535 63.000000
2.963398 0.724283 0.287288 45.000000
2.966574 0.715421 0.287370 60.000000
2.972634 0.707239 0.287700 59.000000
2.978670 0.699026 0.288030 57.000000
2.986627 0.691232 0.288525 74.000000
2.987761 0.681844 0.288442 46.000000
2.991784 0.673112 0.288607 63.000000
2.996754 0.664577 0.288854 57.000000
2.995858 0.654742 0.288607 54.000000
2.994930 0.644919 0.288360 48.000000
2.996894 0.635727 0.288360 44.000000
2.992977 0.625308 0.287865 64.000000
2.992929 0.615721 0.287700 47.000000
2.994804 0.606536 0.287700 55.000000
2.994696 0.596956 0.287535 55.000000
2.999447 0.588341 0.287782 54.000000
3.003195 0.579513 0.287947 58.000000
3.005938 0.570482 0.288030 42.000000
3.011593 0.561988 0.288360 52.000000
3.019185 0.553825 0.288854 42.000000
3.024793 0.545266 0.289184 49.000000
3.030377 0.536678 0.289514 72.000000
3.038882 0.528573 0.290091 48.000000
3.046384 0.520253 0.290586 51.000000
3.046983 0.510740 0.290504 34.000000
3.046568 0.501066 0.290339 33.000000
3.051043 0.492193 0.290586 40.000000
3.050570 0.482519 0.290421 45.000000
3.030370 0.469802 0.288607 10.000000
2.800032 1.089354 0.247792 27.000000
2.804291 1.081118 0.247863 37.000000
2.815049 1.075360 0.248428 48.000000
2.818335 1.066718 0.248428 38.000000
2.827197 1.060170 0.248852 39.000000
2.825762 1.049753 0.248498 56.000000
2.826161 1.040044 0.248287 43.000000
2.828401 1.031026 0.248216 43.000000
2.831551 1.022344 0.248216 48.000000
2.829040 1.011635 0.247792 47.000000
2.832130 1.002951 0.247792 60.000000
2.829547 0.992274 0.247368 54.000000
2.834462 0.984244 0.247510 55.000000
2.842184 0.977167 0.247863 65.000000
2.844224 0.968121 0.247792 55.000000
2.849072 0.960028 0.247933 57.000000
2.856734 0.952862 0.248287 48.000000
2.859644 0.944094 0.248287 43.000000
2.865371 0.936246 0.248498 44.000000
2.867281 0.927144 0.248428 55.000000
2.870112 0.918343 0.248428 57.000000
2.875768 0.910438 0.248640 64.000000
2.878548 0.901611 0.248640 49.000000
2.883206 0.893366 0.248781 54.000000
2.892609 0.886565 0.249275 50.000000
2.894360 0.877397 0.249205 69.000000
2.897994 0.868800 0.249275 56.000000
2.899689 0.859621 0.249205 54.000000
2.900399 0.850159 0.249063 52.000000
2.902993 0.841256 0.249063 57.000000
2.908437 0.833172 0.249275 50.000000
2.908101 0.823428 0.249063 55.000000
2.914455 0.815579 0.249346 57.000000
2.915982 0.806368 0.249275 40.000000
2.926140 0.799524 0.249840 63.000000
2.927616 0.790283 0.249770 48.000000
2.934845 0.782584 0.250123 59.000000
2.932410 0.772304 0.249770 44.000000
2.936696 0.763807 0.249911 56.000000
2.939026 0.754794 0.249911 54.000000
2.943261 0.746265 0.250052 54.000000
2.945537 0.737231 0.250052 47.000000
2.948753 0.728431 0.250123 46.000000
2.950005 0.719144 0.250052 38.000000
2.952197 0.710090 0.250052 46.000000
2.958244 0.701952 0.250335 44.000000
2.956499 0.691962 0.250052 56.000000
2.964439 0.684237 0.250476 62.000000
2.967496 0.675361 0.250547 61.000000
2.975394 0.667566 0.250970 57.000000
2.987167 0.660592 0.251677 45.000000
2.988205 0.651211 0.251606 49.000000
2.993114 0.642670 0.251818 57.000000
3.001903 0.634932 0.252312 63.000000
3.000907 0.625108 0.252100 53.000000
2.996948 0.614693 0.251677 42.000000
3.002731 0.606287 0.251959 53.000000
3.004577 0.597072 0.251959 57.000000
3.005415 0.587660 0.251889 45.000000
3.007204 0.578436 0.251889 65.000000
3.005045 0.568464 0.251606 53.000000
3.006774 0.559242 0.251606 53.000000
3.021231 0.552352 0.252524 49.000000
3.022912 0.543081 0.252524 47.000000
3.025546 0.533978 0.252595 46.000000
3.032084 0.525546 0.252948 48.000000
3.034665 0.516409 0.253019 42.000000
3.037219 0.507261 0.253089 44.000000
3.043683 0.498749 0.253442 36.000000
3.046183 0.489568 0.253513 46.000000
3.050627 0.480687 0.253725 29.000000
3.058987 0.472394 0.254219 34.000000
3.065353 0.463754 0.254572 32.000000
3.095376 0.458598 0.256621 9.000000
2.814585 1.066676 0.210393 40.000000
2.816910 1.057685 0.210335 47.000000
2.817334 1.047994 0.210161 43.000000
2.822410 1.040036 0.210277 48.000000
2.824649 1.031030 0.210219 44.000000
2.830616 1.023377 0.210393 58.000000
2.833742 1.014688 0.210393 55.000000
2.835901 1.005656 0.210335 65.000000
2.837089 0.996289 0.210219 67.000000
2.843904 0.988892 0.210452 74.000000
2.850700 0.981462 0.210684 58.000000
2.851808 0.972067 0.210568 63.000000
2.851939 0.962356 0.210393 72.000000
2.855825 0.953918 0.210452 53.000000
2.857790 0.944839 0.210393 74.000000
2.860676 0.936067 0.210393 70.000000
2.860685 0.926364 0.210219 61.000000
2.863513 0.917583 0.210219 54.000000
2.868218 0.909397 0.210335 59.000000
2.872900 0.901190 0.210452 62.000000
2.876605 0.892668 0.210510 61.000000
2.881238 0.884424 0.210626 74.000000
2.884894 0.875870 0.210684 73.000000
2.890436 0.867876 0.210858 54.000000
2.893085 0.859004 0.210858 68.000000
2.896664 0.850406 0.210916 56.000000
2.903095 0.842627 0.211149 67.000000
2.905666 0.833717 0.211149 54.000000
2.908211 0.824798 0.211149 57.000000
2.915534 0.817219 0.211439 61.000000
2.921876 0.809336 0.211671 74.000000
2.924345 0.800368 0.211671 52.000000
2.936424 0.793997 0.212252 52.000000
2.937882 0.784727 0.212194 68.000000
2.940275 0.775710 0.212194 62.000000
2.943608 0.766937 0.212252 58.000000
2.943046 0.757157 0.212078 57.000000
2.942452 0.747387 0.211904 67.000000
2.941826 0.737628 0.211729 62.000000
2.937292 0.726921 0.211323 41.000000
2.942417 0.718617 0.211497 58.000000
2.949461 0.710755 0.211788 48.000000
2.956484 0.702857 0.212078 52.000000
2.960570 0.694239 0.212194 56.000000
2.965605 0.685827 0.212368 52.000000
2.972561 0.677834 0.212659 58.000000
2.978523 0.669587 0.212891 64.000000
2.987386 0.661957 0.213298 49.000000
2.990378 0.653001 0.213356 70.000000
2.997248 0.644873 0.213646 52.000000
3.008002 0.637536 0.214169 37.000000
3.007011 0.627693 0.213995 46.000000
3.010879 0.618867 0.214111 50.000000
3.013742 0.609825 0.214169 62.000000
3.014620 0.600381 0.214111 60.000000
3.020366 0.591897 0.214343 49.000000
3.019227 0.582061 0.214169 66.000000
3.020999 0.572795 0.214169 48.000000
3.026668 0.564256 0.214401 50.000000
3.030349 0.555327 0.214518 58.000000
3.034985 0.546558 0.214692 48.000000
3.038614 0.537592 0.214808 60.000000
3.038282 0.527925 0.214692 57.000000
3.041855 0.518937 0.214808 45.000000
3.045403 0.509932 0.214924 56.000000
3.049908 0.501071 0.215098 50.000000
3.053402 0.492029 0.215215 64.000000
3.054897 0.482659 0.215215 45.000000
3.062283 0.474201 0.215563 42.000000
3.066684 0.465252 0.215737 42.000000
3.071060 0.456282 0.215912 34.000000
3.072445 0.446857 0.215912 42.000000
3.085662 0.439116 0.216609 16.000000
2.814986 1.045189 0.174431 36.000000
2.814430 1.035167 0.174246 55.000000
2.816654 1.026185 0.174200 45.000000
2.817910 1.016860 0.174107 35.000000
2.824779 1.009556 0.174292 44.000000
2.827863 1.000885 0.174292 28.000000
2.828092 0.991212 0.174153 45.000000
2.838668 0.985154 0.174523 47.000000
2.845456 0.977741 0.174708 45.000000
2.856007 0.971583 0.175078 73.000000
2.853295 0.960901 0.174801 45.000000
2.851491 0.950561 0.174570 44.000000
2.854395 0.941809 0.174570 54.000000
2.860119 0.933978 0.174708 55.000000
2.862020 0.924892 0.174662 78.000000
2.862942 0.915498 0.174570 44.000000
2.868594 0.907615 0.174708 54.000000
2.873271 0.899408 0.174801 53.000000
2.876017 0.890588 0.174801 63.000000
2.879691 0.882054 0.174847 81.000000
2.879516 0.872345 0.174708 63.000000
2.879308 0.862645 0.174570 45.000000
2.884814 0.854660 0.174708 67.000000
2.890298 0.846649 0.174847 38.000000
2.892882 0.837778 0.174847 50.000000
2.901200 0.830550 0.175124 56.000000
2.904696 0.821918 0.175171 56.000000
2.909128 0.813541 0.175263 70.000000
2.916423 0.805945 0.175494 49.000000
2.922737 0.798048 0.175679 51.000000
2.928064 0.789858 0.175818 49.000000
2.930474 0.780872 0.175818 63.000000
2.935753 0.772641 0.175957 60.000000
2.937143 0.763379 0.175910 68.000000
2.941406 0.754862 0.176003 55.000000
2.941772 0.745343 0.175910 51.000000
2.938231 0.734858 0.175633 43.000000
2.944350 0.726799 0.175818 58.000000
2.946566 0.717762 0.175818 45.000000
2.952639 0.709654 0.176003 57.000000
2.961606 0.702208 0.176326 48.000000
2.959856 0.692207 0.176142 58.000000
2.963912 0.683573 0.176234 64.000000
2.970865 0.675586 0.176465 55.000000
2.972924 0.666468 0.176465 69.000000
2.976905 0.657776 0.176558 53.000000
2.979885 0.648853 0.176604 61.000000
2.979909 0.639288 0.176511 53.000000
2.984788 0.630764 0.176650 50.000000
2.993554 0.623031 0.176974 39.000000
2.994473 0.613643 0.176928 43.000000
2.998300 0.604849 0.177020 52.000000
3.005040 0.596622 0.177251 38.000000
3.008817 0.587784 0.177344 51.000000
3.015511 0.579494 0.177575 46.000000
3.014330 0.569682 0.177436 51.000000
3.027848 0.562626 0.177991 42.000000
3.030542 0.553514 0.178037 51.000000
3.035176 0.544745 0.178176 43.000000
3.039784 0.535952 0.178315 41.000000
3.034524 0.525428 0.177991 53.000000
3.034153 0.515780 0.177898 38.000000
3.021927 0.504162 0.177251 30.000000
3.036274 0.496991 0.177852 52.000000
3.039757 0.487991 0.177945 47.000000
3.042227 0.478819 0.177991 44.000000
3.049605 0.470399 0.178268 35.000000
3.053997 0.461489 0.178407 28.000000
3.057374 0.452411 0.178499 41.000000
3.060725 0.443316 0.178592 38.000000
3.064049 0.434205 0.178684 47.000000
3.065367 0.424802 0.178684 43.000000
3.076554 0.416741 0.179147 21.000000
3.079798 0.407563 0.179239 10.000000
2.826090 1.030999 0.137542 38.000000
2.828300 1.021985 0.137508 51.000000
2.836127 1.014986 0.137678 59.000000
2.838285 1.005946 0.137644 36.000000
2.838529 0.996241 0.137542 45.000000
2.846292 0.989168 0.137711 54.000000
2.852149 0.981406 0.137813 49.000000
2.855146 0.972651 0.137813 75.000000
2.854329 0.962610 0.137678 51.000000
2.848736 0.951002 0.137373 64.000000
2.848793 0.941317 0.137271 40.000000
2.855468 0.933815 0.137407 65.000000
2.853565 0.923512 0.137238 72.000000
2.852577 0.913534 0.137102 70.000000
2.858225 0.905684 0.137204 63.000000
2.863851 0.897807 0.137305 53.000000
2.868501 0.889608 0.137373 60.000000
2.871217 0.880804 0.137373 55.000000
2.875819 0.872571 0.137441 54.000000
2.883269 0.865180 0.137610 57.000000
2.888784 0.857182 0.137711 47.000000
2.891400 0.848316 0.137711 58.000000
2.897829 0.840554 0.137847 68.000000
2.899433 0.831384 0.137813 67.000000
2.901970 0.822485 0.137813 58.000000
2.907367 0.814386 0.137915 62.000000
2.910815 0.805729 0.137948 52.000000
2.920022 0.798640 0.138185 66.000000
2.926317 0.790720 0.138321 65.000000
2.925833 0.780966 0.138219 76.000000
2.931114 0.772750 0.138321 64.000000
2.935406 0.764257 0.138389 55.000000
2.935800 0.754750 0.138321 44.000000
2.939071 0.745986 0.138355 57.000000
2.937468 0.735994 0.138219 63.000000
2.939712 0.726979 0.138219 65.000000
2.947754 0.719377 0.138422 57.000000
2.950919 0.710564 0.138456 62.000000
2.952113 0.701277 0.138422 48.000000
2.957170 0.692900 0.138524 67.000000
2.958308 0.683599 0.138490 72.000000
2.964289 0.675408 0.138626 56.000000
2.967322 0.666529 0.138659 61.000000
2.967402 0.656991 0.138592 45.000000
2.973309 0.648735 0.138727 52.000000
2.974308 0.639400 0.138693 69.000000
2.980167 0.631100 0.138829 57.000000
2.986003 0.622770 0.138964 52.000000
2.986920 0.613405 0.138930 61.000000
2.994666 0.605426 0.139133 63.000000
2.997489 0.596430 0.139167 56.000000
3.003229 0.587999 0.139303 67.000000
3.006981 0.579160 0.139370 64.000000
3.008744 0.569932 0.139370 56.000000
3.010478 0.560699 0.139370 52.000000
3.017100 0.552360 0.139540 49.000000
3.017797 0.542924 0.139506 56.000000
3.021417 0.534010 0.139573 61.000000
3.024026 0.524909 0.139607 53.000000
3.028577 0.516132 0.139709 48.000000
3.032118 0.507168 0.139776 40.000000
3.038591 0.498672 0.139946 52.000000
3.044054 0.489982 0.140081 71.000000
3.049491 0.481263 0.140217 46.000000
3.051941 0.472058 0.140250 50.000000
3.056340 0.463141 0.140352 50.000000
3.059723 0.454056 0.140420 46.000000
3.056157 0.443949 0.140250 37.000000
3.061462 0.435132 0.140386 37.000000
3.060803 0.425463 0.140318 35.000000
3.064075 0.416339 0.140386 36.000000
3.069301 0.407463 0.140521 34.000000
3.064589 0.397274 0.140318 43.000000
3.097523 0.391880 0.141401 16.000000
2.824212 1.000695 0.100694 30.000000
2.822553 0.990369 0.100586 33.000000
2.830299 0.983347 0.100694 39.000000
2.836138 0.975636 0.100759 40.000000
2.836280 0.965963 0.100694 35.000000
2.842072 0.958216 0.100759 44.000000
2.843102 0.948858 0.100716 54.000000
2.850745 0.941701 0.100824 48.000000
2.859322 0.934817 0.100954 63.000000
2.859323 0.925116 0.100889 44.000000
2.860244 0.915729 0.100846 61.000000
2.862087 0.906647 0.100824 58.000000
2.866762 0.898461 0.100867 49.000000
2.871415 0.890254 0.100911 41.000000
2.875089 0.881734 0.100932 51.000000
2.878737 0.873200 0.100954 47.000000
2.883317 0.864939 0.100997 61.000000
2.891707 0.857798 0.101127 40.000000
2.892407 0.848358 0.101084 54.000000
2.894996 0.839481 0.101084 45.000000
2.894675 0.829767 0.101019 54.000000
2.892398 0.819518 0.100911 55.000000
2.894899 0.810641 0.100911 44.000000
2.896409 0.801488 0.100889 68.000000
2.901747 0.793391 0.100954 56.000000
2.908993 0.785790 0.101062 58.000000
2.912356 0.777120 0.101084 57.000000
2.920526 0.769712 0.101214 59.000000
2.925776 0.761505 0.101278 46.000000
2.928098 0.752525 0.101278 73.000000
2.932332 0.744031 0.101322 42.000000
2.930722 0.734058 0.101235 60.000000
2.932960 0.725063 0.101235 52.000000
2.940026 0.717248 0.101343 49.000000
2.943185 0.708459 0.101365 38.000000
2.946317 0.699658 0.101387 61.000000
2.947477 0.690387 0.101365 52.000000
2.949581 0.681341 0.101365 57.000000
2.956531 0.673401 0.101473 45.000000
2.960534 0.664766 0.101517 52.000000
2.962559 0.655680 0.101517 44.000000
2.965533 0.646801 0.101538 47.000000
2.970436 0.638331 0.101603 41.000000
2.977271 0.630252 0.101711 46.000000
2.983105 0.621933 0.101798 51.000000
2.986957 0.613181 0.101841 45.000000
2.992744 0.604808 0.101928 37.000000
2.997526 0.596209 0.101993 53.000000
3.000323 0.587203 0.102014 55.000000
3.002110 0.577995 0.102014 62.000000
3.005834 0.569155 0.102058 47.000000
3.004618 0.559380 0.101993 42.000000
3.008286 0.550520 0.102036 50.000000
3.009961 0.541288 0.102036 62.000000
3.015545 0.532749 0.102122 35.000000
3.021105 0.524180 0.102209 47.000000
3.029598 0.516086 0.102361 35.000000
3.028209 0.506294 0.102296 67.000000
3.028762 0.496839 0.102274 64.000000
3.035207 0.488340 0.102382 47.000000
3.039653 0.479494 0.102447 50.000000
3.045062 0.470779 0.102534 45.000000
3.053411 0.462485 0.102685 53.000000
3.057782 0.453557 0.102750 38.000000
3.061137 0.444462 0.102793 51.000000
3.061497 0.434927 0.102772 46.000000
3.058856 0.424981 0.102685 42.000000
3.063117 0.415999 0.102750 37.000000
3.063388 0.406468 0.102728 34.000000
3.064621 0.397067 0.102728 35.000000
3.066816 0.387789 0.102750 41.000000
3.070968 0.378747 0.102815 41.000000
3.083034 0.370640 0.103053 23.000000
2.824351 0.980996 0.063692 60.000000
2.830184 0.973302 0.063719 64.000000
2.836943 0.965903 0.063756 46.000000
2.840841 0.957514 0.063766 54.000000
2.844714 0.949111 0.063775 52.000000
2.854259 0.942573 0.063840 61.000000
2.859038 0.934433 0.063858 76.000000
2.864746 0.926579 0.063886 51.000000
2.866623 0.917482 0.063877 53.000000
2.868471 0.908381 0.063867 57.000000
2.871244 0.899576 0.063867 66.000000
2.877811 0.891947 0.063904 50.000000
2.879578 0.882821 0.063895 68.000000
2.880359 0.873402 0.063877 64.000000
2.882067 0.864274 0.063867 48.000000
2.887582 0.856280 0.063895 63.000000
2.890195 0.847417 0.063895 65.000000
2.892781 0.838546 0.063895 52.000000
2.894379 0.829392 0.063886 53.000000
2.897872 0.820781 0.063895 53.000000
2.906154 0.813503 0.063951 63.000000
2.909600 0.804850 0.063960 64.000000
2.913985 0.796446 0.063978 60.000000
2.918345 0.788024 0.063997 56.000000
2.921716 0.779324 0.064006 56.000000
2.926027 0.770866 0.064025 63.000000
2.929346 0.762137 0.064034 71.000000
2.925859 0.751654 0.063978 59.000000
2.925243 0.741937 0.063951 64.000000
2.929446 0.733445 0.063969 50.000000
2.929741 0.723974 0.063951 78.000000
2.935834 0.715930 0.063988 65.000000
2.939961 0.707387 0.064006 90.000000
2.946009 0.699287 0.064043 69.000000
2.950089 0.690701 0.064062 50.000000
2.954142 0.682097 0.064080 52.000000
2.957196 0.673252 0.064089 54.000000
2.961199 0.664614 0.064108 64.000000
2.965177 0.655958 0.064126 57.000000
2.967175 0.646858 0.064126 58.000000
2.971101 0.638172 0.064145 58.000000
2.974023 0.629260 0.064154 48.000000
2.977898 0.620541 0.064173 67.000000
2.978808 0.611201 0.064163 75.000000
2.983610 0.602653 0.064191 50.000000
2.987406 0.593886 0.064210 59.000000
2.995103 0.585869 0.064265 57.000000
3.001796 0.577622 0.064311 74.000000
3.006502 0.568967 0.064339 63.000000
3.011182 0.560289 0.064367 48.000000
3.015838 0.551587 0.064395 61.000000
3.017516 0.542332 0.064395 49.000000
3.019166 0.533072 0.064395 64.000000
3.025713 0.524661 0.064441 52.000000
3.033223 0.516382 0.064496 56.000000
3.038738 0.507732 0.064533 56.000000
3.041269 0.498569 0.064543 51.000000
3.042784 0.489236 0.064543 49.000000
3.046246 0.480209 0.064561 64.000000
3.051658 0.471472 0.064598 58.000000
3.055068 0.462406 0.064617 58.000000
3.056472 0.453031 0.064617 56.000000
3.061806 0.444226 0.064654 47.000000
3.068105 0.435532 0.064700 50.000000
3.071407 0.426392 0.064718 43.000000
3.080628 0.418042 0.064792 46.000000
3.082887 0.408720 0.064802 43.000000
3.083135 0.399132 0.064792 41.000000
3.085337 0.389796 0.064802 41.000000
3.086519 0.380328 0.064802 41.000000
3.093628 0.371572 0.064857 29.000000
3.097733 0.362427 0.064885 35.000000
3.098830 0.352922 0.064885 16.000000
2.831246 0.964246 0.026314 43.000000
2.840823 0.957794 0.026291 39.000000
2.839955 0.947807 0.026304 42.000000
2.844748 0.939717 0.026297 50.000000
2.845717 0.930363 0.026304 36.000000
2.851412 0.922553 0.026294 42.000000
2.854229 0.913800 0.026294 37.000000
2.858925 0.905644 0.026287 55.000000
2.858828 0.895971 0.026297 45.000000
2.873024 0.890754 0.026258 35.000000
2.887214 0.885458 0.026218 48.000000
2.888960 0.876305 0.026221 58.000000
2.893550 0.868013 0.026214 39.000000
2.896200 0.859132 0.026214 35.000000
2.900741 0.850806 0.026208 29.000000
2.897575 0.840230 0.026228 39.000000
2.886683 0.827473 0.026274 56.000000
2.888246 0.818340 0.026277 44.000000
2.894595 0.810555 0.026264 53.000000
2.897068 0.801671 0.026264 52.000000
2.898549 0.792515 0.026267 48.000000
2.910620 0.786230 0.026234 41.000000
2.912052 0.777039 0.026238 60.000000
2.918290 0.769122 0.026224 48.000000
2.924506 0.761174 0.026211 45.000000
2.927797 0.752447 0.026208 53.000000
2.931060 0.743708 0.026204 47.000000
2.937208 0.735685 0.026191 57.000000
2.935568 0.725709 0.026204 42.000000
2.938753 0.716937 0.026201 50.000000
2.941910 0.708152 0.026198 61.000000
2.949906 0.700512 0.026178 43.000000
2.954962 0.692143 0.026168 52.000000
2.955123 0.682623 0.026175 72.000000
2.957204 0.673554 0.026175 61.000000
2.962183 0.665137 0.026165 55.000000
2.970067 0.657345 0.026145 40.000000
2.971093 0.648016 0.026148 46.000000
2.970134 0.638266 0.026158 56.000000
2.974035 0.629566 0.026151 49.000000
2.980847 0.621461 0.026135 53.000000
2.985678 0.612917 0.026125 46.000000
2.988524 0.603953 0.026122 51.000000
2.992324 0.595173 0.026115 42.000000
2.994137 0.585989 0.026115 54.000000
2.997884 0.577180 0.026108 53.000000
2.993746 0.566861 0.026128 58.000000
2.990556 0.556757 0.026145 38.000000
2.990282 0.547218 0.026151 36.000000
2.990963 0.537864 0.026155 30.000000
2.994569 0.529034 0.026148 39.000000
3.003074 0.521044 0.026125 55.000000
3.016487 0.513848 0.026085 38.000000
3.027912 0.506244 0.026052 39.000000
3.029451 0.496952 0.026052 47.000000
3.033923 0.488133 0.026042 35.000000
3.035406 0.478823 0.026042 37.000000
3.040814 0.470121 0.026029 50.000000
3.044219 0.461090 0.026022 44.000000
3.043641 0.451454 0.026029 53.000000
3.051939 0.443122 0.026006 29.000000
3.063184 0.435167 0.025972 38.000000
3.062523 0.425491 0.025979 48.000000
3.108403 0.422166 0.025830 16.000000
2.842310 0.939723 -0.010599 59.000000
2.848031 0.931931 -0.010647 70.000000
2.853731 0.924113 -0.010694 59.000000
2.856552 0.915353 -0.010694 48.000000
2.864113 0.908096 -0.010772 56.000000
2.867840 0.899604 -0.010788 58.000000
2.870586 0.890801 -0.010788 65.000000
2.876173 0.882870 -0.010835 67.000000
2.878868 0.874042 -0.010835 61.000000
2.876748 0.863768 -0.010757 67.000000
2.884177 0.856361 -0.010835 65.000000
2.883913 0.846664 -0.010788 59.000000
2.883616 0.836976 -0.010741 52.000000
2.886170 0.828125 -0.010741 60.000000
2.885811 0.818449 -0.010694 70.000000
2.888308 0.809591 -0.010694 73.000000
2.893669 0.801527 -0.010741 72.000000
2.893221 0.791854 -0.010694 68.000000
2.898533 0.783756 -0.010741 62.000000
2.909618 0.777181 -0.010882 77.000000
2.915856 0.769271 -0.010945 70.000000
2.919170 0.760573 -0.010961 59.000000
2.924395 0.752361 -0.011008 65.000000
2.927659 0.743632 -0.011024 61.000000
2.933806 0.735618 -0.011086 81.000000
2.938961 0.727334 -0.011133 63.000000
2.942150 0.718551 -0.011149 80.000000
2.942396 0.709053 -0.011118 61.000000
2.949422 0.701179 -0.011196 57.000000
2.955453 0.693039 -0.011259 63.000000
2.954643 0.683293 -0.011212 72.000000
2.954775 0.673781 -0.011181 62.000000
2.957804 0.664932 -0.011196 71.000000
2.961782 0.656287 -0.011228 58.000000
2.965736 0.647623 -0.011259 60.000000
2.970642 0.639152 -0.011306 84.000000
2.972588 0.630035 -0.011306 71.000000
2.980380 0.622138 -0.011401 60.000000
2.985213 0.613595 -0.011448 67.000000
2.991002 0.605226 -0.011510 62.000000
2.988922 0.595266 -0.011448 80.000000
2.993678 0.586670 -0.011495 47.000000
2.994482 0.577294 -0.011479 75.000000
2.996239 0.568104 -0.011479 62.000000
2.998950 0.559092 -0.011495 58.000000
3.002619 0.550249 -0.011526 57.000000
3.007245 0.541566 -0.011573 55.000000
3.015785 0.533556 -0.011683 37.000000
3.020362 0.524814 -0.011730 57.000000
3.034772 0.517730 -0.011935 45.000000
3.043249 0.509571 -0.012045 44.000000
3.026052 0.497155 -0.011746 73.000000
3.044344 0.490571 -0.012013 37.000000
3.046823 0.481385 -0.012029 36.000000
3.062119 0.474175 -0.012249 12.000000
2.887393 0.944006 -0.047705 26.000000
2.863649 0.926517 -0.046928 41.000000
2.875045 0.920474 -0.047178 31.000000
2.870233 0.909231 -0.046956 34.000000
2.868240 0.898924 -0.046817 39.000000
2.867166 0.888935 -0.046706 38.000000
2.867968 0.879548 -0.046651 41.000000
2.871609 0.871035 -0.046678 51.000000
2.874268 0.862221 -0.046678 52.000000
2.877858 0.853683 -0.046706 40.000000
2.882382 0.845414 -0.046762 51.000000
2.884962 0.836567 -0.046762 63.000000
2.884633 0.826884 -0.046678 41.000000
2.886194 0.817758 -0.046651 59.000000
2.884840 0.807819 -0.046540 37.000000
2.887305 0.798965 -0.046540 56.000000
2.884922 0.788783 -0.046401 39.000000
2.891188 0.780973 -0.046512 65.000000
2.897433 0.773131 -0.046623 58.000000
2.902691 0.765004 -0.046706 50.000000
2.909860 0.757356 -0.046845 51.000000
2.916043 0.749422 -0.046956 52.000000
2.919297 0.740718 -0.046984 50.000000
2.924464 0.732488 -0.047067 50.000000
2.922817 0.722551 -0.046956 37.000000
2.927933 0.714293 -0.047039 54.000000
2.933025 0.706010 -0.047122 52.000000
2.935178 0.697008 -0.047122 58.000000
2.940222 0.688685 -0.047206 50.000000
2.939399 0.678985 -0.047122 46.000000
2.942443 0.670186 -0.047150 61.000000
2.946436 0.661594 -0.047206 44.000000
2.949428 0.652768 -0.047233 34.000000
2.947510 0.642863 -0.047122 36.000000
2.955332 0.635079 -0.047289 40.000000
2.957266 0.626010 -0.047289 45.000000
2.964065 0.617956 -0.047428 60.000000
2.969864 0.609665 -0.047539 50.000000
2.975639 0.601344 -0.047650 43.000000
2.959824 0.588695 -0.047150 24.000000
2.972406 0.581728 -0.047455 31.000000
2.982029 0.574121 -0.047677 35.000000
2.981813 0.564597 -0.047622 27.000000
3.001219 0.558746 -0.048121 65.000000
2.995053 0.548093 -0.047899 49.000000
2.997704 0.539079 -0.047927 42.000000
3.002297 0.530403 -0.048010 27.000000
2.987168 0.518278 -0.047539 13.000000
3.003524 0.511635 -0.047955 19.000000
3.010995 0.503409 -0.048121 26.000000
3.021402 0.495629 -0.048371 18.000000
3.038097 0.983789 -0.092001 26.000000
2.989716 0.958005 -0.089825 36.000000
2.933586 0.930113 -0.087326 37.000000
2.898289 0.909151 -0.085714 52.000000
2.888659 0.896407 -0.085190 56.000000
2.878977 0.883730 -0.084666 53.000000
2.874025 0.872572 -0.084343 53.000000
2.870947 0.862027 -0.084101 57.000000
2.873578 0.853215 -0.084101 64.000000
2.876182 0.844395 -0.084101 66.000000
2.881638 0.836402 -0.084222 61.000000
2.884191 0.827558 -0.084222 69.000000
2.882871 0.817615 -0.084061 61.000000
2.887290 0.809306 -0.084142 74.000000
2.891685 0.800977 -0.084222 67.000000
2.894129 0.792102 -0.084222 55.000000
2.899439 0.784001 -0.084343 58.000000
2.901831 0.775102 -0.084343 66.000000
2.910958 0.767979 -0.084625 49.000000
2.922003 0.761311 -0.084988 75.000000
2.926260 0.752841 -0.085069 50.000000
2.934367 0.745335 -0.085311 60.000000
2.940517 0.737300 -0.085472 83.000000
2.942765 0.728275 -0.085472 58.000000
2.944985 0.719244 -0.085472 60.000000
2.944264 0.709503 -0.085351 62.000000
2.945455 0.700236 -0.085311 63.000000
2.947589 0.691196 -0.085311 47.000000
2.946775 0.681475 -0.085190 61.000000
2.949826 0.672653 -0.085230 48.000000
2.951876 0.663600 -0.085230 62.000000
2.955849 0.654973 -0.085311 45.000000
2.957845 0.645901 -0.085311 48.000000
2.960789 0.637034 -0.085351 53.000000
2.963707 0.628154 -0.085391 49.000000
2.964642 0.618855 -0.085351 41.000000
2.962612 0.608952 -0.085190 38.000000
2.967404 0.600454 -0.085311 50.000000
2.963353 0.590177 -0.085069 33.000000
2.953383 0.578779 -0.084585 25.000000
3.091810 1.009737 -0.133451 25.000000
3.083492 0.996557 -0.132823 36.000000
3.077975 0.984352 -0.132352 31.000000
3.053373 0.966157 -0.130834 39.000000
3.033452 0.949616 -0.129578 55.000000
2.988660 0.925517 -0.126961 42.000000
2.916062 0.893210 -0.122827 51.000000
2.900632 0.878751 -0.121832 41.000000
2.882271 0.863534 -0.120681 44.000000
2.872461 0.850995 -0.120001 51.000000
2.860684 0.837962 -0.119216 29.000000
2.872833 0.831963 -0.119739 51.000000
2.877291 0.823696 -0.119844 55.000000
2.879805 0.814864 -0.119844 42.000000
2.883253 0.806295 -0.119896 39.000000
2.885713 0.797445 -0.119896 50.000000
2.892962 0.789905 -0.120158 49.000000
2.894408 0.780766 -0.120105 54.000000
2.896790 0.771882 -0.120105 66.000000
2.900110 0.763246 -0.120158 41.000000
2.908237 0.755854 -0.120472 36.000000
2.915378 0.748171 -0.120733 63.000000
2.923467 0.740697 -0.121047 45.000000
2.929600 0.732696 -0.121257 55.000000
2.928926 0.722985 -0.121100 37.000000
2.931131 0.713996 -0.121100 36.000000
2.940104 0.706636 -0.121466 45.000000
2.937400 0.696459 -0.121204 32.000000
2.952163 0.690405 -0.121885 53.000000
2.963997 0.683593 -0.122408 48.000000
2.973869 0.676270 -0.122827 48.000000
2.974956 0.666925 -0.122774 61.000000
3.000389 0.662975 -0.124031 39.000000
3.034606 0.660790 -0.125758 32.000000
3.167448 0.679596 -0.132771 8.000000
3.104877 1.026495 -0.174840 19.000000
3.094733 1.012622 -0.173934 37.000000
3.090230 1.000664 -0.173417 51.000000
3.089484 0.989961 -0.173158 42.000000
3.080140 0.976559 -0.172317 48.000000
3.071695 0.963522 -0.171540 46.000000
3.053668 0.947589 -0.170117 56.000000
3.037481 0.932362 -0.168823 58.000000
2.997357 0.909999 -0.165911 45.000000
2.938008 0.882154 -0.161705 56.000000
2.920611 0.867173 -0.160346 42.000000
2.893574 0.849499 -0.158340 44.000000
2.885624 0.837559 -0.157628 43.000000
2.888180 0.828702 -0.157628 49.000000
2.887829 0.819021 -0.157434 52.000000
2.888406 0.809619 -0.157305 60.000000
2.893762 0.801552 -0.157499 73.000000
2.897170 0.792934 -0.157564 55.000000
2.901515 0.784562 -0.157693 51.000000
2.905837 0.776172 -0.157823 53.000000
2.906275 0.766744 -0.157693 40.000000
2.917305 0.760088 -0.158276 37.000000
2.931221 0.754116 -0.159052 54.000000
2.942225 0.747330 -0.159634 61.000000
2.950312 0.739755 -0.160023 62.000000
2.969036 0.734773 -0.161123 56.000000
2.978062 0.727317 -0.161576 39.000000
3.014235 0.726355 -0.163840 41.000000
3.059168 0.727254 -0.166687 38.000000
3.108992 0.729023 -0.169858 48.000000
3.122881 0.722178 -0.170634 34.000000
3.150379 0.718359 -0.172317 47.000000
3.167173 0.711971 -0.173287 58.000000
3.190777 0.706998 -0.174711 37.000000
3.204630 0.699759 -0.175487 24.000000
3.218470 0.692441 -0.176264 31.000000
3.100611 1.033714 -0.213525 16.000000
3.087673 1.018879 -0.212223 21.000000
3.082255 1.006613 -0.211535 27.000000
3.076791 0.994389 -0.210846 36.000000
3.075079 0.983424 -0.210463 23.000000
3.061923 0.968866 -0.209162 43.000000
3.059173 0.957678 -0.208702 45.000000
3.059240 0.947403 -0.208473 43.000000
3.057366 0.936551 -0.208090 43.000000
3.042096 0.921667 -0.206636 41.000000
3.021989 0.905453 -0.204799 44.000000
3.000856 0.889087 -0.202885 39.000000
2.978694 0.872580 -0.200895 24.000000
2.925816 0.847329 -0.196455 50.000000
2.907316 0.832303 -0.194771 44.000000
2.898344 0.820118 -0.193853 46.000000
2.895086 0.809609 -0.193393 34.000000
2.903321 0.802319 -0.193853 32.000000
2.912502 0.795249 -0.194388 45.000000
2.919740 0.787610 -0.194771 54.000000
2.939483 0.783276 -0.196149 59.000000
2.959227 0.778829 -0.197527 38.000000
2.989585 0.777030 -0.199747 36.000000
3.019959 0.775053 -0.201966 31.000000
3.031987 0.768237 -0.202732 29.000000
3.064312 0.766442 -0.205105 41.000000
3.090847 0.763021 -0.207018 51.000000
3.110610 0.757789 -0.208396 58.000000
3.135215 0.753609 -0.210157 86.000000
3.136542 0.743757 -0.210080 55.000000
3.150459 0.736860 -0.210999 34.000000
3.151733 0.726966 -0.210922 31.000000
3.157837 0.718179 -0.211228 40.000000
3.171700 0.711110 -0.212147 36.000000
3.183601 0.703530 -0.212912 39.000000
3.190615 0.694823 -0.213295 37.000000
3.202480 0.687126 -0.214060 25.000000
3.221156 0.680808 -0.215362 8.000000
3.106750 1.036498 -0.254131 24.000000
3.101403 1.024152 -0.253332 36.000000
3.101690 1.013704 -0.253066 32.000000
3.095307 1.001120 -0.252179 33.000000
3.081288 0.986156 -0.250582 58.000000
3.075752 0.973992 -0.249783 50.000000
3.071122 0.962170 -0.249073 60.000000
3.070253 0.951565 -0.248719 62.000000
3.064587 0.939514 -0.247920 69.000000
3.064595 0.929241 -0.247654 69.000000
3.061707 0.918119 -0.247122 51.000000
3.061644 0.907872 -0.246855 66.000000
3.053901 0.895393 -0.245880 56.000000
3.052807 0.884911 -0.245525 58.000000
3.035398 0.869782 -0.243662 47.000000
2.992050 0.847442 -0.239403 38.000000
3.022453 0.846041 -0.241976 36.000000
3.038475 0.840481 -0.243218 41.000000
3.051609 0.834042 -0.244194 46.000000
3.087811 0.833760 -0.247299 71.000000
3.082655 0.822230 -0.246589 49.000000
3.084200 0.812515 -0.246501 39.000000
3.097282 0.805806 -0.247476 46.000000
3.098775 0.796053 -0.247388 28.000000
3.104099 0.787276 -0.247654 47.000000
3.116162 0.780167 -0.248541 68.000000
3.105970 0.767498 -0.247388 155.000000
3.119923 0.760796 -0.248452 56.000000
3.122242 0.751221 -0.248452 80.000000
3.127440 0.742328 -0.248719 80.000000
3.138431 0.734772 -0.249517 63.000000
3.143582 0.725812 -0.249783 53.000000
3.153564 0.717932 -0.250493 35.000000
3.166443 0.710652 -0.251469 41.000000
3.176389 0.702654 -0.252179 37.000000
3.187289 0.694814 -0.252977 37.000000
3.197196 0.686705 -0.253687 31.000000
3.195390 0.676068 -0.253332 20.000000
3.098332 1.033551 -0.294558 25.000000
3.091098 1.020606 -0.293444 28.000000
3.086650 1.008643 -0.292634 41.000000
3.088784 0.998862 -0.292533 27.000000
3.079517 0.985435 -0.291217 40.000000
3.075887 0.973878 -0.290509 43.000000
3.076013 0.963544 -0.290205 47.000000
3.072304 0.952038 -0.289496 36.000000
3.069504 0.940857 -0.288889 57.000000
3.070471 0.930857 -0.288686 45.000000
3.074266 0.921719 -0.288788 42.000000
3.082801 0.913982 -0.289395 40.000000
3.088455 0.905360 -0.289699 51.000000
3.096950 0.897544 -0.290306 49.000000
3.103515 0.889136 -0.290711 36.000000
3.114842 0.882053 -0.291622 39.000000
3.120407 0.873298 -0.291926 45.000000
3.122113 0.863455 -0.291825 39.000000
3.123788 0.853610 -0.291723 58.000000
3.124471 0.843503 -0.291521 44.000000
3.133773 0.835710 -0.292230 92.000000
3.123816 0.822793 -0.290914 46.000000
3.116698 0.810698 -0.289901 34.000000
3.119171 0.801132 -0.289901 60.000000
3.120650 0.791314 -0.289800 47.000000
3.124028 0.781978 -0.289901 34.000000
3.123515 0.771673 -0.289598 44.000000
3.124901 0.761851 -0.289496 53.000000
3.129158 0.752726 -0.289699 55.000000
3.126613 0.741972 -0.289193 36.000000
3.135655 0.733966 -0.289901 42.000000
3.141769 0.725239 -0.290306 55.000000
3.147860 0.716482 -0.290711 47.000000
3.161691 0.709439 -0.291926 36.000000
3.188135 0.705115 -0.294457 30.000000
3.200003 0.697453 -0.295469 20.000000
3.203101 0.687841 -0.295570 35.000000
3.222714 0.681723 -0.297392 15.000000
3.064989 1.023163 -0.329606 29.000000
3.065283 1.012820 -0.329267 49.000000
3.067431 1.003102 -0.329154 39.000000
3.063877 0.991546 -0.328363 61.000000
3.065012 0.981536 -0.328137 53.000000
3.063273 0.970628 -0.327572 42.000000
3.066236 0.961225 -0.327572 37.000000
3.070120 0.952108 -0.327685 46.000000
3.073977 0.942975 -0.327798 61.000000
3.076855 0.933540 -0.327798 58.000000
3.087318 0.926380 -0.328702 43.000000
3.093003 0.917751 -0.329041 41.000000
3.096758 0.908537 -0.329154 43.000000
3.106211 0.900969 -0.329945 55.000000
3.113736 0.892804 -0.330511 55.000000
3.123152 0.885142 -0.331302 60.000000
3.136378 0.878503 -0.332545 39.000000
3.144804 0.870466 -0.333223 35.000000
3.156085 0.863172 -0.334241 38.000000
3.175026 0.857889 -0.336162 85.000000
3.172843 0.846864 -0.335597 90.000000
