ply
format ascii 1.0
element vertex 1270
property float x
property float y
property float z
property float intensity
end_header
3.063193 -0.028758 0.251959 47.000000
3.066082 -0.038192 0.252171 52.000000
3.065951 -0.047599 0.252171 53.000000
3.068782 -0.057059 0.252383 42.000000
3.069590 -0.066495 0.252454 51.000000
3.074358 -0.076033 0.252807 46.000000
3.076104 -0.085520 0.252948 45.000000
3.079816 -0.095078 0.253230 58.000000
3.081503 -0.104594 0.253372 42.000000
3.082165 -0.114083 0.253442 43.000000
3.086784 -0.123737 0.253795 37.000000
3.084396 -0.133121 0.253654 56.000000
3.091945 -0.142949 0.254219 48.000000
3.095477 -0.152629 0.254502 42.000000
3.098979 -0.162332 0.254784 44.000000
3.103446 -0.172113 0.255137 32.000000
3.103899 -0.181692 0.255208 40.000000
3.103328 -0.191214 0.255208 35.000000
3.104717 -0.200862 0.255349 39.000000
3.101100 -0.210185 0.255137 48.000000
3.104421 -0.219978 0.255420 29.000000
3.099753 -0.229209 0.255137 41.000000
3.102019 -0.238946 0.255349 40.000000
3.101271 -0.248462 0.255349 36.000000
3.109441 -0.258716 0.255985 26.000000
3.108633 -0.268255 0.255985 28.000000
3.110775 -0.278056 0.256197 35.000000
3.104941 -0.287141 0.255844 24.000000
3.112983 -0.297516 0.256479 31.000000
3.105107 -0.306382 0.255985 21.000000
3.077357 -0.313190 0.254078 6.000000
2.921081 0.619125 0.208999 54.000000
2.920034 0.609549 0.208825 56.000000
2.930692 0.602395 0.209348 43.000000
2.932526 0.593401 0.209348 69.000000
2.940207 0.585571 0.209696 50.000000
2.940031 0.576164 0.209580 59.000000
2.943745 0.567519 0.209696 54.000000
2.948415 0.559043 0.209871 61.000000
2.947172 0.549446 0.209696 62.000000
2.948844 0.540401 0.209696 63.000000
2.944593 0.530291 0.209348 54.000000
2.943257 0.520733 0.209174 59.000000
2.947791 0.512213 0.209348 69.000000
2.948364 0.503000 0.209290 68.000000
2.945956 0.493293 0.209057 49.000000
2.952380 0.485061 0.209348 59.000000
2.950898 0.475525 0.209174 69.000000
2.949384 0.466002 0.208999 66.000000
2.949814 0.456799 0.208941 56.000000
2.950214 0.447597 0.208883 57.000000
2.950586 0.438397 0.208825 71.000000
2.956857 0.430061 0.209116 62.000000
2.956186 0.420706 0.208999 57.000000
2.965373 0.412735 0.209464 55.000000
2.973550 0.404577 0.209871 66.000000
2.980715 0.396240 0.210219 56.000000
2.981916 0.387094 0.210219 72.000000
2.984080 0.378069 0.210277 66.000000
2.984235 0.368790 0.210219 63.000000
2.985353 0.359633 0.210219 60.000000
2.980493 0.349775 0.209871 61.000000
2.981552 0.340629 0.209871 63.000000
2.979606 0.331150 0.209696 72.000000
2.986563 0.322649 0.210045 61.000000
2.988532 0.313589 0.210103 69.000000
2.988487 0.304318 0.210045 55.000000
2.992387 0.295442 0.210219 58.000000
2.993279 0.286260 0.210219 47.000000
2.994144 0.277076 0.210219 64.000000
2.994979 0.267888 0.210219 65.000000
2.996782 0.258784 0.210277 60.000000
2.997562 0.249589 0.210277 56.000000
3.004284 0.240870 0.210626 50.000000
3.004014 0.231575 0.210568 67.000000
3.006701 0.222505 0.210684 67.000000
3.008365 0.213350 0.210742 59.000000
3.011994 0.204321 0.210916 60.000000
3.008621 0.194822 0.210684 53.000000
3.018173 0.186143 0.211207 58.000000
3.017733 0.176824 0.211149 76.000000
3.023246 0.167841 0.211439 60.000000
3.029728 0.158878 0.211788 47.000000
3.035186 0.149828 0.212078 57.000000
3.038624 0.140653 0.212252 62.000000
3.042033 0.131459 0.212426 60.000000
3.043420 0.122166 0.212485 56.000000
3.049766 0.113049 0.212833 58.000000
3.051096 0.103726 0.212891 61.000000
3.047409 0.094242 0.212659 58.000000
3.048681 0.084920 0.212717 64.000000
3.044935 0.075468 0.212485 61.000000
3.045152 0.066126 0.212485 56.000000
3.043345 0.056746 0.212368 47.000000
3.041508 0.047378 0.212252 56.000000
3.041639 0.038046 0.212252 70.000000
3.045735 0.028752 0.212485 76.000000
3.048804 0.019426 0.212659 52.000000
3.051844 0.010082 0.212833 73.000000
3.055854 0.000720 0.213065 64.000000
3.060833 -0.008670 0.213356 72.000000
3.060792 -0.018061 0.213356 48.000000
3.063717 -0.027478 0.213530 43.000000
3.065615 -0.036902 0.213646 60.000000
3.066485 -0.046322 0.213704 58.000000
3.065331 -0.055712 0.213646 54.000000
3.068139 -0.065180 0.213821 52.000000
3.070919 -0.074665 0.213995 55.000000
3.073669 -0.084169 0.214169 60.000000
3.079384 -0.093781 0.214518 68.000000
3.079082 -0.103228 0.214518 45.000000
3.081743 -0.112784 0.214692 61.000000
3.087368 -0.122477 0.215040 55.000000
3.083985 -0.131820 0.214866 60.000000
3.085561 -0.141372 0.214982 39.000000
3.088104 -0.150984 0.215157 43.000000
3.088623 -0.160510 0.215215 46.000000
3.093100 -0.170260 0.215505 49.000000
3.095553 -0.179923 0.215679 40.000000
3.095983 -0.189480 0.215737 33.000000
3.101365 -0.199362 0.216086 60.000000
3.100738 -0.208876 0.216086 45.000000
3.106058 -0.218810 0.216434 38.000000
3.110350 -0.228705 0.216725 37.000000
3.109634 -0.238246 0.216725 37.000000
3.113864 -0.248183 0.217015 37.000000
3.116073 -0.257982 0.217190 41.000000
3.120240 -0.267969 0.217480 33.000000
3.125369 -0.278072 0.217829 45.000000
3.059885 -0.281702 0.214053 12.000000
3.058012 -0.290993 0.213995 8.000000
2.911453 0.662052 0.173645 38.000000
2.913470 0.653116 0.173645 37.000000
2.915460 0.644175 0.173645 43.000000
2.911567 0.633950 0.173367 29.000000
2.910568 0.624385 0.173229 31.000000
2.915402 0.616073 0.173367 33.000000
2.907499 0.605087 0.172905 42.000000
2.916192 0.597570 0.173229 53.000000
2.922907 0.589610 0.173460 52.000000
2.928621 0.581419 0.173645 45.000000
2.934312 0.573199 0.173830 47.000000
2.936057 0.564194 0.173830 48.000000
2.942682 0.556113 0.174061 56.000000
2.945356 0.547266 0.174107 50.000000
2.944073 0.537687 0.173968 44.000000
2.942759 0.528122 0.173830 46.000000
2.942399 0.518744 0.173737 57.000000
2.945945 0.510056 0.173830 40.000000
2.948480 0.501183 0.173876 38.000000
2.944093 0.491146 0.173599 48.000000
2.945585 0.482112 0.173599 55.000000
2.950009 0.473549 0.173737 59.000000
2.951448 0.464496 0.173737 49.000000
2.950885 0.455133 0.173645 55.000000
2.949305 0.445629 0.173506 42.000000
2.953622 0.437018 0.173645 44.000000
2.957915 0.428386 0.173784 45.000000
2.959215 0.419309 0.173784 50.000000
2.960488 0.410228 0.173784 62.000000
2.963712 0.401412 0.173876 48.000000
2.968891 0.392844 0.174061 61.000000
2.969091 0.383605 0.174015 52.000000
2.971245 0.374619 0.174061 51.000000
2.975354 0.365869 0.174200 56.000000
2.975471 0.356620 0.174153 43.000000
2.976551 0.347489 0.174153 48.000000
2.974626 0.338016 0.174015 58.000000
2.972671 0.328558 0.173876 57.000000
2.973665 0.319437 0.173876 40.000000
2.981585 0.311040 0.174200 52.000000
2.987494 0.302397 0.174431 57.000000
2.994373 0.293817 0.174708 47.000000
2.995260 0.284629 0.174708 51.000000
3.000098 0.275806 0.174893 54.000000
3.002920 0.266778 0.174986 54.000000
3.006710 0.257821 0.175124 62.000000
3.003505 0.248265 0.174939 54.000000
3.002261 0.238890 0.174847 61.000000
2.999991 0.229448 0.174708 47.000000
3.007655 0.220758 0.175032 56.000000
3.007322 0.211459 0.174986 64.000000
3.007956 0.202231 0.174986 60.000000
3.005572 0.192809 0.174847 45.000000
3.015123 0.184139 0.175263 51.000000
3.017668 0.175004 0.175356 43.000000
3.023178 0.166021 0.175587 44.000000
3.025668 0.156850 0.175679 41.000000
3.030126 0.147762 0.175864 43.000000
3.032561 0.138557 0.175957 51.000000
3.029978 0.129124 0.175818 49.000000
3.033354 0.119947 0.175957 45.000000
3.034706 0.110677 0.176003 45.000000
3.036029 0.101400 0.176049 52.000000
3.032332 0.091963 0.175864 51.000000
3.034597 0.082714 0.175957 58.000000
3.033838 0.073379 0.175910 50.000000
3.032052 0.064028 0.175818 51.000000
3.029237 0.054671 0.175679 39.000000
3.033386 0.045438 0.175864 41.000000
3.034510 0.036144 0.175910 57.000000
3.038602 0.026871 0.176095 48.000000
3.039670 0.017555 0.176142 47.000000
3.042706 0.008238 0.176280 53.000000
3.044715 -0.001097 0.176373 50.000000
3.052688 -0.010462 0.176743 50.000000
3.048646 -0.019803 0.176558 33.000000
3.052567 -0.029193 0.176743 53.000000
3.053462 -0.038570 0.176789 44.000000
3.053329 -0.047938 0.176789 41.000000
3.057162 -0.057378 0.176974 69.000000
3.058969 -0.066800 0.177066 39.000000
3.058750 -0.076185 0.177066 44.000000
3.064493 -0.085734 0.177344 38.000000
3.068210 -0.095258 0.177529 56.000000
3.074892 -0.104906 0.177852 51.000000
3.080545 -0.114560 0.178130 56.000000
3.083173 -0.124130 0.178268 58.000000
3.087768 -0.133802 0.178499 50.000000
3.091335 -0.143459 0.178684 47.000000
3.095868 -0.153187 0.178916 41.000000
3.094386 -0.162632 0.178869 40.000000
3.095867 -0.172235 0.178962 48.000000
3.092333 -0.181558 0.178823 39.000000
3.092758 -0.191105 0.178869 38.000000
3.091161 -0.200529 0.178823 42.000000
3.090531 -0.210011 0.178823 45.000000
3.087879 -0.219351 0.178731 33.000000
3.090180 -0.229044 0.178869 30.000000
3.117351 -0.240666 0.180164 19.000000
2.905820 0.662094 0.136594 41.000000
2.916614 0.655146 0.136899 56.000000
2.918611 0.646195 0.136899 54.000000
2.914720 0.635960 0.136696 43.000000
2.919589 0.627644 0.136797 54.000000
2.921501 0.618684 0.136797 42.000000
2.921429 0.609310 0.136730 47.000000
2.921326 0.599943 0.136662 62.000000
2.927072 0.591769 0.136797 65.000000
2.930834 0.583176 0.136865 58.000000
2.930647 0.573798 0.136797 54.000000
2.936320 0.565560 0.136933 83.000000
2.939023 0.556735 0.136967 65.000000
2.940717 0.547715 0.136967 62.000000
2.944350 0.539050 0.137034 69.000000
2.944022 0.529661 0.136967 74.000000
2.946618 0.520800 0.137001 68.000000
2.952141 0.512441 0.137136 59.000000
2.952714 0.503213 0.137102 70.000000
2.955230 0.494317 0.137136 55.000000
2.956732 0.485248 0.137136 67.000000
2.959193 0.476333 0.137170 65.000000
2.961628 0.467408 0.137204 73.000000
2.962061 0.458167 0.137170 75.000000
2.960488 0.448629 0.137068 62.000000
2.962839 0.439691 0.137102 55.000000
2.960217 0.430025 0.136967 68.000000
2.959544 0.420660 0.136899 55.000000
2.958841 0.411303 0.136831 67.000000
2.959098 0.402089 0.136797 63.000000
2.966263 0.393797 0.137001 71.000000
2.972412 0.385337 0.137170 54.000000
2.975564 0.376466 0.137238 57.000000
2.980672 0.367825 0.137373 67.000000
2.981787 0.358678 0.137373 55.000000
2.985851 0.349877 0.137474 47.000000
2.986911 0.340715 0.137474 61.000000
2.983968 0.331109 0.137339 82.000000
2.983976 0.321846 0.137305 49.000000
2.990914 0.313314 0.137508 68.000000
2.990867 0.304036 0.137474 60.000000
2.990791 0.294760 0.137441 70.000000
2.995661 0.285963 0.137576 51.000000
2.997519 0.276863 0.137610 57.000000
3.000345 0.267843 0.137678 56.000000
3.004140 0.258893 0.137779 55.000000
3.002928 0.249510 0.137711 65.000000
3.003680 0.240296 0.137711 57.000000
3.008389 0.231386 0.137847 81.000000
3.006094 0.221935 0.137745 64.000000
3.008755 0.212852 0.137813 63.000000
3.009393 0.203620 0.137813 64.000000
3.011999 0.194515 0.137881 67.000000
3.017569 0.185580 0.138050 69.000000
3.020120 0.176438 0.138118 70.000000
3.025637 0.167447 0.138287 61.000000
3.031126 0.158423 0.138456 63.000000
3.033595 0.149221 0.138524 57.000000
3.034038 0.139914 0.138524 51.000000
3.031457 0.130476 0.138422 51.000000
3.033841 0.121255 0.138490 63.000000
3.037195 0.112057 0.138592 55.000000
3.034528 0.102637 0.138490 73.000000
3.032830 0.093266 0.138422 63.000000
3.036099 0.084043 0.138524 59.000000
3.037342 0.074753 0.138558 45.000000
3.039555 0.065477 0.138626 56.000000
3.037744 0.056115 0.138558 56.000000
3.037902 0.046795 0.138558 58.000000
3.046026 0.037572 0.138829 54.000000
3.048126 0.028245 0.138896 51.000000
3.050196 0.018905 0.138964 56.000000
3.055237 0.009562 0.139133 61.000000
3.057251 0.000189 0.139201 53.000000
3.058237 -0.009194 0.139235 46.000000
3.060193 -0.018589 0.139303 54.000000
3.062120 -0.027996 0.139370 50.000000
3.062020 -0.037390 0.139370 60.000000
3.063889 -0.046815 0.139438 56.000000
3.066729 -0.056270 0.139540 56.000000
3.066542 -0.065678 0.139540 55.000000
3.070323 -0.075184 0.139675 52.000000
3.071076 -0.084631 0.139709 47.000000
3.068805 -0.093991 0.139641 41.000000
3.075494 -0.103642 0.139878 53.000000
3.076160 -0.113114 0.139912 49.000000
3.077796 -0.122631 0.139980 35.000000
3.083396 -0.132331 0.140183 37.000000
3.080979 -0.141698 0.140115 42.000000
3.084522 -0.151346 0.140250 43.000000
3.087038 -0.160965 0.140352 42.000000
3.086529 -0.170435 0.140352 39.000000
3.087987 -0.180020 0.140420 37.000000
3.087421 -0.189493 0.140420 35.000000
3.084830 -0.198835 0.140352 12.000000
2.914726 0.626337 0.100370 29.000000
2.922502 0.618636 0.100499 44.000000
2.924386 0.609667 0.100499 41.000000
2.922326 0.599887 0.100413 45.000000
2.925132 0.591117 0.100435 31.000000
2.926932 0.582140 0.100435 36.000000
2.931648 0.573735 0.100499 45.000000
2.929467 0.563980 0.100413 54.000000
2.926273 0.554058 0.100305 58.000000
2.928941 0.545261 0.100326 45.000000
2.930600 0.536273 0.100326 48.000000
2.931248 0.527102 0.100305 47.000000
2.931867 0.517932 0.100283 57.000000
2.934427 0.509106 0.100305 54.000000
2.934004 0.499765 0.100261 46.000000
2.937495 0.491092 0.100305 60.000000
2.939975 0.482239 0.100326 52.000000
2.940454 0.473058 0.100305 50.000000
2.942878 0.464191 0.100326 53.000000
2.944289 0.455160 0.100326 39.000000
2.944683 0.445975 0.100305 60.000000
2.948015 0.437233 0.100348 54.000000
2.950332 0.428330 0.100370 60.000000
2.950642 0.419136 0.100348 58.000000
2.949934 0.409806 0.100305 42.000000
2.948205 0.400349 0.100240 39.000000
2.958339 0.392489 0.100435 62.000000
2.961512 0.383668 0.100478 49.000000
2.963667 0.374707 0.100499 51.000000
2.966787 0.365858 0.100543 53.000000
2.962933 0.356156 0.100435 38.000000
2.967983 0.347530 0.100521 54.000000
2.972015 0.338764 0.100586 50.000000
2.970060 0.329313 0.100521 49.000000
2.972050 0.320307 0.100543 51.000000
2.976996 0.311605 0.100629 54.000000
2.976943 0.302369 0.100608 59.000000
2.978852 0.293333 0.100629 65.000000
2.985709 0.284764 0.100759 58.000000
2.988560 0.275787 0.100802 49.000000
2.989392 0.266617 0.100802 55.000000
2.992188 0.257617 0.100846 50.000000
2.994956 0.248602 0.100889 60.000000
3.000688 0.239813 0.100997 61.000000
3.003403 0.230759 0.101040 63.000000
3.002103 0.221396 0.100997 62.000000
3.006757 0.212468 0.101084 37.000000
3.006397 0.203175 0.101062 62.000000
3.008004 0.194015 0.101084 63.000000
3.006590 0.184662 0.101040 54.000000
3.007142 0.175437 0.101040 48.000000
3.008664 0.166266 0.101062 52.000000
3.010159 0.157088 0.101084 48.000000
3.014621 0.148050 0.101170 53.000000
3.018057 0.138939 0.101235 54.000000
3.020466 0.129766 0.101278 37.000000
3.020850 0.120499 0.101278 51.000000
3.026201 0.111416 0.101387 40.000000
3.027528 0.102165 0.101408 47.000000
3.025828 0.092815 0.101365 60.000000
3.028098 0.083587 0.101408 48.000000
3.029339 0.074321 0.101430 38.000000
3.030553 0.065049 0.101452 53.000000
3.035736 0.055845 0.101560 42.000000
3.036892 0.046547 0.101581 45.000000
3.041020 0.037280 0.101668 59.000000
3.047118 0.028008 0.101798 57.000000
3.050189 0.018679 0.101863 48.000000
3.053231 0.009331 0.101928 47.000000
3.053245 -0.000036 0.101928 59.000000
3.055231 -0.009409 0.101971 54.000000
3.055187 -0.018782 0.101971 53.000000
3.056115 -0.028164 0.101993 53.000000
3.056014 -0.037540 0.101993 43.000000
3.053885 -0.046886 0.101949 65.000000
3.057726 -0.056327 0.102036 51.000000
3.065535 -0.065876 0.102209 37.000000
3.064319 -0.075257 0.102187 52.000000
3.071069 -0.084848 0.102339 29.000000
3.068796 -0.094209 0.102296 45.000000
3.071490 -0.103724 0.102361 47.000000
3.080149 -0.113474 0.102555 32.000000
3.076790 -0.122805 0.102490 45.000000
3.081393 -0.132457 0.102599 29.000000
3.078974 -0.141818 0.102555 32.000000
3.083518 -0.151507 0.102663 18.000000
2.938646 0.602966 0.063784 47.000000
2.932640 0.592364 0.063710 50.000000
2.935425 0.583559 0.063719 44.000000
2.938182 0.574743 0.063729 53.000000
2.931094 0.564026 0.063645 52.000000
2.930846 0.554659 0.063627 61.000000
2.931550 0.545482 0.063618 59.000000
2.934194 0.536666 0.063627 64.000000
2.935826 0.527661 0.063627 70.000000
2.934477 0.518131 0.063599 91.000000
2.938024 0.509467 0.063618 90.000000
2.940558 0.500618 0.063627 84.000000
2.943067 0.491759 0.063636 90.000000
2.945549 0.482889 0.063645 78.000000
2.944054 0.473374 0.063618 76.000000
2.948456 0.464807 0.063645 68.000000
2.952833 0.456216 0.063673 84.000000
2.953230 0.447005 0.063664 65.000000
2.955576 0.438089 0.063673 64.000000
2.961855 0.429737 0.063719 62.000000
2.966129 0.421069 0.063747 71.000000
2.971369 0.412517 0.063784 45.000000
2.965685 0.402459 0.063719 71.000000
2.970870 0.393883 0.063756 59.000000
2.969090 0.384382 0.063729 70.000000
2.968271 0.375021 0.063710 70.000000
2.966430 0.365546 0.063682 62.000000
2.964559 0.356086 0.063655 67.000000
2.965638 0.346989 0.063655 66.000000
2.968675 0.338115 0.063673 63.000000
2.965723 0.328566 0.063636 56.000000
2.969700 0.319787 0.063664 51.000000
2.969672 0.310570 0.063655 48.000000
2.972601 0.301660 0.063673 56.000000
2.973513 0.292538 0.063673 62.000000
2.977382 0.283699 0.063701 67.000000
2.980230 0.274746 0.063719 83.000000
2.985043 0.265956 0.063756 57.000000
2.991823 0.257310 0.063812 63.000000
2.995588 0.248378 0.063840 70.000000
2.997333 0.239266 0.063849 48.000000
3.008023 0.230833 0.063941 60.000000
3.006722 0.221456 0.063923 52.000000
3.016365 0.212863 0.064006 75.000000
3.013013 0.203339 0.063969 58.000000
3.012625 0.194030 0.063960 70.000000
3.018196 0.185092 0.064006 61.000000
3.017752 0.175774 0.063997 66.000000
3.013285 0.166240 0.063951 52.000000
3.019772 0.157306 0.064006 76.000000
3.020240 0.148041 0.064006 57.000000
3.028672 0.139140 0.064080 63.000000
3.036077 0.130146 0.064145 53.000000
3.038461 0.120910 0.064163 59.000000
3.034820 0.111442 0.064126 53.000000
3.040145 0.102298 0.064173 55.000000
3.036447 0.092849 0.064136 68.000000
3.032719 0.083423 0.064099 48.000000
3.029962 0.074046 0.064071 71.000000
3.035173 0.064856 0.064117 47.000000
3.034358 0.055525 0.064108 59.000000
3.035514 0.046231 0.064117 62.000000
3.044640 0.037026 0.064200 35.000000
3.044740 0.027685 0.064200 63.000000
3.050810 0.018379 0.064256 45.000000
3.053852 0.009028 0.064284 65.000000
3.051865 -0.000341 0.064265 68.000000
3.060849 -0.009733 0.064348 50.000000
3.062805 -0.019137 0.064367 74.000000
3.063732 -0.028543 0.064376 60.000000
3.072629 -0.038054 0.064459 44.000000
3.067498 -0.047403 0.064413 55.000000
3.075337 -0.056963 0.064487 49.000000
3.077147 -0.066441 0.064506 49.000000
3.072930 -0.075782 0.064469 67.000000
3.076681 -0.085321 0.064506 38.000000
3.075406 -0.094729 0.064496 54.000000
3.077099 -0.104231 0.064515 36.000000
3.083760 -0.113931 0.064580 12.000000
2.924242 0.562972 0.026357 31.000000
2.922026 0.553253 0.026370 37.000000
2.924693 0.544469 0.026367 47.000000
2.928316 0.535854 0.026360 42.000000
2.930930 0.527045 0.026357 39.000000
2.934503 0.518399 0.026350 33.000000
2.935095 0.509223 0.026354 38.000000
2.942557 0.501225 0.026334 41.000000
2.944081 0.492195 0.026334 51.000000
2.943604 0.482836 0.026340 58.000000
2.946059 0.473962 0.026337 49.000000
2.948487 0.465078 0.026334 50.000000
2.950888 0.456183 0.026330 54.000000
2.952273 0.447128 0.026330 49.000000
2.951653 0.437774 0.026337 62.000000
2.954961 0.429004 0.026330 48.000000
2.956264 0.419937 0.026330 57.000000
2.957538 0.410865 0.026330 47.000000
2.957794 0.401654 0.026334 44.000000
2.960995 0.392842 0.026327 68.000000
2.963178 0.383885 0.026324 47.000000
2.965333 0.374918 0.026321 52.000000
2.965477 0.365696 0.026324 56.000000
2.964600 0.356357 0.026330 53.000000
2.971638 0.347960 0.026311 60.000000
2.968718 0.338387 0.026324 56.000000
2.964772 0.328724 0.026340 46.000000
2.966761 0.319735 0.026337 32.000000
2.970711 0.310945 0.026327 49.000000
2.974636 0.302134 0.026317 50.000000
2.981520 0.293596 0.026297 63.000000
2.981411 0.284352 0.026301 51.000000
2.985257 0.275481 0.026291 40.000000
2.995052 0.267124 0.026261 55.000000
2.992868 0.257676 0.026271 40.000000
2.998628 0.248908 0.026254 64.000000
2.995390 0.239387 0.026267 47.000000
3.001096 0.230581 0.026251 40.000000
3.000792 0.221299 0.026254 56.000000
2.998464 0.211879 0.026264 41.000000
2.997104 0.202543 0.026271 55.000000
2.997712 0.193347 0.026271 43.000000
2.998291 0.184149 0.026271 49.000000
3.003833 0.175243 0.026254 53.000000
3.005355 0.166082 0.026251 44.000000
3.010844 0.157124 0.026234 54.000000
3.018303 0.148232 0.026211 47.000000
3.020741 0.139064 0.026204 47.000000
3.022153 0.129839 0.026201 45.000000
3.026534 0.120728 0.026188 47.000000
3.024891 0.111367 0.026195 44.000000
3.026218 0.102121 0.026191 51.000000
3.024518 0.092774 0.026198 52.000000
3.019790 0.083354 0.026214 41.000000
3.028029 0.074289 0.026188 43.000000
3.033242 0.065108 0.026171 53.000000
3.033427 0.055802 0.026171 59.000000
3.041583 0.046621 0.026145 46.000000
3.044712 0.037327 0.026135 47.000000
3.050812 0.028043 0.026115 34.000000
3.049883 0.018677 0.026118 41.000000
3.047926 0.009313 0.026125 44.000000
3.041940 -0.000040 0.026145 44.000000
3.043926 -0.009378 0.026138 34.000000
3.044883 -0.018723 0.026135 37.000000
3.041811 -0.028038 0.026145 33.000000
3.047710 -0.037441 0.026125 40.000000
3.050581 -0.046836 0.026115 43.000000
3.053422 -0.056249 0.026105 38.000000
3.062233 -0.065806 0.026075 13.000000
2.936723 0.538182 -0.010474 41.000000
2.940328 0.529524 -0.010505 43.000000
2.938985 0.519978 -0.010458 64.000000
2.940566 0.510959 -0.010458 46.000000
2.947048 0.502775 -0.010537 57.000000
2.944632 0.493071 -0.010474 54.000000
2.945145 0.483873 -0.010458 75.000000
2.940692 0.473882 -0.010364 77.000000
2.938182 0.464234 -0.010301 83.000000
2.940580 0.455370 -0.010317 62.000000
2.943941 0.446646 -0.010348 71.000000
2.948264 0.438053 -0.010395 64.000000
2.953552 0.429581 -0.010458 76.000000
2.959806 0.421221 -0.010537 49.000000
2.962074 0.412276 -0.010552 69.000000
2.966298 0.403591 -0.010599 82.000000
2.967522 0.394488 -0.010599 73.000000
2.967727 0.385254 -0.010584 65.000000
2.970879 0.376398 -0.010615 63.000000
2.976981 0.367894 -0.010694 79.000000
2.978096 0.358759 -0.010694 88.000000
2.986134 0.350436 -0.010804 66.000000
2.987195 0.341273 -0.010804 61.000000
2.992203 0.332548 -0.010866 71.000000
2.992215 0.323259 -0.010851 55.000000
2.995182 0.314286 -0.010882 88.000000
2.996132 0.305096 -0.010882 73.000000
2.995064 0.295706 -0.010851 58.000000
2.993966 0.286326 -0.010819 60.000000
3.000804 0.277691 -0.010914 67.000000
2.999650 0.268306 -0.010882 67.000000
2.996475 0.258758 -0.010819 66.000000
2.997254 0.249564 -0.010819 55.000000
2.998006 0.240367 -0.010819 85.000000
2.999726 0.231245 -0.010835 68.000000
2.997430 0.221820 -0.010788 61.000000
3.000091 0.212764 -0.010819 75.000000
3.000730 0.203559 -0.010819 52.000000
3.009322 0.194868 -0.010945 68.000000
3.010904 0.185696 -0.010961 50.000000
3.013456 0.176574 -0.010992 70.000000
3.016979 0.167494 -0.011039 71.000000
3.021472 0.158446 -0.011102 51.000000
3.022943 0.149225 -0.011118 70.000000
3.023387 0.139950 -0.011118 65.000000
3.026798 0.130803 -0.011165 51.000000
3.030183 0.121636 -0.011212 63.000000
3.030542 0.112339 -0.011212 74.000000
3.031872 0.103075 -0.011228 68.000000
3.025177 0.093557 -0.011118 62.000000
3.026450 0.084303 -0.011133 59.000000
3.034691 0.075215 -0.011259 59.000000
3.037906 0.065969 -0.011306 42.000000
3.038094 0.056649 -0.011306 53.000000
3.044252 0.047420 -0.011401 56.000000
3.047383 0.038118 -0.011448 63.000000
3.053484 0.028824 -0.011542 38.000000
3.055558 0.019468 -0.011573 46.000000
3.051604 0.010081 -0.011510 47.000000
3.044621 0.000718 -0.011401 56.000000
3.044609 -0.008622 -0.011401 41.000000
3.041569 -0.017945 -0.011353 52.000000
3.066496 -0.027504 -0.011746 13.000000
2.951467 0.530746 -0.046623 22.000000
2.944223 0.520120 -0.046373 32.000000
2.936941 0.509544 -0.046124 40.000000
2.942432 0.501204 -0.046234 40.000000
2.942970 0.492009 -0.046207 54.000000
2.941506 0.482491 -0.046124 58.000000
2.938039 0.472669 -0.045985 44.000000
2.935525 0.463028 -0.045874 39.000000
2.937920 0.454173 -0.045902 45.000000
2.940288 0.445307 -0.045929 49.000000
2.934719 0.435255 -0.045735 36.000000
2.944943 0.427546 -0.045985 47.000000
2.948220 0.418791 -0.046040 54.000000
2.955431 0.410571 -0.046207 49.000000
2.961629 0.402177 -0.046345 51.000000
2.963840 0.393221 -0.046373 61.000000
2.968007 0.384512 -0.046456 53.000000
2.975122 0.376159 -0.046623 45.000000
2.972294 0.366539 -0.046512 41.000000
2.969435 0.356940 -0.046401 41.000000
2.966545 0.347362 -0.046290 52.000000
2.961638 0.337577 -0.046124 48.000000
2.964647 0.328710 -0.046179 48.000000
2.965641 0.319613 -0.046179 36.000000
2.962631 0.310096 -0.046068 46.000000
2.969536 0.301613 -0.046234 54.000000
2.975421 0.292993 -0.046373 52.000000
2.982276 0.284435 -0.046540 53.000000
2.992092 0.276115 -0.046789 54.000000
2.988943 0.266577 -0.046678 43.000000
2.993730 0.257750 -0.046789 60.000000
2.997496 0.248814 -0.046873 48.000000
2.990273 0.238976 -0.046651 40.000000
2.994979 0.230109 -0.046762 44.000000
2.992681 0.220698 -0.046678 64.000000
2.991349 0.211373 -0.046623 66.000000
2.994976 0.202398 -0.046706 52.000000
2.993587 0.193080 -0.046651 40.000000
2.996161 0.184018 -0.046706 49.000000
3.002699 0.175177 -0.046873 41.000000
3.009211 0.166297 -0.047039 39.000000
3.013700 0.157274 -0.047150 45.000000
3.016165 0.148126 -0.047206 57.000000
3.018602 0.138965 -0.047261 48.000000
3.020013 0.129746 -0.047289 45.000000
3.023393 0.120601 -0.047372 47.000000
3.021751 0.111251 -0.047317 49.000000
3.020080 0.101911 -0.047261 64.000000
3.024375 0.092769 -0.047372 47.000000
3.028642 0.083602 -0.047483 55.000000
3.036879 0.074509 -0.047705 35.000000
3.038093 0.065214 -0.047733 44.000000
3.037279 0.055874 -0.047705 38.000000
3.038436 0.046571 -0.047733 38.000000
3.043562 0.037312 -0.047872 44.000000
3.045661 0.027994 -0.047927 30.000000
3.027740 0.018533 -0.047428 11.000000
2.936703 0.473239 -0.083174 36.000000
2.936167 0.463916 -0.083094 44.000000
2.941526 0.455517 -0.083255 59.000000
2.937971 0.445741 -0.083054 58.000000
2.941301 0.437019 -0.083134 46.000000
2.945594 0.428424 -0.083255 72.000000
2.947884 0.419526 -0.083295 49.000000
2.951136 0.410755 -0.083376 69.000000
2.956343 0.402238 -0.083537 62.000000
2.957563 0.393166 -0.083537 70.000000
2.960737 0.384347 -0.083618 60.000000
2.965867 0.375764 -0.083779 65.000000
2.964031 0.366296 -0.083658 69.000000
2.963157 0.356962 -0.083577 57.000000
2.963246 0.347753 -0.083537 73.000000
2.960328 0.338207 -0.083376 77.000000
2.965324 0.329564 -0.083537 62.000000
2.967315 0.320572 -0.083577 67.000000
2.966297 0.311259 -0.083497 83.000000
2.972208 0.302663 -0.083698 64.000000
2.976106 0.293837 -0.083819 59.000000
2.980972 0.285085 -0.083981 67.000000
2.983822 0.276122 -0.084061 55.000000
2.982665 0.266788 -0.083981 83.000000
2.987451 0.257980 -0.084142 81.000000
2.993207 0.249227 -0.084343 81.000000
2.999934 0.240521 -0.084585 71.000000
3.003647 0.231547 -0.084706 67.000000
3.001353 0.222110 -0.084585 71.000000
3.002021 0.212900 -0.084585 77.000000
2.999669 0.203487 -0.084464 73.000000
2.997288 0.194090 -0.084343 62.000000
2.997869 0.184893 -0.084343 65.000000
2.998422 0.175695 -0.084343 67.000000
3.000942 0.166606 -0.084424 61.000000
3.005431 0.157607 -0.084585 46.000000
3.009892 0.148582 -0.084746 72.000000
3.010334 0.139347 -0.084746 53.000000
3.016737 0.130369 -0.084988 44.000000
3.021116 0.121273 -0.085149 59.000000
3.022472 0.112041 -0.085190 64.000000
3.025798 0.102869 -0.085311 66.000000
3.029095 0.093678 -0.085432 56.000000
3.045349 0.084827 -0.086076 46.000000
3.055584 0.075730 -0.086480 43.000000
3.052805 0.066291 -0.086359 34.000000
3.088959 0.057591 -0.087810 14.000000
2.933610 0.443251 -0.118483 38.000000
2.935944 0.434396 -0.118535 57.000000
2.935286 0.425099 -0.118431 47.000000
2.934599 0.415811 -0.118326 39.000000
2.936850 0.406943 -0.118378 37.000000
2.942043 0.398469 -0.118588 41.000000
2.945232 0.389704 -0.118692 51.000000
2.950375 0.381179 -0.118902 55.000000
2.954503 0.372502 -0.119059 56.000000
2.957614 0.363680 -0.119163 55.000000
2.961690 0.354963 -0.119320 53.000000
2.963757 0.345991 -0.119373 53.000000
2.961828 0.336557 -0.119216 40.000000
2.968801 0.328129 -0.119530 43.000000
2.969795 0.319020 -0.119530 48.000000
2.973739 0.310219 -0.119687 47.000000
2.971696 0.300791 -0.119530 55.000000
2.963660 0.290792 -0.119059 34.000000
2.970503 0.282267 -0.119373 49.000000
2.974338 0.273428 -0.119530 44.000000
2.975163 0.264301 -0.119530 52.000000
2.978945 0.255429 -0.119687 46.000000
2.982700 0.246537 -0.119844 52.000000
2.993397 0.238181 -0.120367 43.000000
3.002079 0.229609 -0.120786 62.000000
2.999782 0.220177 -0.120629 56.000000
2.998451 0.210832 -0.120524 58.000000
3.000080 0.201699 -0.120576 60.000000
2.997695 0.192301 -0.120419 56.000000
2.999268 0.183164 -0.120472 64.000000
2.999815 0.173962 -0.120472 64.000000
2.997344 0.164592 -0.120315 46.000000
3.000826 0.155552 -0.120472 51.000000
3.010266 0.146786 -0.120943 57.000000
3.022673 0.138102 -0.121571 45.000000
3.035055 0.129342 -0.122199 54.000000
3.067369 0.121305 -0.123874 49.000000
3.105649 0.113292 -0.125862 28.000000
3.154886 0.105415 -0.128427 29.000000
3.179151 0.096472 -0.129683 29.000000
3.188416 0.086966 -0.130154 53.000000
3.202644 0.077527 -0.130887 31.000000
3.220838 0.068087 -0.131829 20.000000
3.266961 0.059052 -0.134236 6.000000
2.944402 0.409819 -0.155558 63.000000
2.948612 0.401187 -0.155752 56.000000
2.952796 0.392533 -0.155946 48.000000
2.953987 0.383472 -0.155946 50.000000
2.955149 0.374407 -0.155946 62.000000
2.953313 0.364973 -0.155752 51.000000
2.956400 0.356149 -0.155881 56.000000
2.959461 0.347309 -0.156011 71.000000
2.963487 0.338568 -0.156205 49.000000
2.966496 0.329694 -0.156334 64.000000
2.975430 0.321448 -0.156852 56.000000
2.981365 0.312838 -0.157175 63.000000
2.986282 0.304094 -0.157434 64.000000
2.988194 0.295029 -0.157499 54.000000
2.989085 0.285860 -0.157499 57.000000
2.989948 0.276688 -0.157499 61.000000
2.992770 0.267691 -0.157628 56.000000
2.990595 0.258251 -0.157434 68.000000
2.992368 0.249157 -0.157499 70.000000
2.995107 0.240135 -0.157628 59.000000
2.999810 0.231251 -0.157887 71.000000
3.002495 0.222194 -0.158017 53.000000
2.998186 0.212629 -0.157693 55.000000
2.998824 0.203430 -0.157693 52.000000
3.007401 0.194743 -0.158211 60.000000
3.014956 0.185945 -0.158664 54.000000
3.021490 0.177044 -0.159052 68.000000
3.036964 0.168601 -0.160023 55.000000
3.048429 0.159856 -0.160734 52.000000
3.074820 0.151779 -0.162417 28.000000
3.133088 0.145014 -0.166170 62.000000
3.144485 0.135874 -0.166881 42.000000
3.172806 0.127343 -0.168693 57.000000
3.183153 0.117977 -0.169340 35.000000
3.197463 0.108683 -0.170246 52.000000
3.212743 0.099334 -0.171217 51.000000
3.216025 0.089560 -0.171411 54.000000
3.227258 0.079963 -0.172123 39.000000
3.234472 0.070213 -0.172576 23.000000
3.228686 0.060178 -0.172187 30.000000
3.252802 0.050642 -0.173740 11.000000
2.993243 0.386735 -0.194312 27.000000
2.979577 0.375673 -0.193164 39.000000
2.977747 0.366164 -0.192934 48.000000
2.972917 0.356313 -0.192475 48.000000
2.968054 0.346494 -0.192016 36.000000
2.966131 0.337048 -0.191786 41.000000
2.967151 0.327946 -0.191786 44.000000
2.968144 0.318842 -0.191786 41.000000
2.972083 0.310045 -0.192016 44.000000
2.973020 0.300926 -0.192016 49.000000
2.977898 0.292194 -0.192322 43.000000
2.983744 0.283530 -0.192704 44.000000
2.983607 0.274283 -0.192628 55.000000
2.986420 0.265306 -0.192781 54.000000
2.987220 0.256142 -0.192781 52.000000
2.988985 0.247059 -0.192858 49.000000
2.992711 0.238126 -0.193087 47.000000
2.994422 0.229020 -0.193164 50.000000
3.002071 0.220346 -0.193700 55.000000
3.015662 0.212049 -0.194695 40.000000
3.034205 0.204006 -0.196072 38.000000
3.053721 0.195917 -0.197527 51.000000
3.090135 0.188749 -0.200282 56.000000
3.106625 0.180197 -0.201507 35.000000
3.131057 0.171987 -0.203344 43.000000
3.152479 0.163472 -0.204952 52.000000
3.165912 0.154436 -0.205947 76.000000
3.174340 0.145090 -0.206559 45.000000
3.180747 0.135607 -0.207018 65.000000
3.191110 0.126246 -0.207784 47.000000
3.194472 0.116565 -0.208013 40.000000
3.203783 0.107067 -0.208702 40.000000
3.214062 0.097544 -0.209468 44.000000
3.222320 0.087903 -0.210080 42.000000
3.228555 0.078164 -0.210539 30.000000
3.239745 0.068494 -0.211381 35.000000
3.237946 0.058517 -0.211228 25.000000
3.221162 0.048323 -0.209927 8.000000
3.161766 0.419167 -0.246501 23.000000
3.156122 0.408571 -0.245880 37.000000
3.132656 0.395768 -0.243662 39.000000
3.098266 0.381774 -0.240468 37.000000
3.042063 0.365385 -0.235322 57.000000
3.018436 0.353160 -0.233104 55.000000
2.994764 0.341083 -0.230886 37.000000
2.984906 0.330689 -0.229910 45.000000
2.980954 0.320997 -0.229466 44.000000
2.977962 0.311436 -0.229111 55.000000
2.977913 0.302198 -0.229023 56.000000
2.982791 0.293450 -0.229378 55.000000
2.985661 0.284486 -0.229555 53.000000
2.986520 0.275325 -0.229555 66.000000
2.996279 0.266956 -0.230353 52.000000
3.001054 0.258103 -0.230708 41.000000
3.012751 0.249799 -0.231684 63.000000
3.024425 0.241425 -0.232660 64.000000
3.060905 0.234884 -0.235854 49.000000
3.105320 0.228706 -0.239758 46.000000
3.120911 0.220227 -0.241089 60.000000
3.135485 0.211589 -0.242331 32.000000
3.148047 0.202735 -0.243395 48.000000
3.161579 0.193867 -0.244549 47.000000
3.161165 0.184108 -0.244460 37.000000
3.166687 0.174683 -0.244904 40.000000
3.180139 0.165639 -0.246057 53.000000
3.178643 0.155784 -0.245880 131.000000
3.187066 0.146396 -0.246589 59.000000
3.189491 0.136703 -0.246767 77.000000
3.192881 0.127035 -0.247033 82.000000
3.189274 0.117093 -0.246678 56.000000
3.195591 0.107509 -0.247210 56.000000
3.200884 0.097856 -0.247654 34.000000
3.207143 0.088199 -0.248186 52.000000
3.224327 0.078770 -0.249695 48.000000
3.235507 0.069111 -0.250670 27.000000
3.234708 0.059166 -0.250582 31.000000
3.246826 0.049422 -0.251646 28.000000
3.181327 0.431536 -0.288889 29.000000
3.176718 0.420987 -0.288282 30.000000
3.173062 0.410599 -0.287775 26.000000
3.169372 0.400237 -0.287269 29.000000
3.159724 0.389170 -0.286156 29.000000
3.152014 0.378404 -0.285245 34.000000
3.123517 0.365254 -0.282208 37.000000
3.100901 0.352960 -0.279778 46.000000
3.067362 0.339601 -0.276235 36.000000
3.033770 0.326450 -0.272692 50.000000
3.015958 0.315169 -0.270769 43.000000
3.008003 0.305008 -0.269858 50.000000
3.013875 0.296267 -0.270364 43.000000
3.018731 0.287398 -0.270769 50.000000
3.058233 0.281709 -0.274717 43.000000
3.102683 0.276223 -0.279171 34.000000
3.124331 0.268499 -0.281297 44.000000
3.134063 0.259655 -0.282208 43.000000
3.155670 0.251708 -0.284334 30.000000
3.165355 0.242713 -0.285245 42.000000
3.174022 0.233587 -0.286055 46.000000
3.190601 0.224974 -0.287674 69.000000
3.189291 0.215050 -0.287472 63.000000
3.185965 0.205007 -0.287067 37.000000
3.194522 0.195721 -0.287877 48.000000
3.194115 0.185862 -0.287775 70.000000
3.196657 0.176172 -0.287978 71.000000
3.194202 0.166207 -0.287674 48.000000
3.186747 0.156015 -0.286864 34.000000
3.189199 0.146329 -0.287067 52.000000
3.183669 0.136287 -0.286459 54.000000
3.187055 0.126638 -0.286763 51.000000
3.188422 0.116897 -0.286864 37.000000
3.187772 0.107081 -0.286763 43.000000
3.194051 0.097484 -0.287371 34.000000
3.207264 0.088044 -0.288686 32.000000
3.224426 0.078622 -0.290407 29.000000
3.224652 0.068730 -0.290407 39.000000
3.236784 0.059058 -0.291622 15.000000
3.231976 0.049051 -0.291116 10.000000
3.157848 0.419206 -0.324407 42.000000
3.156163 0.409133 -0.324068 40.000000
3.159374 0.399698 -0.324294 43.000000
3.159600 0.389881 -0.324181 52.000000
3.158808 0.379949 -0.323955 48.000000
3.156012 0.369794 -0.323503 45.000000
3.150221 0.359322 -0.322712 51.000000
3.144396 0.348890 -0.321920 44.000000
3.141500 0.338816 -0.321468 60.000000
3.142524 0.329176 -0.321468 62.000000
3.143520 0.319533 -0.321468 56.000000
3.156351 0.311056 -0.322825 43.000000
3.166192 0.302219 -0.323842 52.000000
3.181946 0.293873 -0.325537 64.000000
3.193718 0.285080 -0.326781 38.000000
3.195568 0.275366 -0.326894 67.000000
3.198378 0.265725 -0.327120 55.000000
3.201159 0.256069 -0.327346 62.000000
3.203911 0.246399 -0.327572 54.000000
3.203661 0.236495 -0.327459 34.000000
3.230141 0.228485 -0.330398 117.000000
3.222896 0.218039 -0.329493 72.000000
3.219583 0.207894 -0.329041 65.000000
3.215247 0.197712 -0.328476 63.000000
3.210879 0.187557 -0.327911 55.000000
3.206479 0.177432 -0.327346 48.000000
3.202047 0.167335 -0.326781 52.000000
3.196591 0.157218 -0.326102 54.000000
3.194081 0.147273 -0.325763 74.000000
3.189554 0.137260 -0.325198 69.000000
3.187975 0.127395 -0.324972 55.000000
3.190336 0.117687 -0.325198 69.000000
3.189690 0.107865 -0.325085 56.000000
3.195964 0.098261 -0.325763 59.000000
3.205189 0.088702 -0.326781 48.000000
3.211406 0.079014 -0.327459 45.000000
3.218587 0.069310 -0.328250 53.000000
3.230706 0.059654 -0.329606 37.000000
3.254717 0.050107 -0.332319 16.000000
3.157453 0.408573 -0.364033 18.000000
3.167550 0.400006 -0.365161 34.000000
3.170731 0.390530 -0.365412 30.000000
3.165020 0.379970 -0.364535 35.000000
3.164200 0.370027 -0.364284 52.000000
3.160392 0.359755 -0.363657 51.000000
3.156550 0.349509 -0.363031 28.000000
3.161553 0.340249 -0.363532 40.000000
3.162582 0.330548 -0.363532 42.000000
3.164569 0.320945 -0.363657 42.000000
3.168500 0.311527 -0.364033 60.000000
3.176354 0.302465 -0.364911 49.000000
3.179243 0.292902 -0.365161 46.000000
3.186056 0.283677 -0.365913 46.000000
3.197784 0.274839 -0.367292 46.000000
3.201578 0.265274 -0.367668 54.000000
3.209300 0.256005 -0.368545 47.000000
3.224907 0.247301 -0.370425 55.000000
3.237524 0.238284 -0.371929 27.000000
3.260011 0.229894 -0.374687 96.000000
3.247834 0.219019 -0.373057 47.000000
3.239580 0.208477 -0.371929 47.000000
3.233273 0.198110 -0.371052 40.000000
3.226932 0.187783 -0.370175 44.000000
3.211644 0.177003 -0.368169 26.000000
3.203255 0.166682 -0.367041 50.000000
3.194833 0.156414 -0.365913 38.000000
3.190343 0.146382 -0.365287 47.000000
3.187803 0.136465 -0.364911 41.000000
3.187215 0.126645 -0.364785 40.000000
3.190563 0.116976 -0.365161 38.000000
3.193882 0.107288 -0.365537 39.000000
3.200146 0.097673 -0.366289 38.000000
3.207373 0.088047 -0.367167 39.000000
3.215562 0.078403 -0.368169 39.000000
3.220747 0.068645 -0.368796 42.000000
3.235821 0.059040 -0.370676 26.000000
3.276659 0.049745 -0.375815 10.000000
3.190481 0.414705 -0.408067 26.000000
3.188790 0.404541 -0.407655 37.000000
3.188051 0.394513 -0.407380 43.000000
3.182362 0.383901 -0.406418 34.000000
3.174671 0.373096 -0.405181 35.000000
3.169896 0.362680 -0.404356 49.000000
3.167056 0.352515 -0.403807 64.000000
3.164184 0.342371 -0.403257 44.000000
3.163249 0.332455 -0.402982 47.000000
3.164254 0.322749 -0.402982 59.000000
3.168186 0.313332 -0.403394 50.000000
3.177021 0.304365 -0.404494 51.000000
3.184844 0.295256 -0.405456 47.000000
3.197573 0.286543 -0.407105 48.000000
3.205345 0.277329 -0.408067 51.000000
3.217039 0.268398 -0.409579 48.000000
3.226733 0.259240 -0.410816 40.000000
3.237389 0.250101 -0.412191 34.000000
3.256910 0.241557 -0.414802 15.000000
3.246471 0.220764 -0.413153 26.000000
3.253064 0.211187 -0.413978 66.000000
3.239856 0.200351 -0.412053 54.000000
3.240455 0.190411 -0.412053 47.000000
3.232124 0.179974 -0.410816 51.000000
3.225737 0.169693 -0.409854 59.000000
3.222285 0.159601 -0.409304 51.000000
3.216822 0.149439 -0.408480 60.000000
3.211328 0.139312 -0.407655 46.000000
3.211741 0.129460 -0.407655 53.000000
3.210143 0.119532 -0.407380 59.000000
3.205545 0.109514 -0.406693 70.000000
3.204876 0.099649 -0.406556 45.000000
3.211107 0.089982 -0.407380 50.000000
3.216319 0.080252 -0.408067 45.000000
3.222492 0.070514 -0.408892 38.000000
3.225664 0.060683 -0.409304 35.000000
3.316951 0.052210 -0.421949 8.000000
3.230406 0.417470 -0.452894 14.000000
3.207147 0.404455 -0.449165 30.000000
3.203465 0.394009 -0.448419 36.000000
3.197787 0.383353 -0.447374 41.000000
3.189128 0.372390 -0.445882 44.000000
3.185343 0.362044 -0.445137 39.000000
3.184473 0.352051 -0.444838 44.000000
3.181606 0.341856 -0.444241 45.000000
3.182639 0.332093 -0.444241 49.000000
3.184627 0.322428 -0.444391 41.000000
3.191505 0.313237 -0.445286 61.000000
3.197373 0.303914 -0.446032 51.000000
3.207152 0.294921 -0.447374 63.000000
3.219861 0.286135 -0.449165 44.000000
3.223679 0.276510 -0.449612 42.000000
3.233381 0.267355 -0.450955 43.000000
3.239114 0.257828 -0.451701 42.000000
3.214256 0.245919 -0.447822 11.000000
3.258476 0.209131 -0.454088 30.000000
3.259102 0.199133 -0.454088 40.000000
3.255749 0.188903 -0.453491 42.000000
3.251377 0.178641 -0.452745 40.000000
3.242035 0.168149 -0.451253 47.000000
3.233647 0.157765 -0.449911 46.000000
3.232141 0.147753 -0.449612 46.000000
3.222699 0.137411 -0.448120 39.000000
3.218165 0.127326 -0.447374 46.000000
3.218541 0.117452 -0.447374 49.000000
3.214934 0.107444 -0.446778 51.000000
3.216236 0.097610 -0.446927 45.000000
3.228382 0.088071 -0.448717 42.000000
3.225671 0.078093 -0.448270 31.000000
3.232816 0.068345 -0.449314 34.000000
3.243885 0.058627 -0.450955 25.000000
3.225403 0.408612 -0.491895 38.000000
3.216846 0.397506 -0.490284 39.000000
3.210212 0.386691 -0.488995 34.000000
3.200601 0.375577 -0.487223 36.000000
3.179184 0.363182 -0.483518 69.000000
3.183227 0.353753 -0.484001 50.000000
3.181353 0.343668 -0.483518 47.000000
3.186319 0.334318 -0.484163 48.000000
3.198130 0.325639 -0.485934 49.000000
3.208936 0.316794 -0.487545 36.000000
3.214805 0.307417 -0.488351 51.000000
3.223595 0.298279 -0.489639 50.000000
3.230393 0.288915 -0.490606 35.000000
3.239131 0.279681 -0.491895 47.000000
3.241940 0.269906 -0.492217 45.000000
3.212256 0.257517 -0.487223 16.000000
3.269646 0.201620 -0.495922 35.000000
3.256455 0.190781 -0.493667 65.000000
3.256040 0.180735 -0.493506 51.000000
3.253622 0.170590 -0.493022 63.000000
3.248216 0.160316 -0.492056 59.000000
3.245735 0.150214 -0.491572 66.000000
3.241250 0.140043 -0.490767 60.000000
3.234762 0.129822 -0.489639 73.000000
3.231200 0.119752 -0.488995 48.000000
3.229579 0.109771 -0.488673 59.000000
3.230887 0.099893 -0.488834 47.000000
3.241044 0.090253 -0.490445 38.000000
3.242292 0.080334 -0.490606 43.000000
3.247457 0.070493 -0.491411 36.000000
3.265420 0.060858 -0.494311 22.000000
3.253749 0.050657 -0.492378 7.000000
3.227127 0.396928 -0.532029 20.000000
3.228329 0.387025 -0.532029 22.000000
3.208958 0.374713 -0.528397 37.000000
3.193457 0.362969 -0.525457 51.000000
3.194555 0.353170 -0.525457 48.000000
3.192686 0.343051 -0.524938 46.000000
3.196662 0.333562 -0.525457 41.000000
3.209429 0.324948 -0.527532 30.000000
3.217272 0.315776 -0.528743 49.000000
3.229011 0.306933 -0.530645 41.000000
3.239745 0.297930 -0.532375 52.000000
3.244568 0.288340 -0.533067 33.000000
3.252306 0.278976 -0.534278 33.000000
3.253147 0.268997 -0.534278 27.000000
3.254939 0.259093 -0.534451 13.000000
3.258173 0.199076 -0.534278 23.000000
3.255819 0.188907 -0.533759 40.000000
3.256383 0.178918 -0.533759 28.000000
3.257900 0.168978 -0.533932 40.000000
3.255452 0.158837 -0.533413 39.000000
3.251005 0.148622 -0.532548 41.000000
3.246525 0.138436 -0.531683 52.000000
3.241030 0.128239 -0.530645 53.000000
3.236487 0.118114 -0.529781 57.000000
3.231912 0.108017 -0.528916 46.000000
3.239119 0.098313 -0.530127 37.000000
3.243344 0.088484 -0.530818 41.000000
3.274124 0.079283 -0.536180 19.000000
3.277306 0.069302 -0.536699 24.000000
3.315909 0.059954 -0.543445 5.000000
3.263185 0.402075 -0.577943 16.000000
3.262451 0.391828 -0.577574 16.000000
3.235328 0.378508 -0.572225 33.000000
3.218897 0.366581 -0.568904 30.000000
3.205353 0.355082 -0.566137 49.000000
3.200564 0.344616 -0.565030 46.000000
3.201607 0.334795 -0.565030 56.000000
3.206530 0.325368 -0.565768 44.000000
3.218272 0.316586 -0.567797 34.000000
3.239775 0.308666 -0.571671 45.000000
3.251473 0.299716 -0.573700 36.000000
3.256293 0.290088 -0.574438 50.000000
3.270877 0.281273 -0.577021 43.000000
3.250175 0.269453 -0.572963 13.000000
3.298981 0.192118 -0.581079 27.000000
3.281891 0.181024 -0.577759 45.000000
3.273597 0.170495 -0.576098 59.000000
3.278032 0.160643 -0.576836 53.000000
3.277527 0.150540 -0.576652 39.000000
3.267172 0.140023 -0.574623 52.000000
3.265622 0.129921 -0.574254 46.000000
3.256184 0.119542 -0.572409 68.000000
3.255553 0.109518 -0.572225 53.000000
3.256856 0.099560 -0.572409 40.000000
3.255181 0.089514 -0.572040 51.000000
3.251510 0.079431 -0.571302 48.000000
3.254686 0.069518 -0.571856 41.000000
3.258815 0.059604 -0.572594 11.000000
3.255499 0.410571 -0.616929 29.000000
3.248958 0.399621 -0.615360 36.000000
3.242380 0.388715 -0.613791 32.000000
3.230896 0.377282 -0.611241 25.000000
3.219373 0.365924 -0.608692 38.000000
3.209760 0.354856 -0.606534 31.000000
3.207908 0.344692 -0.605946 38.000000
3.217728 0.335768 -0.607711 40.000000
3.230450 0.327084 -0.610065 67.000000
3.248028 0.318806 -0.613399 96.000000
3.250943 0.309026 -0.613791 69.000000
3.256757 0.299501 -0.614771 50.000000
3.274265 0.290990 -0.618105 27.000000
3.271235 0.280606 -0.617321 9.000000
3.282219 0.180346 -0.618105 11.000000
3.293529 0.170838 -0.620263 31.000000
3.288161 0.160444 -0.619086 34.000000
3.285699 0.150220 -0.618498 44.000000
3.281246 0.139929 -0.617517 57.000000
3.277740 0.129705 -0.616733 74.000000
3.276163 0.119576 -0.616340 85.000000
3.277495 0.109557 -0.616536 77.000000
3.262133 0.099020 -0.613399 51.000000
3.268303 0.089174 -0.614575 35.000000
3.284246 0.079532 -0.617713 24.000000
3.302121 0.069835 -0.621243 16.000000
3.292515 0.059523 -0.619282 21.000000
3.319155 0.049828 -0.624577 10.000000
3.258063 0.412746 -0.657923 24.000000
3.245723 0.401070 -0.655015 45.000000
3.242082 0.390526 -0.653976 42.000000
3.236464 0.379781 -0.652522 45.000000
3.232755 0.369295 -0.651483 42.000000
3.236789 0.359699 -0.652106 35.000000
3.242740 0.350292 -0.653145 36.000000
3.239908 0.339934 -0.652314 38.000000
3.250667 0.330982 -0.654391 35.000000
3.261402 0.321967 -0.656469 38.000000
3.264322 0.312146 -0.656884 35.000000
3.265264 0.302130 -0.656884 40.000000
3.272022 0.292633 -0.658131 41.000000
3.289472 0.284021 -0.661662 12.000000
3.331372 0.174658 -0.668933 31.000000
3.306490 0.163186 -0.663532 42.000000
3.298181 0.152635 -0.661662 54.000000
3.301565 0.142642 -0.662285 60.000000
3.296123 0.132277 -0.661039 54.000000
3.291626 0.121984 -0.660000 60.000000
3.291985 0.111885 -0.660000 64.000000
3.289379 0.101694 -0.659377 46.000000
3.291631 0.091656 -0.659793 38.000000
3.298742 0.081726 -0.661247 44.000000
3.301911 0.071668 -0.661870 41.000000
3.291357 0.061339 -0.659585 28.000000
3.293486 0.051271 -0.660000 22.000000
3.243944 0.418652 -0.694997 15.000000
3.237469 0.407719 -0.693244 20.000000
3.244515 0.398501 -0.694559 40.000000
3.249597 0.389010 -0.695436 40.000000
3.236239 0.377338 -0.692148 50.000000
3.240290 0.367739 -0.692806 43.000000
3.247221 0.358441 -0.694121 53.000000
3.252186 0.348894 -0.694997 42.000000
3.262945 0.339929 -0.697189 45.000000
3.268826 0.330410 -0.698285 54.000000
3.272738 0.320666 -0.698942 43.000000
3.279534 0.311179 -0.700257 41.000000
3.277558 0.300847 -0.699600 62.000000
3.292072 0.292002 -0.702668 54.000000
3.291008 0.281734 -0.702230 30.000000
3.324948 0.171900 -0.708147 30.000000
3.309867 0.160935 -0.704641 38.000000
3.301574 0.150377 -0.702668 59.000000
3.298120 0.140080 -0.701791 46.000000
3.295609 0.129845 -0.701134 47.000000
3.291117 0.119555 -0.700038 63.000000
3.287568 0.109326 -0.699161 73.000000
3.286913 0.099210 -0.698942 47.000000
3.293054 0.089286 -0.700257 41.000000
3.299165 0.079325 -0.701572 48.000000
3.308171 0.069390 -0.703545 44.000000
3.305442 0.059187 -0.702887 27.000000
3.320242 0.049268 -0.706175 23.000000
3.255104 0.422522 -0.738422 19.000000
3.265073 0.413633 -0.740499 31.000000
3.266326 0.403614 -0.740499 31.000000
3.268515 0.393707 -0.740730 36.000000
3.261976 0.382771 -0.738884 33.000000
3.261202 0.372541 -0.738422 36.000000
3.261362 0.362427 -0.738192 46.000000
3.265361 0.352733 -0.738884 33.000000
3.269331 0.343017 -0.739576 41.000000
3.276176 0.333576 -0.740960 40.000000
3.283963 0.324192 -0.742575 47.000000
3.292691 0.314855 -0.744421 50.000000
3.280077 0.303499 -0.741191 21.000000
3.280023 0.293347 -0.740960 20.000000
3.316323 0.163670 -0.747421 41.000000
3.302230 0.152822 -0.743960 78.000000
3.301711 0.142648 -0.743729 84.000000
3.302133 0.132518 -0.743729 59.000000
3.298635 0.122243 -0.742806 62.000000
3.298994 0.112122 -0.742806 71.000000
