ply
format ascii 1.0
element vertex 1283
property float x
property float y
property float z
property float intensity
end_header
3.142884 0.078429 0.604081 45.000000
3.139175 0.068701 0.603366 38.000000
3.141338 0.059106 0.603724 40.000000
3.137570 0.049407 0.603009 33.000000
3.134755 0.039744 0.602473 40.000000
3.137814 0.030154 0.603009 42.000000
3.136907 0.020521 0.602831 30.000000
3.136956 0.010897 0.602831 32.000000
3.138942 0.001274 0.603188 29.000000
3.139915 -0.008359 0.603366 24.000000
3.139874 -0.017992 0.603366 37.000000
3.142756 -0.027652 0.603902 33.000000
3.137738 -0.037234 0.603009 33.000000
3.140560 -0.046905 0.603545 31.000000
3.145320 -0.056629 0.604438 26.000000
3.151034 -0.066404 0.605510 37.000000
3.159668 -0.076285 0.607118 37.000000
3.166304 -0.086167 0.608368 30.000000
3.171925 -0.096060 0.609440 33.000000
3.175549 -0.105923 0.610154 28.000000
3.173243 -0.115593 0.609797 13.000000
3.172873 -0.125327 0.609797 30.000000
3.172474 -0.135061 0.609797 25.000000
3.169096 -0.144658 0.609261 29.000000
3.167654 -0.154332 0.609083 27.000000
3.165201 -0.163948 0.608725 42.000000
3.165665 -0.173712 0.608904 17.000000
3.170028 -0.183708 0.609797 29.000000
3.169450 -0.193433 0.609797 31.000000
3.170806 -0.203282 0.610154 21.000000
3.184892 -0.214000 0.612834 11.000000
3.034760 0.613316 0.557736 30.000000
3.035661 0.603809 0.557569 19.000000
3.037499 0.594493 0.557569 19.000000
3.044149 0.586105 0.558403 20.000000
3.042058 0.576028 0.557736 39.000000
3.042842 0.566512 0.557569 19.000000
3.048445 0.557885 0.558236 24.000000
3.049172 0.548355 0.558069 23.000000
3.050840 0.538998 0.558069 25.000000
3.051508 0.529467 0.557903 36.000000
3.046314 0.518941 0.556734 47.000000
3.053726 0.510570 0.557736 37.000000
3.065008 0.502799 0.559405 30.000000
3.067509 0.493550 0.559572 32.000000
3.075826 0.485215 0.560740 21.000000
3.075351 0.475474 0.560407 23.000000
3.076796 0.466037 0.560407 32.000000
3.077236 0.456450 0.560240 24.000000
3.073743 0.446297 0.559405 35.000000
3.066313 0.435613 0.557903 29.000000
3.072518 0.426884 0.558737 21.000000
3.073813 0.417455 0.558737 25.000000
3.070192 0.407373 0.557903 31.000000
3.074361 0.398333 0.558403 26.000000
3.080459 0.389519 0.559238 24.000000
3.080661 0.379946 0.559071 31.000000
3.082791 0.370611 0.559238 25.000000
3.079018 0.360576 0.558403 31.000000
3.078150 0.350904 0.558069 32.000000
3.080192 0.341568 0.558236 46.000000
3.081226 0.332116 0.558236 33.000000
3.078308 0.322249 0.557569 33.000000
3.074377 0.312304 0.556734 31.000000
3.081208 0.303452 0.557736 28.000000
3.085069 0.294280 0.558236 36.000000
3.081049 0.284358 0.557402 39.000000
3.083871 0.275081 0.557736 32.000000
3.086664 0.265788 0.558069 28.000000
3.091396 0.256645 0.558737 34.000000
3.096100 0.247475 0.559405 28.000000
3.093895 0.237747 0.558904 34.000000
3.088710 0.227817 0.557903 27.000000
3.093329 0.218619 0.558570 33.000000
3.094969 0.209195 0.558737 35.000000
3.090677 0.199380 0.557903 34.000000
3.086353 0.189592 0.557068 32.000000
3.090858 0.180354 0.557736 18.000000
3.092381 0.170925 0.557903 27.000000
3.087967 0.161178 0.557068 28.000000
3.092386 0.151899 0.557736 32.000000
3.091853 0.142365 0.557569 38.000000
3.093260 0.132921 0.557736 35.000000
3.101535 0.123748 0.559071 30.000000
3.099929 0.114159 0.558737 33.000000
3.097309 0.104547 0.558236 27.000000
3.102543 0.095197 0.559071 28.000000
3.100849 0.085623 0.558737 34.000000
3.102083 0.076134 0.558904 38.000000
3.106244 0.066703 0.559572 32.000000
3.104463 0.057136 0.559238 22.000000
3.101666 0.047565 0.558737 36.000000
3.105741 0.038098 0.559405 31.000000
3.105843 0.028570 0.559405 28.000000
3.104930 0.019035 0.559238 31.000000
3.102016 0.009499 0.558737 33.000000
3.096115 -0.000020 0.557736 32.000000
3.098073 -0.009524 0.558069 30.000000
3.098029 -0.019029 0.558069 20.000000
3.095984 -0.028516 0.557736 35.000000
3.098839 -0.038050 0.558236 35.000000
3.101665 -0.047601 0.558737 24.000000
3.109391 -0.057259 0.560073 35.000000
3.113144 -0.066881 0.560740 23.000000
3.118838 -0.076575 0.561742 39.000000
3.124502 -0.086304 0.562744 34.000000
3.127179 -0.095979 0.563245 35.000000
3.129826 -0.105671 0.563745 30.000000
3.126531 -0.115165 0.563245 23.000000
3.128134 -0.124835 0.563578 36.000000
3.132662 -0.134641 0.564413 35.000000
3.135189 -0.144386 0.564914 18.000000
3.139655 -0.154244 0.565749 15.000000
3.136213 -0.163723 0.565248 16.000000
3.132742 -0.173181 0.564747 24.000000
3.135149 -0.182963 0.565248 20.000000
3.125716 -0.192040 0.563745 29.000000
3.124128 -0.201565 0.563578 21.000000
3.145137 -0.212604 0.567251 18.000000
3.154306 -0.222944 0.568921 9.000000
3.007747 0.608612 0.514798 24.000000
3.013476 0.600153 0.515417 29.000000
3.014334 0.590715 0.515263 26.000000
3.015162 0.581278 0.515108 32.000000
3.016931 0.572025 0.515108 35.000000
3.013815 0.561861 0.514333 38.000000
3.017469 0.552968 0.514643 50.000000
3.012345 0.542484 0.513559 25.000000
3.015940 0.533583 0.513869 34.000000
3.019510 0.524666 0.514178 26.000000
3.018184 0.514902 0.513714 20.000000
3.022672 0.506129 0.514178 31.000000
3.031035 0.497973 0.515263 34.000000
3.031573 0.488515 0.515108 23.000000
3.036961 0.479828 0.515727 24.000000
3.033537 0.469753 0.514953 45.000000
3.029104 0.459556 0.514024 33.000000
3.033431 0.450696 0.514488 35.000000
3.037732 0.441813 0.514953 37.000000
3.036139 0.432074 0.514488 41.000000
3.039408 0.423030 0.514798 35.000000
3.046565 0.414501 0.515727 22.000000
3.046843 0.405023 0.515572 39.000000
3.052969 0.396308 0.516347 37.000000
3.051231 0.386568 0.515882 43.000000
3.052402 0.377205 0.515882 37.000000
3.056488 0.368193 0.516347 39.000000
3.057603 0.358814 0.516347 42.000000
3.063597 0.349992 0.517121 43.000000
3.056802 0.339719 0.515882 33.000000
3.055865 0.330127 0.515572 34.000000
3.054898 0.320545 0.515263 35.000000
3.048987 0.310471 0.514178 32.000000
3.045993 0.300728 0.513559 39.000000
3.048868 0.291569 0.513869 35.000000
3.044830 0.281759 0.513094 37.000000
3.053551 0.273120 0.514333 37.000000
3.056344 0.263920 0.514643 38.000000
3.061077 0.254869 0.515263 29.000000
3.062829 0.245556 0.515417 43.000000
3.059629 0.235855 0.514798 44.000000
3.061323 0.226540 0.514953 39.000000
3.064960 0.217356 0.515417 27.000000
3.063641 0.207818 0.515108 40.000000
3.068208 0.198673 0.515727 37.000000
3.065845 0.189077 0.515263 29.000000
3.062465 0.179439 0.514643 37.000000
3.064974 0.170152 0.514953 33.000000
3.062522 0.160594 0.514488 37.000000
3.058067 0.150954 0.513714 38.000000
3.057528 0.141526 0.513559 33.000000
3.055974 0.132060 0.513249 40.000000
3.059326 0.122802 0.513714 32.000000
3.069561 0.113780 0.515263 44.000000
3.070883 0.104396 0.515417 39.000000
3.073164 0.095035 0.515727 40.000000
3.077391 0.085716 0.516347 30.000000
3.076652 0.076250 0.516192 25.000000
3.077859 0.066832 0.516347 37.000000
3.078050 0.057389 0.516347 37.000000
3.074260 0.047884 0.515727 35.000000
3.074393 0.038452 0.515727 35.000000
3.074496 0.029020 0.515727 27.000000
3.073583 0.019581 0.515572 36.000000
3.078568 0.010167 0.516347 40.000000
3.077597 0.000722 0.516192 29.000000
3.083512 -0.008738 0.517121 30.000000
3.083471 -0.018198 0.517121 32.000000
3.086364 -0.027684 0.517586 38.000000
3.088240 -0.037177 0.517896 29.000000
3.093051 -0.046727 0.518670 26.000000
3.099808 -0.056342 0.519754 32.000000
3.096657 -0.065789 0.519290 31.000000
3.098416 -0.075337 0.519599 36.000000
3.104095 -0.085006 0.520529 37.000000
3.102832 -0.094498 0.520374 36.000000
3.099566 -0.103918 0.519909 31.000000
3.097258 -0.113354 0.519599 31.000000
3.089985 -0.122581 0.518515 30.000000
3.095517 -0.132314 0.519444 40.000000
3.093123 -0.141720 0.519135 32.000000
3.092674 -0.151208 0.519135 22.000000
3.094168 -0.160799 0.519444 32.000000
3.096619 -0.170454 0.519909 43.000000
3.100027 -0.180183 0.520529 19.000000
3.102418 -0.189875 0.520993 27.000000
3.099849 -0.199265 0.520683 26.000000
3.115979 -0.209905 0.523317 21.000000
3.124190 -0.220090 0.524710 9.000000
2.965817 0.628361 0.471851 40.000000
2.973543 0.620474 0.472709 44.000000
2.975433 0.611349 0.472709 53.000000
2.974385 0.601628 0.472280 41.000000
2.976216 0.592499 0.472280 39.000000
2.983848 0.584510 0.473138 33.000000
2.984655 0.575165 0.472995 39.000000
2.988350 0.566375 0.473281 28.000000
2.988128 0.556841 0.472995 28.000000
2.985928 0.546956 0.472423 37.000000
2.991488 0.538495 0.472995 33.000000
2.993126 0.529315 0.472995 31.000000
2.989861 0.519281 0.472280 31.000000
2.991440 0.510106 0.472280 38.000000
2.991039 0.500598 0.471994 28.000000
2.991584 0.491259 0.471851 38.000000
2.998940 0.483025 0.472709 29.000000
3.001385 0.473977 0.472852 37.000000
3.001847 0.464615 0.472709 37.000000
3.001301 0.455106 0.472423 39.000000
3.004641 0.446187 0.472709 36.000000
3.009913 0.437538 0.473281 30.000000
3.014181 0.428721 0.473709 42.000000
3.010581 0.418788 0.472995 35.000000
3.011851 0.409549 0.472995 30.000000
3.012112 0.400176 0.472852 34.000000
3.013326 0.390934 0.472852 42.000000
3.011566 0.381313 0.472423 48.000000
3.010757 0.371828 0.472137 35.000000
3.008936 0.362234 0.471708 39.000000
3.011016 0.353116 0.471851 41.000000
3.015035 0.344215 0.472280 45.000000
3.017061 0.335073 0.472423 32.000000
3.020042 0.326028 0.472709 42.000000
3.021028 0.316762 0.472709 36.000000
3.019032 0.307190 0.472280 36.000000
3.014051 0.297341 0.471422 43.000000
3.013964 0.287998 0.471279 39.000000
3.012862 0.278567 0.470993 36.000000
3.013703 0.269322 0.470993 26.000000
3.016487 0.260246 0.471279 27.000000
3.017271 0.250990 0.471279 44.000000
3.016053 0.241574 0.470993 31.000000
3.019741 0.232548 0.471422 35.000000
3.023401 0.223503 0.471851 24.000000
3.024073 0.214226 0.471851 30.000000
3.024716 0.204947 0.471851 38.000000
3.031256 0.196052 0.472709 29.000000
3.029868 0.186629 0.472423 34.000000
3.029438 0.177275 0.472280 38.000000
3.041826 0.168642 0.473995 28.000000
3.030468 0.158683 0.472280 35.000000
3.034895 0.149581 0.472852 34.000000
3.032374 0.140132 0.472423 30.000000
3.022902 0.130397 0.470993 25.000000
3.034166 0.121563 0.472566 34.000000
3.032546 0.112179 0.472280 36.000000
3.026941 0.102672 0.471422 33.000000
3.030210 0.093477 0.471851 25.000000
3.033450 0.084264 0.472280 45.000000
3.030726 0.074882 0.471851 34.000000
3.035889 0.065693 0.472566 22.000000
3.033108 0.056322 0.472137 33.000000
3.038214 0.047095 0.472852 23.000000
3.046262 0.037875 0.473995 35.000000
3.047353 0.028539 0.474138 33.000000
3.047426 0.019190 0.474138 41.000000
3.050440 0.009851 0.474567 26.000000
3.051445 0.000493 0.474710 44.000000
3.051433 -0.008869 0.474710 20.000000
3.050401 -0.018225 0.474567 22.000000
3.043403 -0.027523 0.473566 39.000000
3.045284 -0.036883 0.473852 30.000000
3.050105 -0.046299 0.474567 49.000000
3.054896 -0.055745 0.475282 24.000000
3.049763 -0.065013 0.474567 35.000000
3.050539 -0.074393 0.474710 45.000000
3.054254 -0.083859 0.475282 35.000000
3.057939 -0.093348 0.475854 29.000000
3.053681 -0.102598 0.475282 28.000000
3.052363 -0.111930 0.475139 39.000000
3.051017 -0.121255 0.474996 30.000000
3.051619 -0.130657 0.475139 49.000000
3.053181 -0.140109 0.475425 32.000000
3.053726 -0.149523 0.475568 28.000000
3.053252 -0.158891 0.475568 26.000000
3.055715 -0.168420 0.475997 36.000000
3.055184 -0.177794 0.475997 29.000000
3.056600 -0.187287 0.476283 42.000000
3.064901 -0.197232 0.477570 34.000000
3.072181 -0.207164 0.478714 18.000000
3.071531 -0.216588 0.478714 30.000000
3.066904 -0.225721 0.478142 29.000000
3.078039 -0.236033 0.479857 30.000000
2.964902 0.637918 0.434976 33.000000
2.967815 0.629024 0.435107 53.000000
2.966820 0.619309 0.434714 33.000000
2.973561 0.611201 0.435369 63.000000
2.966677 0.600307 0.434190 43.000000
2.954892 0.588493 0.432355 27.000000
2.959603 0.579997 0.432748 27.000000
2.959421 0.570539 0.432486 37.000000
2.960184 0.561272 0.432355 26.000000
2.960917 0.552007 0.432224 41.000000
2.958696 0.542206 0.431700 38.000000
2.964248 0.533828 0.432224 44.000000
2.969777 0.525422 0.432748 40.000000
2.971375 0.516308 0.432748 39.000000
2.978809 0.508189 0.433535 38.000000
2.977421 0.498557 0.433142 31.000000
2.978936 0.489420 0.433142 36.000000
2.984339 0.480909 0.433666 49.000000
2.987759 0.472060 0.433928 51.000000
2.981355 0.461679 0.432880 32.000000
2.978837 0.451936 0.432355 51.000000
2.975306 0.442067 0.431700 47.000000
2.972724 0.432367 0.431176 28.000000
2.973055 0.423105 0.431045 33.000000
2.972375 0.413709 0.430783 37.000000
2.966754 0.403653 0.429865 49.000000
2.972892 0.395202 0.430521 46.000000
2.974091 0.386079 0.430521 36.000000
2.978212 0.377326 0.430914 39.000000
2.984275 0.368795 0.431569 51.000000
2.982439 0.359282 0.431176 34.000000
2.986482 0.350477 0.431569 29.000000
2.984588 0.340975 0.431176 45.000000
2.986605 0.331927 0.431307 38.000000
2.993523 0.323400 0.432093 36.000000
2.990557 0.313802 0.431569 40.000000
2.991506 0.304625 0.431569 37.000000
2.989467 0.295154 0.431176 38.000000
2.988384 0.285793 0.430914 40.000000
2.988260 0.276532 0.430783 39.000000
2.990082 0.267451 0.430914 33.000000
2.985950 0.257850 0.430259 32.000000
2.979811 0.248113 0.429341 34.000000
2.982535 0.239129 0.429603 29.000000
2.981277 0.229825 0.429341 35.000000
2.985923 0.220970 0.429865 29.000000
2.991532 0.212158 0.430521 41.000000
2.988212 0.202711 0.429997 38.000000
2.989809 0.193606 0.430128 46.000000
2.990389 0.184433 0.430128 39.000000
2.992920 0.175373 0.430390 41.000000
2.997403 0.166410 0.430914 43.000000
2.995920 0.157109 0.430652 41.000000
3.003319 0.148259 0.431569 31.000000
3.009702 0.139318 0.432355 37.000000
3.007143 0.129956 0.431962 46.000000
3.014462 0.121007 0.432880 33.000000
3.013829 0.111722 0.432748 40.000000
3.011185 0.102374 0.432355 40.000000
3.011485 0.093135 0.432355 36.000000
3.011756 0.083896 0.432355 32.000000
3.008035 0.074558 0.431831 35.000000
3.016179 0.065500 0.432880 47.000000
3.008436 0.056099 0.431831 39.000000
3.008594 0.046869 0.431831 38.000000
3.013680 0.037700 0.432486 39.000000
3.014773 0.028463 0.432617 39.000000
3.019803 0.019245 0.433273 46.000000
3.021830 0.009987 0.433535 44.000000
3.017881 0.000715 0.433011 28.000000
3.024809 -0.008564 0.433928 35.000000
3.027743 -0.017862 0.434321 43.000000
3.025691 -0.027133 0.434059 34.000000
3.022619 -0.036379 0.433666 40.000000
3.024476 -0.045682 0.433928 26.000000
3.018374 -0.054852 0.433142 37.000000
3.015218 -0.064049 0.432748 40.000000
3.013025 -0.073250 0.432486 31.000000
3.007832 -0.082358 0.431831 49.000000
3.005583 -0.091525 0.431569 29.000000
3.008260 -0.100845 0.431962 43.000000
3.010909 -0.110183 0.432355 50.000000
3.016500 -0.119656 0.433142 31.000000
3.018100 -0.128995 0.433404 35.000000
3.021652 -0.138436 0.433928 49.000000
3.032105 -0.148240 0.435369 37.000000
3.026685 -0.157283 0.434714 40.000000
3.029158 -0.166732 0.435107 32.000000
3.031602 -0.176198 0.435500 19.000000
3.032036 -0.185558 0.435631 20.000000
3.033431 -0.194987 0.435894 37.000000
3.038754 -0.204693 0.436680 38.000000
3.039100 -0.214085 0.436811 41.000000
3.048316 -0.224136 0.438121 56.000000
3.053545 -0.233942 0.438908 26.000000
3.091354 -0.246386 0.444018 14.000000
3.146899 -0.260538 0.451488 5.000000
2.944056 0.614843 0.394521 24.000000
2.943983 0.605407 0.394283 24.000000
2.939988 0.595188 0.393569 33.000000
2.938879 0.585582 0.393213 16.000000
2.931893 0.574840 0.392142 34.000000
2.927794 0.564712 0.391429 42.000000
2.926587 0.555171 0.391072 37.000000
2.923396 0.545277 0.390477 36.000000
2.918219 0.535050 0.389645 44.000000
2.919847 0.526094 0.389645 42.000000
2.921447 0.517134 0.389645 37.000000
2.923998 0.508339 0.389764 45.000000
2.928480 0.499868 0.390121 34.000000
2.932937 0.491375 0.390477 32.000000
2.936391 0.482697 0.390715 44.000000
2.940798 0.474161 0.391072 38.000000
2.942239 0.465137 0.391072 40.000000
2.938747 0.455346 0.390477 40.000000
2.942093 0.446627 0.390715 32.000000
2.938539 0.436866 0.390121 38.000000
2.934953 0.427132 0.389526 42.000000
2.935267 0.417985 0.389407 42.000000
2.938502 0.409253 0.389645 41.000000
2.935809 0.399698 0.389169 37.000000
2.938990 0.390952 0.389407 48.000000
2.940175 0.381934 0.389407 30.000000
2.942318 0.373037 0.389526 44.000000
2.943448 0.364008 0.389526 28.000000
2.942580 0.354738 0.389288 33.000000
2.943655 0.345708 0.389288 29.000000
2.947661 0.337015 0.389645 42.000000
2.950654 0.328191 0.389883 26.000000
2.950660 0.319029 0.389764 36.000000
2.952612 0.310080 0.389883 34.000000
2.957501 0.301424 0.390358 32.000000
2.961376 0.292643 0.390715 43.000000
2.959295 0.283271 0.390358 46.000000
2.957184 0.273915 0.390002 42.000000
2.958010 0.264841 0.390002 49.000000
2.958809 0.255765 0.390002 52.000000
2.956611 0.246438 0.389645 38.000000
2.957353 0.237366 0.389645 59.000000
2.959058 0.228368 0.389764 50.000000
2.962715 0.219510 0.390121 37.000000
2.969316 0.210844 0.390834 48.000000
2.970940 0.201801 0.390953 39.000000
2.972536 0.192750 0.391072 38.000000
2.975096 0.183753 0.391310 51.000000
2.974654 0.174566 0.391191 33.000000
2.980132 0.165716 0.391785 35.000000
2.980627 0.156573 0.391785 39.000000
2.980101 0.147378 0.391667 42.000000
2.979548 0.138188 0.391548 36.000000
2.981941 0.129133 0.391785 47.000000
2.983316 0.120024 0.391904 40.000000
2.982678 0.110834 0.391785 39.000000
2.978042 0.101512 0.391191 38.000000
2.977347 0.092343 0.391072 39.000000
2.981586 0.083321 0.391548 46.000000
2.980835 0.074148 0.391429 38.000000
2.968144 0.064716 0.389883 21.000000
2.973293 0.055705 0.390477 46.000000
2.965507 0.046455 0.389526 29.000000
2.966629 0.037370 0.389645 51.000000
2.968715 0.028288 0.389883 36.000000
2.970774 0.019193 0.390121 42.000000
2.972804 0.010087 0.390358 31.000000
2.972821 0.000966 0.390358 26.000000
2.987704 -0.008189 0.392142 40.000000
2.993622 -0.017388 0.392856 56.000000
2.992562 -0.026563 0.392737 30.000000
2.993459 -0.035756 0.392856 38.000000
2.989364 -0.044881 0.392380 37.000000
2.986234 -0.054000 0.392023 32.000000
2.988039 -0.063202 0.392261 33.000000
2.983861 -0.072275 0.391785 61.000000
2.982633 -0.081402 0.391667 35.000000
2.983362 -0.090582 0.391785 40.000000
2.985054 -0.099800 0.392023 43.000000
2.990687 -0.109172 0.392737 27.000000
2.994307 -0.118503 0.393213 32.000000
2.997897 -0.127856 0.393688 25.000000
2.996499 -0.137008 0.393569 37.000000
2.998049 -0.146297 0.393807 27.000000
2.998577 -0.155545 0.393926 29.000000
3.000069 -0.164852 0.394164 25.000000
2.995583 -0.173827 0.393688 31.000000
2.994045 -0.182956 0.393569 28.000000
2.995451 -0.192267 0.393807 25.000000
3.002773 -0.201986 0.394759 24.000000
3.004120 -0.211336 0.394996 36.000000
2.896601 0.614465 0.352497 30.000000
2.899446 0.605779 0.352604 32.000000
2.904212 0.597482 0.352924 37.000000
2.903108 0.587977 0.352604 34.000000
2.903923 0.578873 0.352497 34.000000
2.910564 0.570918 0.353031 44.000000
2.908397 0.561233 0.352604 37.000000
2.907174 0.551751 0.352283 49.000000
2.905921 0.542283 0.351963 42.000000
2.903659 0.532648 0.351536 48.000000
2.903323 0.523385 0.351322 38.000000
2.901978 0.513955 0.351002 38.000000
2.897663 0.504028 0.350361 26.000000
2.897236 0.494801 0.350148 33.000000
2.900701 0.486239 0.350361 59.000000
2.906104 0.477982 0.350788 39.000000
2.904612 0.468589 0.350468 32.000000
2.909964 0.460297 0.350895 40.000000
2.908415 0.450911 0.350575 35.000000
2.914700 0.442731 0.351109 48.000000
2.912110 0.433203 0.350682 34.000000
2.914409 0.424409 0.350788 35.000000
2.911760 0.414906 0.350361 52.000000
2.914004 0.406108 0.350468 30.000000
2.917207 0.397434 0.350682 52.000000
2.919398 0.388613 0.350788 41.000000
2.918605 0.379399 0.350575 47.000000
2.922714 0.370818 0.350895 51.000000
2.921865 0.361605 0.350682 57.000000
2.919012 0.352164 0.350255 49.000000
2.918103 0.342975 0.350041 44.000000
2.918154 0.333908 0.349934 48.000000
2.920153 0.325063 0.350041 41.000000
2.921136 0.316103 0.350041 50.000000
2.921103 0.307035 0.349934 46.000000
2.927967 0.298677 0.350575 34.000000
2.933817 0.290181 0.351109 44.000000
2.933703 0.281084 0.351002 52.000000
2.928612 0.271533 0.350361 49.000000
2.923489 0.262015 0.349721 37.000000
2.926260 0.253215 0.349934 36.000000
2.925042 0.244071 0.349721 37.000000
2.920821 0.234699 0.349187 19.000000
2.932432 0.226578 0.350361 50.000000
2.939063 0.218021 0.351002 38.000000
2.945668 0.209425 0.351643 37.000000
2.949273 0.200589 0.351963 53.000000
2.947891 0.191411 0.351749 39.000000
2.949456 0.182428 0.351856 49.000000
2.949009 0.173320 0.351749 45.000000
2.949527 0.164272 0.351749 35.000000
2.952996 0.155378 0.352070 42.000000
2.958424 0.146563 0.352604 45.000000
2.955880 0.137348 0.352283 31.000000
2.962248 0.128537 0.352924 47.000000
2.962628 0.119448 0.352924 36.000000
2.962981 0.110358 0.352924 49.000000
2.959331 0.101132 0.352497 34.000000
2.957639 0.091991 0.352283 36.000000
2.956914 0.082889 0.352177 52.000000
2.964112 0.073990 0.352924 38.000000
2.958360 0.064766 0.352283 28.000000
2.958545 0.055689 0.352283 38.000000
2.958702 0.046612 0.352283 33.000000
2.961814 0.037572 0.352604 39.000000
2.963904 0.028504 0.352817 49.000000
2.961989 0.019398 0.352604 56.000000
2.958057 0.010298 0.352177 34.000000
2.959069 0.001223 0.352283 40.000000
2.965025 -0.007872 0.352924 40.000000
2.964987 -0.016969 0.352924 37.000000
2.958955 -0.026012 0.352283 31.000000
2.958861 -0.035090 0.352283 30.000000
2.961723 -0.044212 0.352604 59.000000
2.966543 -0.053388 0.353138 56.000000
2.967360 -0.062511 0.353244 44.000000
2.963178 -0.071518 0.352817 35.000000
2.960957 -0.080554 0.352604 34.000000
2.966659 -0.089819 0.353244 43.000000
2.968357 -0.098986 0.353458 42.000000
2.969033 -0.108129 0.353565 35.000000
2.966700 -0.117159 0.353351 28.000000
2.965333 -0.126217 0.353244 34.000000
2.966918 -0.135405 0.353458 45.000000
2.968475 -0.144604 0.353672 50.000000
2.963053 -0.153453 0.353138 52.000000
2.964553 -0.162652 0.353351 45.000000
2.971982 -0.172207 0.354206 38.000000
2.970447 -0.181264 0.354099 41.000000
2.973846 -0.190631 0.354526 26.000000
2.983167 -0.200421 0.355594 19.000000
2.982538 -0.209573 0.355594 16.000000
2.986839 -0.219086 0.356128 15.000000
2.851505 0.604096 0.312772 27.000000
2.845550 0.593715 0.312012 40.000000
2.853208 0.586187 0.312582 29.000000
2.852066 0.576837 0.312297 29.000000
2.853822 0.568084 0.312297 37.000000
2.864343 0.561052 0.313152 35.000000
2.868006 0.552639 0.313341 34.000000
2.872622 0.544395 0.313626 27.000000
2.875257 0.535762 0.313721 25.000000
2.876887 0.526938 0.313721 45.000000
2.880450 0.518463 0.313911 29.000000
2.875165 0.508407 0.313247 28.000000
2.875731 0.499414 0.313152 44.000000
2.876268 0.490421 0.313057 26.000000
2.874814 0.481100 0.312772 36.000000
2.876276 0.472278 0.312772 45.000000
2.874763 0.462976 0.312487 42.000000
2.875187 0.453998 0.312392 41.000000
2.874599 0.444870 0.312202 28.000000
2.872998 0.435600 0.311917 37.000000
2.871367 0.426343 0.311632 37.000000
2.875617 0.417963 0.311917 32.000000
2.877871 0.409279 0.312012 30.000000
2.876155 0.400036 0.311727 36.000000
2.879342 0.391479 0.311917 40.000000
2.883489 0.383038 0.312202 44.000000
2.885638 0.374318 0.312297 32.000000
2.889735 0.365839 0.312582 37.000000
2.884917 0.356238 0.312012 39.000000
2.885008 0.347266 0.311917 37.000000
2.888037 0.338646 0.312107 48.000000
2.886095 0.329444 0.311822 31.000000
2.889071 0.320809 0.312012 56.000000
2.892021 0.312158 0.312202 42.000000
2.892965 0.303284 0.312202 46.000000
2.897843 0.294812 0.312582 32.000000
2.896753 0.285724 0.312392 30.000000
2.899598 0.277025 0.312582 41.000000
2.900434 0.268128 0.312582 37.000000
2.900252 0.259139 0.312487 41.000000
2.901033 0.250240 0.312487 34.000000
2.897819 0.241007 0.312107 26.000000
2.897552 0.232036 0.312012 42.000000
2.906191 0.223760 0.312772 43.000000
2.904878 0.214695 0.312582 42.000000
2.910488 0.206136 0.313057 33.000000
2.912100 0.197273 0.313152 42.000000
2.911698 0.188273 0.313057 43.000000
2.916236 0.179586 0.313436 47.000000
2.920748 0.170872 0.313816 37.000000
2.918277 0.161744 0.313531 32.000000
2.918759 0.152790 0.313531 29.000000
2.919214 0.143835 0.313531 33.000000
2.920637 0.134925 0.313626 45.000000
2.924020 0.126094 0.313911 41.000000
2.924393 0.117122 0.313911 39.000000
2.922749 0.108075 0.313721 43.000000
2.927047 0.099245 0.314101 36.000000
2.925348 0.090202 0.313911 29.000000
2.922625 0.081142 0.313626 31.000000
2.923856 0.072201 0.313721 37.000000
2.920082 0.063142 0.313341 36.000000
2.919267 0.054164 0.313247 35.000000
2.926387 0.045319 0.313911 26.000000
2.920540 0.036264 0.313341 34.000000
2.924619 0.027342 0.313721 32.000000
2.926680 0.018383 0.313911 41.000000
2.927718 0.009408 0.314006 40.000000
2.931715 0.000428 0.314386 41.000000
2.933694 -0.008572 0.314576 23.000000
2.935645 -0.017583 0.314766 30.000000
2.935577 -0.026590 0.314766 42.000000
2.936477 -0.035607 0.314861 32.000000
2.939340 -0.044660 0.315146 33.000000
2.939189 -0.053678 0.315146 37.000000
2.938015 -0.062674 0.315051 27.000000
2.946766 -0.071903 0.315906 24.000000
2.937575 -0.080700 0.315051 35.000000
2.937314 -0.089712 0.315051 41.000000
2.934040 -0.098624 0.314766 49.000000
2.932729 -0.107589 0.314671 39.000000
2.932385 -0.116586 0.314671 35.000000
2.935992 -0.125751 0.315051 33.000000
2.935592 -0.134758 0.315051 43.000000
2.935165 -0.143763 0.315051 36.000000
2.938687 -0.152973 0.315431 45.000000
2.943174 -0.162260 0.315906 32.000000
2.945643 -0.171461 0.316191 45.000000
2.951065 -0.180861 0.316761 33.000000
2.956457 -0.190295 0.317331 31.000000
2.961819 -0.199764 0.317900 20.000000
2.961192 -0.208850 0.317900 31.000000
2.966494 -0.218370 0.318470 20.000000
2.980699 -0.228606 0.319895 6.000000
2.838069 0.611161 0.275084 25.000000
2.835056 0.601418 0.274671 28.000000
2.838839 0.593125 0.274836 33.000000
2.837717 0.583811 0.274589 41.000000
2.829727 0.573125 0.273764 21.000000
2.844178 0.566972 0.274836 43.000000
2.847860 0.558627 0.275001 41.000000
2.851517 0.550264 0.275166 27.000000
2.854172 0.541699 0.275248 38.000000
2.853860 0.532575 0.275084 55.000000
2.852540 0.523278 0.274836 42.000000
2.851190 0.513994 0.274589 45.000000
2.850791 0.504897 0.274424 50.000000
2.851344 0.495977 0.274341 41.000000
2.848923 0.486557 0.274012 26.000000
2.856300 0.478802 0.274506 51.000000
2.854805 0.469552 0.274259 38.000000
2.855248 0.460633 0.274177 53.000000
2.857632 0.452026 0.274259 42.000000
2.857036 0.442952 0.274094 42.000000
2.855426 0.433736 0.273847 33.000000
2.854771 0.424680 0.273682 36.000000
2.853102 0.415490 0.273434 54.000000
2.855350 0.406875 0.273517 49.000000
2.860533 0.398663 0.273847 46.000000
2.861743 0.389885 0.273847 36.000000
2.865889 0.381497 0.274094 40.000000
2.870011 0.373088 0.274341 41.000000
2.869164 0.364031 0.274177 43.000000
2.870268 0.355227 0.274177 29.000000
2.873323 0.346658 0.274341 44.000000
2.870414 0.337376 0.274012 39.000000
2.873416 0.328794 0.274177 45.000000
2.875401 0.320087 0.274259 42.000000
2.880333 0.311693 0.274589 27.000000
2.888214 0.303583 0.275166 42.000000
2.890123 0.294821 0.275248 29.000000
2.889031 0.285757 0.275084 50.000000
2.889894 0.276893 0.275084 52.000000
2.889737 0.267933 0.275001 37.000000
2.888560 0.258889 0.274836 31.000000
2.885370 0.249682 0.274506 44.000000
2.884136 0.240664 0.274341 44.000000
2.880887 0.231495 0.274012 41.000000
2.881583 0.222656 0.274012 37.000000
2.882253 0.213814 0.274012 42.000000
2.881901 0.204900 0.273929 37.000000
2.883511 0.196125 0.274012 30.000000
2.885093 0.187342 0.274094 39.000000
2.883665 0.178367 0.273929 49.000000
2.889174 0.169811 0.274341 30.000000
2.892666 0.161112 0.274589 43.000000
2.895137 0.152341 0.274754 40.000000
2.895591 0.143458 0.274754 55.000000
2.895022 0.134528 0.274671 39.000000
2.900399 0.125861 0.275084 47.000000
2.902763 0.117042 0.275248 50.000000
2.900121 0.108025 0.275001 44.000000
2.904423 0.099263 0.275331 50.000000
2.900729 0.090228 0.275001 53.000000
2.905973 0.081468 0.275413 49.000000
2.905213 0.072527 0.275331 51.000000
2.899444 0.063483 0.274836 31.000000
2.899625 0.054588 0.274836 44.000000
2.897786 0.045660 0.274671 44.000000
2.896916 0.036757 0.274589 35.000000
2.901998 0.027917 0.275001 43.000000
2.898083 0.018988 0.274671 48.000000
2.903111 0.010113 0.275084 49.000000
2.910105 0.001209 0.275661 42.000000
2.913084 -0.007728 0.275908 49.000000
2.914044 -0.016671 0.275991 45.000000
2.914975 -0.025620 0.276073 39.000000
2.911893 -0.034527 0.275826 43.000000
2.914763 -0.043505 0.276073 25.000000
2.911626 -0.052393 0.275826 38.000000
2.905474 -0.061199 0.275331 30.000000
2.908261 -0.070185 0.275578 36.000000
2.910025 -0.079162 0.275743 43.000000
2.909768 -0.088089 0.275743 47.000000
2.911476 -0.097082 0.275908 54.000000
2.907181 -0.105869 0.275578 36.000000
2.910826 -0.114945 0.275908 38.000000
2.919421 -0.124257 0.276650 55.000000
2.915044 -0.133031 0.276320 38.000000
2.918603 -0.142168 0.276650 38.000000
2.926116 -0.151535 0.277310 38.000000
2.927627 -0.160621 0.277475 37.000000
2.931100 -0.169833 0.277805 57.000000
2.926586 -0.178582 0.277475 38.000000
2.924036 -0.187432 0.277310 29.000000
2.918475 -0.196067 0.276898 23.000000
2.919848 -0.205160 0.277063 36.000000
2.909266 -0.213386 0.276238 31.000000
2.837083 0.609106 0.240518 24.000000
2.831132 0.598744 0.239953 24.000000
2.833932 0.590259 0.240023 34.000000
2.826936 0.579755 0.239388 37.000000
2.821857 0.569695 0.238893 30.000000
2.824570 0.561230 0.238964 40.000000
2.825300 0.552370 0.238893 41.000000
2.821104 0.542566 0.238469 30.000000
2.824716 0.534280 0.238611 40.000000
2.817516 0.523967 0.237975 33.000000
2.819110 0.515320 0.237975 30.000000
2.821660 0.506846 0.238046 33.000000
2.817308 0.497144 0.237622 41.000000
2.818820 0.488498 0.237622 30.000000
2.818338 0.479513 0.237481 42.000000
2.815861 0.470205 0.237198 23.000000
2.826149 0.463019 0.237834 50.000000
2.822633 0.453553 0.237481 34.000000
2.825981 0.445202 0.237622 45.000000
2.834234 0.437599 0.238116 48.000000
2.833591 0.428602 0.237975 51.000000
2.833906 0.419760 0.237904 38.000000
2.832219 0.410633 0.237692 37.000000
2.833465 0.401942 0.237692 35.000000
2.839625 0.393935 0.238046 34.000000
2.837855 0.384818 0.237834 40.000000
2.838034 0.375978 0.237763 30.000000
2.844120 0.367911 0.238116 39.000000
2.847214 0.359435 0.238258 39.000000
2.848304 0.350698 0.238258 35.000000
2.846395 0.341600 0.238046 44.000000
2.847430 0.332866 0.238046 34.000000
2.844473 0.323676 0.237763 37.000000
2.840496 0.314397 0.237410 44.000000
2.839464 0.305466 0.237269 35.000000
2.842371 0.296962 0.237410 44.000000
2.842277 0.288139 0.237339 33.000000
2.847118 0.279810 0.237622 34.000000
2.845977 0.270884 0.237481 46.000000
2.849775 0.262427 0.237692 44.000000
2.850566 0.253682 0.237692 51.000000
2.853319 0.245107 0.237834 33.000000
2.850081 0.236021 0.237551 49.000000
2.847809 0.227037 0.237339 45.000000
2.849487 0.218376 0.237410 40.000000
2.850143 0.209633 0.237410 35.000000
2.849778 0.200817 0.237339 30.000000
2.854361 0.192343 0.237622 44.000000
2.848966 0.183199 0.237198 52.000000
2.850510 0.174519 0.237269 43.000000
2.856011 0.166064 0.237622 41.000000
2.850531 0.156970 0.237198 37.000000
2.853988 0.148380 0.237410 50.000000
2.851440 0.139476 0.237198 42.000000
2.850859 0.130681 0.237127 34.000000
2.857226 0.122193 0.237551 38.000000
2.853600 0.113266 0.237269 46.000000
2.855928 0.104585 0.237410 35.000000
2.861220 0.095992 0.237763 44.000000
2.863495 0.087275 0.237904 43.000000
2.872723 0.078739 0.238540 32.000000
2.867965 0.069802 0.238187 38.000000
2.868166 0.061003 0.238187 51.000000
2.872329 0.052277 0.238469 32.000000
2.872476 0.043465 0.238469 29.000000
2.869604 0.034615 0.238258 34.000000
2.868699 0.025801 0.238187 34.000000
2.864774 0.016975 0.237904 36.000000
2.869801 0.008202 0.238258 35.000000
2.873802 -0.000602 0.238540 19.000000
2.868799 -0.009404 0.238187 29.000000
2.871750 -0.018223 0.238399 29.000000
2.869685 -0.027015 0.238258 40.000000
2.869589 -0.035819 0.238258 44.000000
2.876447 -0.044729 0.238752 33.000000
2.880286 -0.053626 0.239034 41.000000
2.881105 -0.062484 0.239105 39.000000
2.887880 -0.071492 0.239599 32.000000
2.888644 -0.080379 0.239670 44.000000
2.892372 -0.089363 0.239953 26.000000
2.891088 -0.098202 0.239882 34.000000
2.888779 -0.106999 0.239741 34.000000
2.890430 -0.115940 0.239882 30.000000
2.896040 -0.125063 0.240306 34.000000
2.892654 -0.133810 0.240094 33.000000
2.893226 -0.142733 0.240164 37.000000
2.897755 -0.151868 0.240518 28.000000
2.898272 -0.160812 0.240588 34.000000
2.894777 -0.169529 0.240376 31.000000
2.891257 -0.178226 0.240164 25.000000
2.889701 -0.187032 0.240094 23.000000
2.889113 -0.195896 0.240094 26.000000
2.880538 -0.204198 0.239529 23.000000
2.875919 -0.212742 0.239246 16.000000
2.882215 -0.222098 0.239741 7.000000
2.794332 0.610217 0.201680 52.000000
2.800095 0.602481 0.201913 31.000000
2.792164 0.591819 0.201332 36.000000
2.793966 0.583250 0.201332 36.000000
2.798676 0.575278 0.201506 38.000000
2.793578 0.565304 0.201100 41.000000
2.790404 0.555756 0.200809 36.000000
2.795035 0.547768 0.200983 43.000000
2.799643 0.539757 0.201158 32.000000
2.803248 0.531537 0.201274 28.000000
2.800940 0.522203 0.201041 28.000000
2.803511 0.513787 0.201100 30.000000
2.805073 0.505184 0.201100 43.000000
2.808577 0.496923 0.201216 28.000000
2.803202 0.487109 0.200809 32.000000
2.796811 0.477164 0.200344 28.000000
2.803185 0.469405 0.200635 17.000000
2.801656 0.460318 0.200461 39.000000
2.791228 0.449816 0.199764 44.000000
2.798511 0.442184 0.200112 30.000000
2.797881 0.433291 0.199996 29.000000
2.795249 0.424107 0.199764 23.000000
2.805425 0.416849 0.200286 35.000000
2.803727 0.407809 0.200112 40.000000
2.803977 0.399065 0.200054 41.000000
2.810132 0.391148 0.200344 36.000000
2.810329 0.382390 0.200286 28.000000
2.812479 0.373898 0.200344 38.000000
2.814603 0.365396 0.200403 32.000000
2.815711 0.356759 0.200403 34.000000
2.816792 0.348119 0.200403 35.000000
2.817846 0.339476 0.200403 30.000000
2.823833 0.331410 0.200693 28.000000
2.823844 0.322632 0.200635 40.000000
2.821844 0.313637 0.200461 38.000000
2.825770 0.305299 0.200635 40.000000
2.825701 0.296524 0.200577 34.000000
2.826597 0.287854 0.200577 22.000000
2.834422 0.279866 0.200983 37.000000
2.832285 0.270884 0.200809 44.000000
2.836086 0.262469 0.200983 35.000000
2.834889 0.253590 0.200867 23.000000
2.835654 0.244891 0.200867 29.000000
2.841366 0.236604 0.201158 36.000000
2.841083 0.227806 0.201100 38.000000
2.836792 0.218705 0.200809 32.000000
2.830480 0.209486 0.200403 22.000000
2.829118 0.200661 0.200286 25.000000
2.824740 0.191643 0.199996 46.000000
2.824318 0.182911 0.199938 45.000000
2.820880 0.174000 0.199705 34.000000
2.820404 0.165287 0.199647 30.000000
2.825882 0.156909 0.199938 35.000000
2.832332 0.148552 0.200286 30.000000
2.831777 0.139813 0.200228 35.000000
2.836182 0.131308 0.200461 37.000000
2.840561 0.122778 0.200693 43.000000
2.837932 0.113943 0.200519 36.000000
2.837270 0.105199 0.200461 34.000000
2.839575 0.096562 0.200577 32.000000
2.839858 0.087850 0.200577 22.000000
2.846102 0.079303 0.200925 42.000000
2.846332 0.070570 0.200925 32.000000
2.843541 0.061773 0.200751 35.000000
2.844715 0.053067 0.200809 27.000000
2.844865 0.044340 0.200809 36.000000
2.844987 0.035612 0.200809 45.000000
2.839093 0.026827 0.200461 25.000000
2.840161 0.018123 0.200519 39.000000
2.836210 0.009397 0.200286 24.000000
2.842215 0.000696 0.200635 35.000000
2.840207 -0.008018 0.200519 32.000000
2.841167 -0.016737 0.200577 38.000000
2.840104 -0.025445 0.200519 29.000000
2.843008 -0.034194 0.200693 31.000000
2.850875 -0.043038 0.201158 41.000000
2.856718 -0.051894 0.201506 40.000000
2.853551 -0.060594 0.201332 37.000000
2.853352 -0.069348 0.201332 36.000000
2.856120 -0.078184 0.201506 29.000000
2.855866 -0.086946 0.201506 39.000000
2.856584 -0.095741 0.201564 40.000000
2.862926 -0.113545 0.201971 43.000000
2.866553 -0.122499 0.202203 40.000000
2.873145 -0.131613 0.202610 52.000000
2.871730 -0.140378 0.202552 38.000000
2.871286 -0.149188 0.202552 45.000000
2.873805 -0.158161 0.202726 36.000000
2.873306 -0.166977 0.202726 38.000000
2.866802 -0.175425 0.202377 29.000000
2.869239 -0.184412 0.202552 27.000000
2.867664 -0.193147 0.202494 39.000000
2.868053 -0.202014 0.202552 36.000000
2.855473 -0.209932 0.201855 24.000000
2.864769 -0.219455 0.202436 37.000000
3.140712 0.396053 0.181967 16.000000
3.151826 0.387639 0.182429 24.000000
3.171845 0.380233 0.183308 29.000000
3.186886 0.372127 0.183955 45.000000
3.164193 0.359632 0.182846 28.000000
3.163296 0.349703 0.182753 40.000000
3.125620 0.335820 0.180950 33.000000
3.167369 0.330494 0.182846 45.000000
3.147498 0.318655 0.181875 35.000000
3.150450 0.309193 0.181967 37.000000
3.153372 0.299716 0.182060 38.000000
3.138361 0.288571 0.181320 34.000000
3.067593 0.272549 0.177991 32.000000
3.110215 0.266737 0.179933 36.000000
3.092105 0.255623 0.179054 31.000000
2.908660 0.231405 0.170501 24.000000
2.923300 0.223553 0.171148 25.000000
2.891097 0.212157 0.169622 18.000000
2.868816 0.201666 0.168559 16.000000
2.870418 0.192931 0.168605 28.000000
2.874984 0.184381 0.168790 32.000000
2.829672 0.172741 0.166663 27.000000
2.819219 0.163419 0.166155 21.000000
2.822699 0.154934 0.166294 27.000000
2.849098 0.147628 0.167496 32.000000
2.819606 0.137415 0.166109 21.000000
2.823008 0.128902 0.166247 23.000000
2.823390 0.120241 0.166247 18.000000
2.824744 0.111618 0.166294 24.000000
2.835055 0.103319 0.166756 28.000000
2.815392 0.093946 0.165831 26.000000
2.834637 0.085891 0.166710 33.000000
2.832891 0.077139 0.166617 37.000000
2.833114 0.068447 0.166617 35.000000
2.828317 0.059648 0.166386 22.000000
2.846464 0.051302 0.167218 31.000000
2.834622 0.042385 0.166663 29.000000
2.833740 0.033676 0.166617 29.000000
2.836827 0.025009 0.166756 30.000000
2.837889 0.016312 0.166802 25.000000
2.820944 0.007553 0.166016 25.000000
2.809966 -0.001102 0.165508 29.000000
2.819938 -0.009753 0.165970 28.000000
2.804912 -0.018313 0.165276 35.000000
2.799848 -0.026872 0.165045 26.000000
2.808742 -0.035572 0.165461 27.000000
2.815462 -0.052934 0.165785 26.000000
2.813289 -0.061529 0.165692 34.000000
2.816083 -0.070233 0.165831 37.000000
2.815599 -0.087511 0.165831 32.000000
2.813321 -0.096081 0.165739 31.000000
2.804028 -0.104381 0.165323 29.000000
2.814674 -0.113421 0.165831 26.000000
2.822297 -0.122399 0.166201 23.000000
2.829891 -0.131424 0.166571 21.000000
2.829475 -0.140106 0.166571 38.000000
2.837012 -0.149202 0.166941 27.000000
2.836541 -0.157905 0.166941 29.000000
2.848010 -0.167305 0.167496 34.000000
2.844492 -0.175858 0.167357 30.000000
2.838955 -0.184263 0.167126 36.000000
2.836383 -0.192837 0.167033 31.000000
2.833785 -0.201397 0.166941 28.000000
2.830165 -0.209870 0.166802 27.000000
2.834488 -0.218934 0.167033 28.000000
2.792977 -0.224367 0.165138 7.000000
3.252682 0.391229 0.146615 29.000000
3.239969 0.379621 0.146141 51.000000
3.239133 0.369453 0.146073 53.000000
3.231311 0.358523 0.145768 47.000000
3.233389 0.348715 0.145802 52.000000
3.234444 0.338793 0.145802 68.000000
3.234474 0.328767 0.145768 53.000000
3.229500 0.318255 0.145565 56.000000
3.228471 0.308156 0.145498 53.000000
3.226416 0.297975 0.145396 49.000000
3.228310 0.288163 0.145430 50.000000
3.228183 0.278172 0.145396 55.000000
3.227030 0.268102 0.145328 68.000000
3.226840 0.258120 0.145295 66.000000
3.229610 0.248372 0.145362 62.000000
3.233347 0.238683 0.145464 61.000000
3.236058 0.228903 0.145531 49.000000
3.235748 0.218907 0.145498 74.000000
3.234410 0.208850 0.145430 72.000000
3.235035 0.198926 0.145430 69.000000
3.234633 0.188942 0.145396 61.000000
3.239189 0.179238 0.145531 44.000000
3.237727 0.169195 0.145464 50.000000
3.241226 0.159408 0.145565 56.000000
3.251683 0.149922 0.145904 61.000000
3.255123 0.140074 0.146005 45.000000
3.261529 0.130326 0.146209 53.000000
3.264910 0.120429 0.146310 54.000000
3.264266 0.110378 0.146276 51.000000
3.266587 0.100424 0.146344 59.000000
3.271875 0.090540 0.146513 94.000000
3.261147 0.080232 0.146141 56.000000
3.259379 0.070184 0.146073 26.000000
3.263576 0.060257 0.146209 39.000000
3.186799 0.049069 0.143602 7.000000
3.244824 0.390152 0.106580 26.000000
3.222175 0.377395 0.106061 43.000000
3.226297 0.367849 0.106126 46.000000
3.228405 0.358060 0.106148 34.000000
3.233464 0.348583 0.106234 45.000000
3.232529 0.338453 0.106191 55.000000
3.230569 0.328230 0.106126 65.000000
3.228576 0.318022 0.106061 60.000000
3.226550 0.307829 0.105996 57.000000
3.223498 0.297560 0.105910 47.000000
3.219417 0.287223 0.105801 61.000000
3.220283 0.277344 0.105801 49.000000
3.219126 0.267297 0.105758 41.000000
3.219931 0.257420 0.105758 42.000000
3.216718 0.247232 0.105671 44.000000
3.219455 0.237510 0.105715 45.000000
3.220169 0.227632 0.105715 48.000000
3.218857 0.217616 0.105671 55.000000
3.219510 0.207739 0.105671 59.000000
3.220132 0.197861 0.105671 43.000000
3.208747 0.187278 0.105412 34.000000
3.227275 0.178432 0.105801 44.000000
3.227807 0.168530 0.105801 54.000000
3.227310 0.158577 0.105780 42.000000
3.233774 0.148954 0.105910 42.000000
3.238211 0.139205 0.105996 41.000000
3.243617 0.129471 0.106104 43.000000
3.249994 0.119742 0.106234 51.000000
3.248347 0.109702 0.106191 29.000000
3.257662 0.100015 0.106386 55.000000
3.259953 0.090076 0.106429 60.000000
3.267210 0.080249 0.106580 31.000000
3.264442 0.070159 0.106515 42.000000
3.189673 0.058736 0.104892 13.000000
3.209790 0.385509 0.065939 24.000000
3.222876 0.377053 0.066050 50.000000
3.217062 0.366372 0.065986 61.000000
3.223141 0.357051 0.066032 46.000000
3.221239 0.346840 0.066004 37.000000
3.220298 0.336748 0.065986 42.000000
3.216342 0.326362 0.065939 61.000000
3.211357 0.315907 0.065884 59.000000
3.212311 0.306053 0.065884 72.000000
3.209252 0.295829 0.065847 64.000000
3.205164 0.285539 0.065801 54.000000
3.203037 0.275448 0.065773 53.000000
3.203866 0.265620 0.065773 49.000000
3.207657 0.256027 0.065801 58.000000
3.206433 0.246033 0.065782 39.000000
3.206176 0.236121 0.065773 53.000000
3.209877 0.226494 0.065801 54.000000
3.211555 0.216712 0.065810 61.000000
3.213202 0.206923 0.065819 67.000000
3.214820 0.197125 0.065828 56.000000
3.207423 0.186797 0.065754 43.000000
3.215969 0.177395 0.065828 41.000000
3.222490 0.167839 0.065884 52.000000
3.225986 0.158099 0.065912 60.000000
3.223459 0.148063 0.065884 42.000000
3.230891 0.138472 0.065949 68.000000
3.236297 0.128757 0.065995 50.000000
3.239674 0.118938 0.066023 52.000000
3.240024 0.108998 0.066023 62.000000
3.242342 0.099118 0.066041 67.000000
3.243631 0.089198 0.066050 69.000000
3.255885 0.079537 0.066161 45.000000
3.251115 0.069442 0.066115 24.000000
3.257312 0.059576 0.066171 35.000000
3.209821 0.385931 0.025511 32.000000
3.212977 0.376315 0.025505 52.000000
3.209149 0.365887 0.025521 52.000000
3.208268 0.355819 0.025528 47.000000
3.206362 0.345652 0.025538 38.000000
3.203429 0.335395 0.025551 34.000000
3.204443 0.325566 0.025551 46.000000
3.197466 0.314946 0.025578 64.000000
3.197422 0.305040 0.025581 51.000000
3.195355 0.294952 0.025591 75.000000
3.190269 0.284612 0.025611 34.000000
3.189135 0.274651 0.025618 54.000000
3.185976 0.264533 0.025631 55.000000
3.184779 0.254597 0.025637 53.000000
3.187539 0.244979 0.025631 47.000000
3.188276 0.235198 0.025631 44.000000
3.189980 0.225487 0.025627 64.000000
3.192652 0.215835 0.025621 43.000000
3.193299 0.206039 0.025621 51.000000
3.196911 0.196426 0.025611 44.000000
3.197499 0.186617 0.025611 54.000000
3.199054 0.176862 0.025608 56.000000
3.197584 0.166941 0.025614 35.000000
3.198082 0.157131 0.025614 29.000000
3.206540 0.147689 0.025588 59.000000
3.210974 0.138024 0.025574 37.000000
3.215379 0.128334 0.025561 40.000000
3.224752 0.118803 0.025531 53.000000
3.225101 0.108909 0.025531 49.000000
3.231417 0.099200 0.025511 52.000000
3.234705 0.089370 0.025501 47.000000
3.242961 0.079645 0.025475 39.000000
3.256187 0.069979 0.025432 27.000000
3.276383 0.060364 0.025365 17.000000
3.286551 0.050469 0.025332 7.000000
3.211384 0.386832 -0.014385 52.000000
3.210569 0.376745 -0.014353 40.000000
3.205750 0.366213 -0.014259 52.000000
3.202883 0.355935 -0.014196 50.000000
3.198989 0.345571 -0.014118 61.000000
3.199040 0.335651 -0.014102 64.000000
3.197070 0.325531 -0.014055 77.000000
3.195069 0.315427 -0.014008 66.000000
3.194031 0.305433 -0.013977 57.000000
3.188979 0.295080 -0.013882 51.000000
3.187877 0.285117 -0.013851 48.000000
3.186745 0.275164 -0.013819 55.000000
3.174620 0.264309 -0.013615 46.000000
3.176413 0.254648 -0.013631 74.000000
3.176182 0.244825 -0.013615 79.000000
3.173927 0.234858 -0.013568 55.000000
3.173635 0.225049 -0.013552 60.000000
3.172316 0.215176 -0.013521 54.000000
3.171963 0.205378 -0.013505 71.000000
3.177568 0.195953 -0.013584 53.000000
3.182147 0.186437 -0.013647 55.000000
3.179709 0.176507 -0.013600 41.000000
3.182233 0.166856 -0.013631 57.000000
3.187723 0.157338 -0.013709 44.000000
3.192186 0.147742 -0.013772 48.000000
3.198618 0.138206 -0.013867 53.000000
3.203023 0.128552 -0.013929 56.000000
3.211396 0.119020 -0.014055 72.000000
3.217742 0.109370 -0.014149 55.000000
3.221061 0.099590 -0.014196 61.000000
3.228347 0.089901 -0.014306 49.000000
3.233606 0.080120 -0.014385 41.000000
3.241833 0.070372 -0.014511 30.000000
3.252031 0.060611 -0.014668 26.000000
3.277196 0.051019 -0.015060 14.000000
3.264339 0.040804 -0.014856 7.000000
3.245849 0.410496 -0.054198 16.000000
3.230227 0.398449 -0.053726 24.000000
3.202655 0.385066 -0.052922 46.000000
3.215734 0.376639 -0.053255 29.000000
3.202971 0.365181 -0.052866 43.000000
3.195135 0.354358 -0.052616 41.000000
3.194219 0.344338 -0.052561 39.000000
3.190290 0.334015 -0.052422 33.000000
3.182350 0.323313 -0.052172 50.000000
3.175369 0.312761 -0.051950 65.000000
3.174323 0.302827 -0.051895 56.000000
3.169265 0.292534 -0.051728 52.000000
3.168156 0.282631 -0.051673 44.000000
3.169008 0.272910 -0.051673 41.000000
3.160865 0.262438 -0.051423 60.000000
3.159663 0.252580 -0.051368 48.000000
3.160423 0.242885 -0.051368 46.000000
3.159159 0.233040 -0.051312 51.000000
3.158862 0.223276 -0.051284 58.000000
3.161527 0.213719 -0.051340 49.000000
3.168153 0.204407 -0.051506 56.000000
3.170761 0.194810 -0.051562 44.000000
3.172341 0.185140 -0.051590 64.000000
3.177885 0.175684 -0.051728 42.000000
3.179407 0.165986 -0.051756 58.000000
3.182896 0.156379 -0.051839 56.000000
3.186357 0.146752 -0.051923 49.000000
3.186792 0.136976 -0.051923 53.000000
3.190193 0.127319 -0.052006 40.000000
3.191568 0.117568 -0.052034 44.000000
3.193912 0.107844 -0.052089 27.000000
3.202221 0.098293 -0.052311 42.000000
3.217496 0.088888 -0.052727 25.000000
3.227746 0.079266 -0.053005 40.000000
3.239967 0.069625 -0.053338 39.000000
3.275145 0.060341 -0.054309 21.000000
3.294306 0.050591 -0.054836 19.000000
3.222077 0.388119 -0.094097 19.000000
3.200428 0.375556 -0.093170 39.000000
3.192630 0.364716 -0.092808 43.000000
3.186783 0.354148 -0.092525 50.000000
3.184874 0.344048 -0.092405 50.000000
3.179952 0.333650 -0.092163 48.000000
3.173008 0.323084 -0.091840 51.000000
3.171001 0.313054 -0.091719 42.000000
3.167968 0.302944 -0.091558 54.000000
3.163908 0.292763 -0.091357 54.000000
3.153844 0.282077 -0.090913 77.000000
3.149717 0.271971 -0.090712 77.000000
3.148545 0.262141 -0.090631 73.000000
3.148338 0.252401 -0.090591 91.000000
3.153083 0.243047 -0.090752 57.000000
3.149828 0.233078 -0.090591 66.000000
3.153518 0.223625 -0.090712 56.000000
3.154189 0.213949 -0.090712 57.000000
3.154831 0.204271 -0.090712 52.000000
3.158435 0.194775 -0.090833 59.000000
3.160015 0.185143 -0.090873 57.000000
3.162563 0.175558 -0.090954 52.000000
3.169074 0.166168 -0.091195 45.000000
3.171565 0.156542 -0.091276 61.000000
3.176022 0.146996 -0.091437 57.000000
3.185443 0.137638 -0.091800 51.000000
3.193837 0.128184 -0.092122 58.000000
3.200207 0.118607 -0.092364 54.000000
3.203551 0.108889 -0.092485 48.000000
3.208863 0.099214 -0.092687 50.000000
3.212150 0.089452 -0.092808 65.000000
3.217403 0.079720 -0.093009 61.000000
3.222627 0.069957 -0.093211 49.000000
3.271779 0.060976 -0.095186 13.000000
3.201428 0.393757 -0.132038 15.000000
3.191715 0.382622 -0.131462 24.000000
3.187915 0.372248 -0.131201 39.000000
3.184080 0.361900 -0.130939 30.000000
3.178228 0.351359 -0.130572 41.000000
3.178298 0.341499 -0.130520 48.000000
3.175358 0.331331 -0.130311 42.000000
3.170399 0.320982 -0.129997 58.000000
3.172362 0.311352 -0.130049 40.000000
3.166344 0.300953 -0.129683 41.000000
