ply
format ascii 1.0
element vertex 1279
property float x
property float y
property float z
property float intensity
end_header
2.898548 0.559059 0.387861 50.000000
2.899274 0.549978 0.387742 39.000000
2.904852 0.541811 0.388218 51.000000
2.903571 0.532358 0.387861 55.000000
2.902259 0.522918 0.387504 41.000000
2.901895 0.513665 0.387266 60.000000
2.900522 0.504248 0.386910 51.000000
2.904013 0.495682 0.387147 48.000000
2.905520 0.486770 0.387147 65.000000
2.906020 0.477692 0.387028 51.000000
2.902571 0.467982 0.386434 44.000000
2.904974 0.459231 0.386553 52.000000
2.909313 0.450773 0.386910 53.000000
2.911664 0.441995 0.387028 52.000000
2.912024 0.432914 0.386910 46.000000
2.915303 0.424264 0.387147 54.000000
2.913642 0.414897 0.386791 56.000000
2.917851 0.406368 0.387147 62.000000
2.917117 0.397146 0.386910 55.000000
2.917338 0.388063 0.386791 69.000000
2.917530 0.378983 0.386672 45.000000
2.914739 0.369529 0.386196 55.000000
2.914873 0.360463 0.386077 39.000000
2.915966 0.351518 0.386077 58.000000
2.915058 0.342338 0.385839 44.000000
2.917081 0.333507 0.385958 43.000000
2.917104 0.324446 0.385839 55.000000
2.914137 0.315066 0.385364 42.000000
2.920027 0.306644 0.385958 52.000000
2.919966 0.297583 0.385839 53.000000
2.918890 0.288428 0.385601 57.000000
2.916795 0.279186 0.385245 43.000000
2.918627 0.270328 0.385364 52.000000
2.919443 0.261373 0.385364 57.000000
2.921220 0.252501 0.385482 42.000000
2.921981 0.243537 0.385482 46.000000
2.924694 0.234731 0.385720 42.000000
2.928370 0.225988 0.386077 50.000000
2.931030 0.217150 0.386315 58.000000
2.930692 0.208086 0.386196 57.000000
2.933298 0.199229 0.386434 43.000000
2.936867 0.190423 0.386791 58.000000
2.938429 0.181474 0.386910 53.000000
2.940954 0.172575 0.387147 48.000000
2.940478 0.163496 0.387028 74.000000
2.938983 0.154369 0.386791 45.000000
2.938451 0.145302 0.386672 54.000000
2.934916 0.136101 0.386196 48.000000
2.934328 0.127053 0.386077 63.000000
2.932719 0.117969 0.385839 47.000000
2.930091 0.108859 0.385482 60.000000
2.932396 0.099938 0.385720 48.000000
2.935666 0.091034 0.386077 50.000000
2.935931 0.082027 0.386077 49.000000
2.936169 0.073020 0.386077 52.000000
2.933401 0.063945 0.385720 34.000000
2.936562 0.055002 0.386077 44.000000
2.938702 0.046025 0.386315 58.000000
2.940815 0.037034 0.386553 48.000000
2.939922 0.028002 0.386434 59.000000
2.942973 0.019003 0.386791 55.000000
2.942025 0.009970 0.386672 40.000000
2.944027 0.000945 0.386910 65.000000
2.943023 -0.008084 0.386791 46.000000
2.942985 -0.017113 0.386791 51.000000
2.942918 -0.026142 0.386791 39.000000
2.946795 -0.035217 0.387266 46.000000
2.946674 -0.044257 0.387266 57.000000
2.949502 -0.053350 0.387623 40.000000
2.950317 -0.062419 0.387742 54.000000
2.951105 -0.071494 0.387861 42.000000
2.950871 -0.080548 0.387861 41.000000
2.949618 -0.089571 0.387742 42.000000
2.945360 -0.098488 0.387266 53.000000
2.949013 -0.107667 0.387742 34.000000
2.952637 -0.116870 0.388218 43.000000
2.952265 -0.125928 0.388218 40.000000
2.952857 -0.135030 0.388337 47.000000
2.959371 -0.144424 0.389169 46.000000
2.964863 -0.153809 0.389883 52.000000
2.965369 -0.162959 0.390002 51.000000
2.963863 -0.171998 0.389883 44.000000
2.963322 -0.181091 0.389883 43.000000
2.966716 -0.190434 0.390358 64.000000
2.964136 -0.199402 0.390121 49.000000
2.953606 -0.207802 0.388931 38.000000
2.948993 -0.216573 0.388456 31.000000
2.967126 -0.227052 0.390715 9.000000
2.918974 0.647338 0.355594 24.000000
2.903461 0.634561 0.353672 46.000000
2.897618 0.623977 0.352817 59.000000
2.896601 0.614465 0.352497 63.000000
2.901392 0.606186 0.352817 59.000000
2.904212 0.597482 0.352924 60.000000
2.907981 0.588963 0.353138 52.000000
2.911724 0.580427 0.353351 63.000000
2.912515 0.571300 0.353244 51.000000
2.921089 0.563680 0.353992 52.000000
2.924758 0.555086 0.354206 55.000000
2.920583 0.545017 0.353565 59.000000
2.924197 0.536413 0.353778 87.000000
2.919958 0.526381 0.353138 66.000000
2.916664 0.516554 0.352604 42.000000
2.916275 0.507263 0.352390 72.000000
2.914878 0.497812 0.352070 55.000000
2.915411 0.488703 0.351963 66.000000
2.915915 0.479595 0.351856 62.000000
2.914428 0.470172 0.351536 47.000000
2.913893 0.460918 0.351322 47.000000
2.919223 0.452585 0.351749 49.000000
2.923547 0.444074 0.352070 55.000000
2.923912 0.434957 0.351963 57.000000
2.928184 0.426414 0.352283 49.000000
2.927510 0.417148 0.352070 54.000000
2.928776 0.408164 0.352070 56.000000
2.930015 0.399177 0.352070 57.000000
2.928268 0.389793 0.351749 57.000000
2.927479 0.380551 0.351536 61.000000
2.923700 0.370943 0.351002 53.000000
2.924825 0.361971 0.351002 60.000000
2.927896 0.353234 0.351216 69.000000
2.929953 0.344366 0.351322 55.000000
2.930996 0.335375 0.351322 73.000000
2.930035 0.326162 0.351109 67.000000
2.928056 0.316850 0.350788 73.000000
2.930003 0.307970 0.350895 65.000000
2.928956 0.298778 0.350682 55.000000
2.929859 0.289790 0.350682 65.000000
2.929744 0.280705 0.350575 45.000000
2.934552 0.272082 0.351002 57.000000
2.938344 0.263344 0.351322 57.000000
2.942110 0.254585 0.351643 56.000000
2.942877 0.245557 0.351643 60.000000
2.943616 0.236528 0.351643 69.000000
2.944328 0.227496 0.351643 61.000000
2.942038 0.218241 0.351322 82.000000
2.939718 0.209003 0.351002 70.000000
2.937369 0.199781 0.350682 66.000000
2.938961 0.190833 0.350788 63.000000
2.941517 0.181938 0.351002 50.000000
2.945039 0.173087 0.351322 54.000000
2.948534 0.164216 0.351643 66.000000
2.952003 0.155326 0.351963 58.000000
2.952466 0.146269 0.351963 58.000000
2.955880 0.137348 0.352283 59.000000
2.955294 0.128236 0.352177 55.000000
2.950706 0.118969 0.351643 59.000000
2.950064 0.109879 0.351536 55.000000
2.947406 0.100726 0.351216 49.000000
2.948695 0.091714 0.351322 56.000000
2.949956 0.082695 0.351429 57.000000
2.947215 0.073570 0.351109 72.000000
2.947426 0.064528 0.351109 73.000000
2.950593 0.055541 0.351429 63.000000
2.953731 0.046535 0.351749 48.000000
2.955849 0.037497 0.351963 55.000000
2.953961 0.028410 0.351749 52.000000
2.953040 0.019341 0.351643 63.000000
2.953086 0.010281 0.351643 60.000000
2.952109 0.001221 0.351536 67.000000
2.951105 -0.007833 0.351429 64.000000
2.951067 -0.016887 0.351429 45.000000
2.951001 -0.025941 0.351429 53.000000
2.955879 -0.035054 0.351963 54.000000
2.958740 -0.044167 0.352283 44.000000
2.970520 -0.053461 0.353565 83.000000
2.972330 -0.062616 0.353778 44.000000
2.974112 -0.071783 0.353992 59.000000
2.977853 -0.081016 0.354419 57.000000
2.977591 -0.090151 0.354419 57.000000
2.975313 -0.099219 0.354206 53.000000
2.974994 -0.108347 0.354206 55.000000
2.971667 -0.117356 0.353885 68.000000
2.965333 -0.126217 0.353244 48.000000
2.967912 -0.135451 0.353565 60.000000
2.966489 -0.144507 0.353458 46.000000
2.971989 -0.153917 0.354099 63.000000
2.975474 -0.163252 0.354526 47.000000
2.980915 -0.172726 0.355167 68.000000
2.983348 -0.182053 0.355487 60.000000
2.984761 -0.191332 0.355701 59.000000
2.983167 -0.200421 0.355594 66.000000
2.980555 -0.209433 0.355380 53.000000
2.965024 -0.217483 0.353778 31.000000
2.962360 -0.226427 0.353565 32.000000
2.987421 -0.237567 0.356341 8.000000
2.926487 0.648215 0.320655 23.000000
2.911929 0.635618 0.319040 53.000000
2.910946 0.626052 0.318755 75.000000
2.908958 0.616292 0.318375 50.000000
2.914733 0.608179 0.318755 56.000000
2.913660 0.598632 0.318470 82.000000
2.915483 0.589690 0.318470 53.000000
2.917278 0.580743 0.318470 41.000000
2.910255 0.570064 0.317615 37.000000
2.921764 0.563020 0.318565 59.000000
2.922500 0.553868 0.318470 70.000000
2.920271 0.544168 0.318090 51.000000
2.918010 0.534488 0.317710 37.000000
2.921596 0.525886 0.317900 47.000000
2.920255 0.516399 0.317615 44.000000
2.923786 0.507779 0.317805 43.000000
2.920424 0.497968 0.317331 47.000000
2.920957 0.488841 0.317236 38.000000
2.925390 0.480363 0.317520 62.000000
2.927832 0.471544 0.317615 44.000000
2.921399 0.461314 0.316856 38.000000
2.929687 0.453418 0.317520 42.000000
2.929096 0.444128 0.317331 52.000000
2.930444 0.435140 0.317331 51.000000
2.934721 0.426578 0.317615 53.000000
2.933059 0.417151 0.317331 54.000000
2.934325 0.408150 0.317331 68.000000
2.935564 0.399146 0.317331 53.000000
2.930854 0.389349 0.316761 41.000000
2.932034 0.380355 0.316761 53.000000
2.930225 0.370982 0.316476 47.000000
2.928386 0.361623 0.316191 46.000000
2.931458 0.352876 0.316381 67.000000
2.931538 0.343764 0.316286 45.000000
2.930601 0.334542 0.316096 48.000000
2.934582 0.325881 0.316381 54.000000
2.935568 0.316876 0.316381 49.000000
2.937516 0.307973 0.316476 60.000000
2.940427 0.299161 0.316666 56.000000
2.939350 0.289942 0.316476 66.000000
2.939235 0.280828 0.316381 45.000000
2.942065 0.271994 0.316571 49.000000
2.941894 0.262877 0.316476 39.000000
2.945662 0.254108 0.316761 67.000000
2.949404 0.245318 0.317046 55.000000
2.950143 0.236269 0.317046 63.000000
2.953831 0.227447 0.317331 65.000000
2.953522 0.218310 0.317236 56.000000
2.955171 0.209318 0.317331 64.000000
2.952820 0.200048 0.317046 69.000000
2.953420 0.190988 0.317046 50.000000
2.950017 0.181680 0.316666 49.000000
2.952549 0.172746 0.316856 59.000000
2.952071 0.163631 0.316761 52.000000
2.952559 0.154573 0.316761 48.000000
2.953019 0.145514 0.316761 62.000000
2.956435 0.136593 0.317046 47.000000
2.951867 0.127306 0.316571 58.000000
2.954233 0.118329 0.316761 44.000000
2.951598 0.109154 0.316476 53.000000
2.952914 0.100132 0.316571 45.000000
2.954202 0.091103 0.316666 51.000000
2.953473 0.082011 0.316571 65.000000
2.952715 0.072925 0.316476 64.000000
2.956906 0.063953 0.316856 45.000000
2.959079 0.054919 0.317046 46.000000
2.962220 0.045888 0.317331 63.000000
2.965333 0.036838 0.317615 53.000000
2.965432 0.027740 0.317615 50.000000
2.968489 0.018662 0.317900 54.000000
2.967537 0.009552 0.317805 35.000000
2.969543 0.000448 0.317995 51.000000
2.968535 -0.008660 0.317900 48.000000
2.962522 -0.017734 0.317331 33.000000
2.965440 -0.026848 0.317615 44.000000
2.968330 -0.035981 0.317900 49.000000
2.967210 -0.045073 0.317805 54.000000
2.975020 -0.054318 0.318565 57.000000
2.976830 -0.063487 0.318755 52.000000
2.978612 -0.072667 0.318945 52.000000
2.976385 -0.081751 0.318755 49.000000
2.973135 -0.090792 0.318470 47.000000
2.973837 -0.099946 0.318565 48.000000
2.975506 -0.109141 0.318755 45.000000
2.973168 -0.118191 0.318565 49.000000
2.968813 -0.127144 0.318185 49.000000
2.974376 -0.136523 0.318755 60.000000
2.974937 -0.145696 0.318850 43.000000
2.978453 -0.155027 0.319230 45.000000
2.979951 -0.164273 0.319420 42.000000
2.979433 -0.173415 0.319420 49.000000
2.984849 -0.182918 0.319990 43.000000
2.985267 -0.192138 0.320085 33.000000
2.983670 -0.201229 0.319990 18.000000
2.970129 -0.209476 0.318755 11.000000
2.952970 0.654873 0.285144 22.000000
2.950097 0.644747 0.284731 28.000000
2.931601 0.631290 0.283000 44.000000
2.923774 0.620226 0.282175 69.000000
2.926639 0.611457 0.282258 47.000000
2.925573 0.601873 0.282010 52.000000
2.924475 0.592302 0.281763 46.000000
2.925301 0.583132 0.281680 59.000000
2.924143 0.573579 0.281433 65.000000
2.923931 0.564228 0.281268 68.000000
2.928586 0.555812 0.281516 67.000000
2.929298 0.546642 0.281433 55.000000
2.930961 0.537653 0.281433 42.000000
2.937501 0.529541 0.281845 70.000000
2.941074 0.520874 0.282010 51.000000
2.943640 0.512019 0.282093 67.000000
2.944215 0.502818 0.282010 67.000000
2.942795 0.493289 0.281763 57.000000
2.944294 0.484259 0.281763 61.000000
2.943799 0.474906 0.281598 45.000000
2.941304 0.465250 0.281268 61.000000
2.940748 0.455919 0.281103 57.000000
2.942133 0.446895 0.281103 46.000000
2.945462 0.438159 0.281268 66.000000
2.946792 0.429121 0.281268 59.000000
2.947108 0.419938 0.281186 72.000000
2.948383 0.410894 0.281186 72.000000
2.950617 0.401981 0.281268 55.000000
2.952824 0.393058 0.281351 63.000000
2.955993 0.384254 0.281516 76.000000
2.956169 0.375058 0.281433 54.000000
2.955327 0.365742 0.281268 67.000000
2.956436 0.356674 0.281268 57.000000
2.957516 0.347602 0.281268 63.000000
2.953618 0.337961 0.280856 62.000000
2.953650 0.328787 0.280773 61.000000
2.949691 0.319189 0.280361 60.000000
2.952639 0.310346 0.280526 58.000000
2.956551 0.301589 0.280773 62.000000
2.954487 0.292223 0.280526 57.000000
2.961323 0.283727 0.281021 68.000000
2.963171 0.274732 0.281103 68.000000
2.965985 0.265818 0.281268 66.000000
2.969766 0.256974 0.281516 70.000000
2.969547 0.247779 0.281433 69.000000
2.968306 0.238508 0.281268 74.000000
2.969024 0.229401 0.281268 73.000000
2.966732 0.220070 0.281021 60.000000
2.971370 0.211249 0.281351 50.000000
2.969021 0.201930 0.281103 60.000000
2.971616 0.192949 0.281268 51.000000
2.972194 0.183831 0.281268 61.000000
2.968764 0.174478 0.280938 68.000000
2.970280 0.165425 0.281021 61.000000
2.968784 0.156207 0.280856 61.000000
2.965267 0.146901 0.280526 64.000000
2.964709 0.137757 0.280444 59.000000
2.966113 0.128704 0.280526 58.000000
2.966494 0.119603 0.280526 72.000000
2.966847 0.110502 0.280526 63.000000
2.971156 0.101535 0.280856 49.000000
2.970457 0.092388 0.280773 69.000000
2.969730 0.083246 0.280691 65.000000
2.976946 0.074308 0.281268 77.000000
2.978156 0.065196 0.281351 77.000000
2.979339 0.056078 0.281433 47.000000
2.985475 0.047031 0.281928 58.000000
2.989592 0.037921 0.282258 47.000000
2.989694 0.028749 0.282258 54.000000
2.992758 0.019596 0.282505 55.000000
2.992804 0.010414 0.282505 53.000000
2.989832 0.001231 0.282258 53.000000
2.992811 -0.007950 0.282505 58.000000
2.991777 -0.017126 0.282423 53.000000
2.991710 -0.026304 0.282423 72.000000
2.995601 -0.035530 0.282752 59.000000
2.993485 -0.044690 0.282587 61.000000
2.994330 -0.053892 0.282670 45.000000
2.995147 -0.063100 0.282752 63.000000
2.994939 -0.072288 0.282752 66.000000
2.990719 -0.081367 0.282423 49.000000
2.988463 -0.090482 0.282258 57.000000
2.988171 -0.099650 0.282258 58.000000
2.987851 -0.108817 0.282258 54.000000
2.989495 -0.118062 0.282423 65.000000
2.989119 -0.127233 0.282423 71.000000
2.989710 -0.136448 0.282505 61.000000
3.010180 -0.146641 0.284237 27.000000
2.994788 -0.155100 0.283000 62.000000
2.997283 -0.164452 0.283247 54.000000
2.999749 -0.173820 0.283495 41.000000
2.999202 -0.183022 0.283495 40.000000
2.996637 -0.192095 0.283330 50.000000
3.003989 -0.201823 0.283989 23.000000
2.924851 0.627986 0.246874 46.000000
2.928715 0.619423 0.247015 29.000000
2.920837 0.608397 0.246309 40.000000
2.922690 0.599433 0.246309 39.000000
2.931359 0.591848 0.246803 47.000000
2.935117 0.583242 0.246945 39.000000
2.935914 0.574042 0.246874 59.000000
2.936682 0.564843 0.246803 46.000000
2.943301 0.556760 0.247157 56.000000
2.947937 0.548276 0.247368 46.000000
2.946662 0.538690 0.247157 50.000000
2.947319 0.529470 0.247086 49.000000
2.946965 0.520078 0.246945 44.000000
2.946582 0.510693 0.246803 54.000000
2.949118 0.501818 0.246874 49.000000
2.946708 0.492109 0.246591 44.000000
2.950173 0.483390 0.246733 50.000000
2.951642 0.474337 0.246733 57.000000
2.953083 0.465279 0.246733 53.000000
2.951540 0.455759 0.246521 59.000000
2.955883 0.447151 0.246733 54.000000
2.957241 0.438080 0.246733 46.000000
2.962519 0.429579 0.247015 53.000000
2.961848 0.420207 0.246874 48.000000
2.960159 0.410706 0.246662 48.000000
2.959429 0.401354 0.246521 45.000000
2.960646 0.392272 0.246521 45.000000
2.951943 0.381904 0.245815 28.000000
2.959039 0.373598 0.246238 41.000000
2.956211 0.364028 0.245956 51.000000
2.959295 0.355196 0.246097 50.000000
2.959380 0.345999 0.246026 54.000000
2.958445 0.336692 0.245885 53.000000
2.953516 0.326953 0.245461 44.000000
2.952522 0.317676 0.245320 48.000000
2.956458 0.308928 0.245532 41.000000
2.958385 0.299958 0.245603 44.000000
2.962269 0.291174 0.245815 46.000000
2.965134 0.282274 0.245956 53.000000
2.967973 0.273360 0.246097 71.000000
2.973765 0.264697 0.246450 53.000000
2.978539 0.255915 0.246733 55.000000
2.978316 0.246693 0.246662 48.000000
2.980053 0.237635 0.246733 65.000000
2.980768 0.228491 0.246733 45.000000
2.979465 0.219198 0.246591 62.000000
2.981119 0.210126 0.246662 57.000000
2.980754 0.200912 0.246591 45.000000
2.977375 0.191509 0.246309 48.000000
2.977949 0.182373 0.246309 43.000000
2.978494 0.173236 0.246309 49.000000
2.978015 0.164042 0.246238 38.000000
2.980497 0.155009 0.246380 50.000000
2.979962 0.145815 0.246309 70.000000
2.980396 0.136672 0.246309 63.000000
2.986780 0.127786 0.246733 42.000000
2.984168 0.118502 0.246521 48.000000
2.985515 0.109383 0.246591 43.000000
2.984839 0.100190 0.246521 56.000000
2.984135 0.091001 0.246450 43.000000
2.987392 0.081929 0.246662 50.000000
2.988626 0.072788 0.246733 50.000000
2.988836 0.063618 0.246733 41.000000
2.992009 0.054504 0.246945 53.000000
2.993159 0.045340 0.247015 50.000000
2.998271 0.036219 0.247368 46.000000
3.005350 0.027086 0.247863 61.000000
3.001430 0.017840 0.247580 49.000000
3.004463 0.008642 0.247792 48.000000
3.001483 -0.000577 0.247580 57.000000
3.001467 -0.009785 0.247580 47.000000
3.001423 -0.018993 0.247580 57.000000
3.001350 -0.028201 0.247580 55.000000
3.000252 -0.037397 0.247510 48.000000
2.998128 -0.046571 0.247368 45.000000
2.993982 -0.055697 0.247086 52.000000
2.995792 -0.064924 0.247227 53.000000
2.992587 -0.074042 0.247015 47.000000
2.991348 -0.083196 0.246945 54.000000
2.988088 -0.092281 0.246733 60.000000
2.984800 -0.101348 0.246521 34.000000
2.990456 -0.110724 0.246945 35.000000
2.990102 -0.119898 0.246945 43.000000
2.992710 -0.129199 0.247157 43.000000
2.997282 -0.138608 0.247510 43.000000
3.003817 -0.148144 0.248004 51.000000
3.004344 -0.157411 0.248075 33.000000
3.005839 -0.166737 0.248216 31.000000
3.011288 -0.176305 0.248640 35.000000
3.016707 -0.185909 0.249063 48.000000
3.011145 -0.194843 0.248710 29.000000
3.008898 -0.213245 0.248640 13.000000
2.948448 0.634380 0.210742 52.000000
2.944520 0.624090 0.210393 48.000000
2.944466 0.614646 0.210277 45.000000
2.949272 0.606212 0.210452 47.000000
2.955032 0.597952 0.210684 39.000000
2.951957 0.587909 0.210393 60.000000
2.953747 0.578850 0.210393 60.000000
2.958449 0.570352 0.210568 50.000000
2.963128 0.561830 0.210742 70.000000
2.964838 0.552737 0.210742 50.000000
2.965538 0.543459 0.210684 58.000000
2.967191 0.534358 0.210684 71.000000
2.970783 0.525600 0.210800 49.000000
2.971397 0.516312 0.210742 76.000000
2.977888 0.508033 0.211032 46.000000
2.976479 0.498400 0.210858 62.000000
2.976023 0.488942 0.210742 66.000000
2.976524 0.479651 0.210684 60.000000
2.975023 0.470050 0.210510 58.000000
2.976451 0.460920 0.210510 51.000000
2.977851 0.451787 0.210510 66.000000
2.977248 0.442355 0.210393 57.000000
2.978592 0.433219 0.210393 69.000000
2.983860 0.424641 0.210626 52.000000
2.986138 0.415622 0.210684 58.000000
2.982453 0.405787 0.210393 56.000000
2.983684 0.396635 0.210393 63.000000
2.979936 0.386837 0.210103 64.000000
2.980119 0.377568 0.210045 70.000000
2.978291 0.368056 0.209871 81.000000
2.982379 0.359275 0.210045 66.000000
2.982476 0.350007 0.209987 77.000000
2.984528 0.340969 0.210045 60.000000
2.985559 0.331811 0.210045 70.000000
2.986563 0.322649 0.210045 52.000000
2.990518 0.313797 0.210219 67.000000
2.993453 0.304823 0.210335 56.000000
2.995368 0.295736 0.210393 58.000000
2.997254 0.286640 0.210452 46.000000
2.997126 0.277351 0.210393 60.000000
2.997962 0.268155 0.210393 50.000000
2.998771 0.258956 0.210393 54.000000
2.993582 0.249258 0.210045 63.000000
2.993338 0.239993 0.209987 48.000000
2.991074 0.230579 0.209813 67.000000
2.989776 0.221254 0.209696 69.000000
2.994424 0.212363 0.209929 57.000000
2.994066 0.203107 0.209871 52.000000
2.996667 0.194050 0.209987 67.000000
2.998244 0.184916 0.210045 74.000000
3.000791 0.175834 0.210161 70.000000
3.001316 0.166626 0.210161 53.000000
2.998822 0.157261 0.209987 60.000000
2.997296 0.147962 0.209871 62.000000
3.000728 0.138904 0.210045 47.000000
2.998148 0.129568 0.209871 48.000000
3.000526 0.120449 0.209987 61.000000
2.999884 0.111206 0.209929 49.000000
2.999213 0.101969 0.209871 44.000000
3.001508 0.092828 0.209987 53.000000
3.003774 0.083675 0.210103 60.000000
3.002021 0.074409 0.209987 70.000000
3.000239 0.065156 0.209871 56.000000
2.998429 0.055914 0.209754 61.000000
2.999584 0.046730 0.209813 52.000000
3.001710 0.037552 0.209929 70.000000
3.008799 0.028408 0.210335 70.000000
3.007874 0.019171 0.210277 50.000000
3.011912 0.009955 0.210510 70.000000
3.011928 0.000715 0.210510 52.000000
3.012914 -0.008529 0.210568 58.000000
3.014870 -0.017784 0.210684 51.000000
3.015800 -0.027043 0.210742 69.000000
3.010712 -0.036234 0.210452 59.000000
3.007592 -0.045425 0.210277 61.000000
3.006440 -0.054634 0.210219 61.000000
3.014243 -0.064028 0.210684 51.000000
3.013034 -0.073251 0.210626 65.000000
3.014791 -0.082549 0.210742 74.000000
3.016520 -0.091859 0.210858 64.000000
3.017221 -0.101147 0.210916 57.000000
3.021885 -0.110586 0.211207 55.000000
3.019536 -0.119777 0.211090 56.000000
3.014168 -0.128827 0.210800 59.000000
3.015753 -0.138165 0.210916 50.000000
3.018306 -0.147563 0.211090 65.000000
3.020830 -0.156978 0.211265 63.000000
3.024321 -0.166465 0.211497 40.000000
3.023796 -0.175743 0.211497 40.000000
3.027229 -0.185264 0.211729 42.000000
3.027642 -0.194614 0.211788 43.000000
2.983205 -0.200944 0.209232 6.000000
2.953540 0.633621 0.175263 38.000000
2.954493 0.624349 0.175217 39.000000
2.954438 0.614874 0.175124 52.000000
2.953375 0.605205 0.174986 37.000000
2.958155 0.596735 0.175124 43.000000
2.956053 0.586877 0.174939 39.000000
2.954899 0.577229 0.174801 45.000000
2.959599 0.568728 0.174939 41.000000
2.961330 0.559645 0.174939 44.000000
2.965979 0.551106 0.175078 43.000000
2.971586 0.542723 0.175263 43.000000
2.973237 0.533604 0.175263 42.000000
2.973877 0.524306 0.175217 59.000000
2.976455 0.515350 0.175263 48.000000
2.976053 0.505881 0.175171 53.000000
2.980547 0.497242 0.175309 49.000000
2.982058 0.488096 0.175309 44.000000
2.978610 0.478151 0.175078 53.000000
2.978090 0.468699 0.174986 38.000000
2.979514 0.459560 0.174986 41.000000
2.983873 0.450866 0.175124 39.000000
2.983265 0.441416 0.175032 56.000000
2.986583 0.432549 0.175124 45.000000
2.986907 0.423244 0.175078 50.000000
2.989181 0.414215 0.175124 50.000000
2.987468 0.404639 0.174986 50.000000
2.994637 0.396261 0.175263 46.000000
2.987913 0.386044 0.174893 63.000000
2.987102 0.376625 0.174801 48.000000
2.985269 0.367092 0.174662 38.000000
2.987372 0.358051 0.174708 34.000000
2.988457 0.348884 0.174708 45.000000
2.992491 0.340053 0.174847 48.000000
2.987563 0.330210 0.174570 51.000000
2.991542 0.321364 0.174708 29.000000
2.991520 0.312081 0.174662 52.000000
2.990476 0.302699 0.174570 60.000000
2.991390 0.293523 0.174570 46.000000
2.995260 0.284629 0.174708 46.000000
2.996119 0.275439 0.174708 45.000000
2.998940 0.266423 0.174801 47.000000
2.997753 0.257050 0.174708 42.000000
2.998527 0.247851 0.174708 64.000000
3.001265 0.238810 0.174801 42.000000
3.001983 0.229601 0.174801 49.000000
3.000681 0.220243 0.174708 51.000000
3.001343 0.211036 0.174708 60.000000
3.002973 0.201895 0.174754 55.000000
3.005572 0.192809 0.174847 47.000000
3.003158 0.183404 0.174708 50.000000
3.003707 0.174189 0.174708 51.000000
3.001235 0.164808 0.174570 57.000000
3.004719 0.155755 0.174708 48.000000
3.005183 0.146536 0.174708 53.000000
3.003622 0.137224 0.174616 42.000000
3.004030 0.128008 0.174616 46.000000
3.011395 0.119070 0.174939 55.000000
3.010748 0.109794 0.174893 37.000000
3.011070 0.100557 0.174893 39.000000
3.009368 0.091257 0.174801 49.000000
3.013628 0.082135 0.174986 62.000000
3.013866 0.072889 0.174986 48.000000
3.014075 0.063642 0.174986 48.000000
3.011260 0.054339 0.174847 45.000000
3.010413 0.045085 0.174801 55.000000
3.011536 0.035861 0.174847 47.000000
3.012631 0.026631 0.174893 35.000000
3.012699 0.017389 0.174893 61.000000
3.016734 0.008158 0.175078 53.000000
3.017744 -0.001097 0.175124 53.000000
3.023720 -0.010374 0.175402 47.000000
3.029667 -0.019687 0.175679 34.000000
3.029592 -0.028982 0.175679 49.000000
3.032485 -0.038313 0.175818 60.000000
3.030356 -0.047586 0.175725 41.000000
3.028198 -0.056846 0.175633 46.000000
3.031006 -0.066200 0.175772 58.000000
3.030789 -0.075499 0.175772 50.000000
3.029544 -0.084769 0.175725 50.000000
3.028271 -0.094033 0.175679 53.000000
3.021978 -0.103121 0.175402 45.000000
3.026639 -0.112575 0.175633 63.000000
3.024283 -0.121781 0.175540 44.000000
3.023895 -0.131059 0.175540 51.000000
3.020485 -0.140198 0.175402 42.000000
3.024032 -0.149660 0.175587 43.000000
3.025553 -0.159041 0.175679 33.000000
3.028044 -0.168487 0.175818 51.000000
3.020532 -0.177369 0.175494 28.000000
3.057861 -0.188962 0.177251 15.000000
3.026365 -0.196350 0.175818 35.000000
3.079567 -0.209270 0.178315 9.000000
2.974301 0.629858 0.138626 52.000000
2.975241 0.620526 0.138592 38.000000
2.973214 0.610592 0.138456 54.000000
2.977033 0.601863 0.138524 43.000000
2.976905 0.592337 0.138456 45.000000
2.978708 0.583201 0.138456 58.000000
2.977539 0.573493 0.138355 51.000000
2.979284 0.564356 0.138355 71.000000
2.983949 0.555761 0.138456 49.000000
2.987607 0.546964 0.138524 65.000000
2.985336 0.537088 0.138389 62.000000
2.981065 0.526884 0.138185 71.000000
2.984637 0.518077 0.138253 60.000000
2.987197 0.509086 0.138287 64.000000
2.986773 0.499589 0.138219 64.000000
2.990265 0.490747 0.138287 55.000000
2.988796 0.481095 0.138185 52.000000
2.991245 0.472078 0.138219 58.000000
2.995642 0.463357 0.138321 54.000000
2.998038 0.454314 0.138355 51.000000
2.998429 0.444968 0.138321 50.000000
2.995824 0.435192 0.138185 57.000000
2.996155 0.425859 0.138152 49.000000
2.993488 0.416115 0.138016 57.000000
2.993760 0.406794 0.137982 44.000000
2.992022 0.397213 0.137881 68.000000
2.989262 0.387519 0.137745 58.000000
2.991428 0.378471 0.137779 60.000000
2.992575 0.369292 0.137779 54.000000
2.997663 0.360586 0.137915 66.000000
3.001734 0.351736 0.138016 57.000000
3.001806 0.342412 0.137982 54.000000
2.999862 0.332871 0.137881 58.000000
3.000869 0.323666 0.137881 61.000000
2.999860 0.314250 0.137813 42.000000
3.001804 0.305146 0.137847 50.000000
3.004715 0.296131 0.137915 53.000000
3.008595 0.287196 0.138016 47.000000
3.009461 0.277964 0.138016 63.000000
3.011296 0.268819 0.138050 67.000000
3.020072 0.260264 0.138321 39.000000
3.011892 0.250254 0.138016 56.000000
3.011650 0.240933 0.137982 68.000000
3.010382 0.231539 0.137915 60.000000
3.012074 0.222376 0.137948 49.000000
3.013739 0.213204 0.137982 60.000000
3.014379 0.203957 0.137982 72.000000
3.013994 0.194644 0.137948 66.000000
3.013579 0.185335 0.137915 58.000000
3.014134 0.176089 0.137915 67.000000
3.020647 0.167171 0.138118 54.000000
3.021146 0.157903 0.138118 53.000000
3.021616 0.148634 0.138118 53.000000
3.024055 0.139455 0.138185 55.000000
3.023469 0.130133 0.138152 56.000000
3.027849 0.121016 0.138287 53.000000
3.025210 0.111616 0.138185 60.000000
3.021543 0.102200 0.138050 66.000000
3.019844 0.092868 0.137982 64.000000
3.017118 0.083520 0.137881 68.000000
3.018359 0.074288 0.137915 48.000000
3.016574 0.064985 0.137847 67.000000
3.014761 0.055693 0.137779 63.000000
3.015917 0.046459 0.137813 56.000000
3.019043 0.037242 0.137915 56.000000
3.022141 0.028007 0.138016 58.000000
3.029209 0.018778 0.138253 38.000000
3.034249 0.009499 0.138422 55.000000
3.037262 0.000190 0.138524 43.000000
3.040247 -0.009137 0.138626 63.000000
3.043203 -0.018483 0.138727 57.000000
3.046130 -0.027847 0.138829 52.000000
3.052027 -0.037267 0.139032 50.000000
3.049899 -0.046599 0.138964 52.000000
3.053739 -0.056030 0.139099 41.000000
3.053552 -0.065398 0.139099 45.000000
3.052338 -0.074742 0.139066 48.000000
3.048098 -0.083995 0.138930 71.000000
3.049824 -0.093407 0.138998 53.000000
3.042531 -0.102527 0.138761 47.000000
3.042202 -0.111861 0.138761 60.000000
3.043842 -0.121274 0.138829 52.000000
3.045453 -0.130698 0.138896 49.000000
3.043041 -0.139948 0.138829 61.000000
3.042597 -0.149283 0.138829 55.000000
3.043123 -0.158669 0.138862 47.000000
3.047611 -0.168281 0.139032 41.000000
3.049076 -0.177747 0.139099 38.000000
3.050512 -0.187223 0.139167 41.000000
3.047928 -0.196452 0.139099 34.000000
2.993897 0.633778 0.102079 42.000000
2.991913 0.623773 0.101993 36.000000
2.990874 0.613986 0.101928 37.000000
2.985885 0.603419 0.101776 33.000000
2.984780 0.593669 0.101711 51.000000
2.984626 0.584124 0.101668 47.000000
2.985422 0.574775 0.101646 41.000000
2.990118 0.566173 0.101711 55.000000
2.996755 0.557913 0.101820 63.000000
3.001403 0.549258 0.101884 46.000000
3.003073 0.540047 0.101884 54.000000
3.000779 0.530134 0.101798 48.000000
3.005346 0.521439 0.101863 63.000000
3.005946 0.512048 0.101841 49.000000
3.000600 0.501667 0.101690 44.000000
3.001139 0.492297 0.101668 47.000000
2.995726 0.481973 0.101517 48.000000
2.998178 0.472936 0.101538 46.000000
3.000603 0.463888 0.101560 58.000000
2.999047 0.454230 0.101495 52.000000
3.003393 0.445468 0.101560 52.000000
3.003756 0.436108 0.101538 49.000000
3.008049 0.427313 0.101603 48.000000
3.012317 0.418497 0.101668 56.000000
3.010614 0.408848 0.101603 43.000000
3.011855 0.399610 0.101603 48.000000
3.007118 0.389595 0.101473 45.000000
3.004332 0.379864 0.101387 60.000000
3.000522 0.370031 0.101278 38.000000
2.999658 0.360585 0.101235 41.000000
3.000750 0.351380 0.101235 47.000000
3.000821 0.342059 0.101214 50.000000
3.000862 0.332740 0.101192 48.000000
3.001869 0.323532 0.101192 59.000000
3.005831 0.314634 0.101257 43.000000
3.008771 0.305614 0.101300 41.000000
3.014669 0.296874 0.101408 54.000000
3.018551 0.287909 0.101473 35.000000
3.017429 0.278463 0.101430 55.000000
3.021257 0.269472 0.101495 54.000000
3.027049 0.260632 0.101603 53.000000
3.025842 0.251178 0.101560 61.000000
3.025602 0.241813 0.101538 49.000000
3.020349 0.232068 0.101408 54.000000
3.023041 0.222948 0.101452 58.000000
3.026702 0.213885 0.101517 53.000000
3.024352 0.204395 0.101452 45.000000
3.019976 0.194792 0.101343 53.000000
3.024551 0.185773 0.101430 45.000000
3.025107 0.176492 0.101430 43.000000
3.041605 0.168100 0.101776 30.000000
3.037115 0.158505 0.101668 32.000000
3.043578 0.149483 0.101798 53.000000
3.048018 0.140330 0.101884 45.000000
3.051430 0.131108 0.101949 41.000000
3.044825 0.121464 0.101798 46.000000
3.047182 0.112197 0.101841 54.000000
3.036520 0.102472 0.101603 49.000000
3.034822 0.093094 0.101560 41.000000
3.028098 0.083587 0.101408 36.000000
3.025342 0.074222 0.101343 36.000000
3.027554 0.064983 0.101387 43.000000
3.031738 0.055770 0.101473 34.000000
3.031894 0.046468 0.101473 43.000000
3.036021 0.037217 0.101560 48.000000
3.038121 0.027922 0.101603 45.000000
3.042191 0.018627 0.101690 49.000000
3.041234 0.009290 0.101668 45.000000
3.042248 -0.000040 0.101690 45.000000
3.044233 -0.009379 0.101733 39.000000
3.044190 -0.018719 0.101733 41.000000
3.041119 -0.028032 0.101668 44.000000
3.042019 -0.037373 0.101690 40.000000
3.042889 -0.046721 0.101711 43.000000
3.039733 -0.056002 0.101646 49.000000
3.040546 -0.065349 0.101668 38.000000
3.043330 -0.074749 0.101733 44.000000
3.041087 -0.084031 0.101690 47.000000
3.042814 -0.093421 0.101733 51.000000
3.045511 -0.102856 0.101798 38.000000
3.044182 -0.112163 0.101776 41.000000
3.050816 -0.121778 0.101928 45.000000
3.049429 -0.131095 0.101906 45.000000
3.047015 -0.140358 0.101863 43.000000
3.051563 -0.149949 0.101971 42.000000
3.049092 -0.159207 0.101928 31.000000
3.051584 -0.168725 0.101993 40.000000
3.051052 -0.178087 0.101993 33.000000
3.047498 -0.187263 0.101928 37.000000
3.036932 -0.195972 0.101711 16.000000
3.003373 0.635466 0.064432 44.000000
3.006288 0.626453 0.064441 32.000000
3.000359 0.615620 0.064367 47.000000
3.003213 0.606610 0.064376 59.000000
3.002118 0.596809 0.064348 44.000000
3.000010 0.586828 0.064311 64.000000
3.004742 0.578188 0.064339 53.000000
3.001589 0.568038 0.064293 60.000000
3.003317 0.558827 0.064293 46.000000
3.007968 0.550149 0.064321 59.000000
3.010626 0.541095 0.064330 65.000000
3.016211 0.532551 0.064367 48.000000
3.020787 0.523807 0.064395 44.000000
3.022380 0.514537 0.064395 50.000000
3.023944 0.505262 0.064395 66.000000
3.030414 0.496790 0.064441 66.000000
3.025012 0.486381 0.064376 59.000000
3.021552 0.476320 0.064330 56.000000
3.019046 0.466437 0.064293 74.000000
3.011564 0.455827 0.064210 58.000000
3.011959 0.446439 0.064200 52.000000
3.009356 0.436623 0.064163 63.000000
3.008702 0.427107 0.064145 75.000000
3.009998 0.417875 0.064145 61.000000
3.016220 0.409310 0.064191 66.000000
3.018453 0.400186 0.064200 45.000000
3.019666 0.390923 0.064200 56.000000
3.023828 0.382033 0.064228 60.000000
3.026971 0.372998 0.064247 52.000000
3.026115 0.363472 0.064228 51.000000
3.028209 0.354302 0.064237 51.000000
3.031269 0.345236 0.064256 62.000000
3.031320 0.335825 0.064247 57.000000
3.028359 0.326095 0.064210 65.000000
3.030340 0.316907 0.064219 62.000000
3.031298 0.307609 0.064219 62.000000
3.033222 0.298405 0.064228 66.000000
3.034124 0.289098 0.064228 55.000000
3.026035 0.278963 0.064145 53.000000
3.031856 0.270121 0.064191 40.000000
3.036656 0.261160 0.064228 62.000000
3.034453 0.251595 0.064200 48.000000
3.037205 0.242443 0.064219 65.000000
3.037934 0.233124 0.064219 42.000000
3.036640 0.223656 0.064200 51.000000
3.041302 0.214620 0.064237 44.000000
3.037956 0.205019 0.064200 61.000000
3.033581 0.195377 0.064154 72.000000
3.036162 0.186192 0.064173 56.000000
3.033724 0.176702 0.064145 61.000000
3.037247 0.167559 0.064173 64.000000
3.040743 0.158395 0.064200 64.000000
3.050203 0.149505 0.064284 59.000000
3.053644 0.140284 0.064311 59.000000
3.058056 0.131086 0.064348 47.000000
3.064439 0.121941 0.064404 79.000000
3.065798 0.112575 0.064413 57.000000
3.065130 0.103136 0.064404 55.000000
3.061434 0.093610 0.064367 59.000000
3.053710 0.083998 0.064293 68.000000
3.052954 0.074605 0.064284 46.000000
3.050169 0.065174 0.064256 57.000000
3.050355 0.055816 0.064256 45.000000
3.052511 0.046488 0.064274 49.000000
3.053639 0.037134 0.064284 51.000000
3.055739 0.027784 0.064302 49.000000
3.059809 0.018432 0.064339 55.000000
3.059852 0.009045 0.064339 57.000000
3.058865 -0.000342 0.064330 57.000000
3.060849 -0.009733 0.064348 64.000000
3.059805 -0.019118 0.064339 65.000000
3.058732 -0.028495 0.064330 55.000000
3.056631 -0.037854 0.064311 49.000000
3.056500 -0.047232 0.064311 49.000000
3.054341 -0.056571 0.064293 48.000000
3.056153 -0.065985 0.064311 64.000000
3.055936 -0.075361 0.064311 45.000000
3.056690 -0.084764 0.064321 57.000000
3.056416 -0.094141 0.064321 46.000000
3.060110 -0.103654 0.064358 58.000000
3.061776 -0.113116 0.064376 49.000000
3.066410 -0.122709 0.064422 43.000000
3.065020 -0.132073 0.064413 53.000000
3.062603 -0.141383 0.064395 57.000000
3.066150 -0.150976 0.064432 38.000000
3.070665 -0.160644 0.064478 51.000000
3.072155 -0.170174 0.064496 41.000000
3.067625 -0.179365 0.064459 47.000000
3.068058 -0.188837 0.064469 35.000000
3.095405 -0.200058 0.064728 15.000000
3.020990 0.639525 0.025992 25.000000
3.014128 0.628413 0.026022 42.000000
3.012124 0.618357 0.026035 40.000000
3.011066 0.608518 0.026045 40.000000
3.006054 0.597909 0.026069 43.000000
3.004931 0.588106 0.026078 49.000000
3.007703 0.579074 0.026075 47.000000
3.007500 0.569471 0.026082 35.000000
3.015131 0.561342 0.026062 42.000000
3.019790 0.552630 0.026052 39.000000
3.023440 0.543718 0.026045 44.000000
3.027063 0.534788 0.026039 35.000000
3.028689 0.525499 0.026039 32.000000
3.030287 0.516204 0.026039 33.000000
3.038760 0.508062 0.026015 43.000000
3.034384 0.497763 0.026035 56.000000
3.030961 0.487655 0.026052 44.000000
3.031455 0.478198 0.026055 41.000000
3.034884 0.469202 0.026049 40.000000
3.033344 0.459438 0.026059 41.000000
3.030782 0.449541 0.026072 37.000000
3.027200 0.439521 0.026088 38.000000
3.029524 0.430372 0.026085 36.000000
3.026868 0.420524 0.026098 41.000000
3.027153 0.411101 0.026102 42.000000
3.019479 0.400625 0.026132 28.000000
3.022677 0.391617 0.026125 41.000000
3.025848 0.382593 0.026118 33.000000
3.027008 0.373308 0.026118 30.000000
3.029132 0.364139 0.026115 34.000000
3.038180 0.355778 0.026088 42.000000
3.040251 0.346569 0.026085 43.000000
3.055214 0.338788 0.026039 20.000000
3.043314 0.328015 0.026082 45.000000
3.043312 0.318572 0.026085 47.000000
3.041290 0.308930 0.026095 39.000000
3.042224 0.299598 0.026095 36.000000
3.040142 0.289977 0.026105 47.000000
3.038030 0.280372 0.026115 38.000000
3.038876 0.271050 0.026115 43.000000
3.043679 0.262070 0.026102 48.000000
3.047458 0.252980 0.026092 37.000000
3.049217 0.243710 0.026088 39.000000
3.051944 0.234508 0.026082 38.000000
3.053646 0.225217 0.026078 34.000000
3.054323 0.215848 0.026078 55.000000
3.054971 0.206476 0.026078 42.000000
3.057585 0.197232 0.026072 38.000000
3.054184 0.187604 0.026085 53.000000
3.052749 0.178116 0.026092 38.000000
3.051284 0.168638 0.026098 41.000000
3.054783 0.159434 0.026088 46.000000
3.061250 0.150358 0.026069 42.000000
3.062696 0.141012 0.026065 31.000000
3.066111 0.131745 0.026055 39.000000
3.074494 0.122659 0.026029 42.000000
3.074856 0.113226 0.026029 33.000000
3.072191 0.103690 0.026039 41.000000
3.070495 0.094202 0.026045 42.000000
3.065772 0.084641 0.026062 33.000000
3.062018 0.075136 0.026075 29.000000
3.062235 0.065741 0.026075 45.000000
3.058423 0.056271 0.026088 49.000000
3.061580 0.046935 0.026078 32.000000
3.063710 0.037567 0.026072 35.000000
3.060811 0.028139 0.026082 29.000000
3.061883 0.018755 0.026078 38.000000
3.059926 0.009354 0.026085 41.000000
3.059940 -0.000034 0.026085 32.000000
3.059926 -0.009421 0.026085 29.000000
3.059883 -0.018809 0.026085 32.000000
3.062810 -0.028223 0.026075 38.000000
3.065709 -0.037655 0.026065 43.000000
3.070579 -0.047135 0.026049 27.000000
3.081418 -0.056754 0.026012 30.000000
3.082229 -0.066229 0.026009 51.000000
3.085010 -0.075757 0.025999 35.000000
3.090760 -0.085385 0.025979 44.000000
3.085486 -0.094715 0.025996 44.000000
3.085181 -0.104181 0.025996 31.000000
3.085846 -0.113682 0.025992 31.000000
3.081487 -0.122991 0.026006 32.000000
3.085091 -0.132614 0.025992 36.000000
3.083671 -0.142033 0.025996 32.000000
3.087216 -0.151687 0.025982 33.000000
3.094725 -0.161572 0.025956 29.000000
3.096212 -0.171176 0.025949 28.000000
3.098667 -0.180848 0.025939 36.000000
3.098098 -0.190353 0.025939 36.000000
3.053590 -0.197041 0.026085 6.000000
3.221098 0.398030 -0.014558 19.000000
3.221311 0.388027 -0.014542 18.000000
3.179784 0.373136 -0.013867 40.000000
3.175947 0.362812 -0.013788 65.000000
3.186982 0.354170 -0.013945 44.000000
3.165190 0.341924 -0.013584 35.000000
3.191085 0.334817 -0.013977 62.000000
3.183144 0.324115 -0.013835 65.000000
3.170193 0.312974 -0.013615 51.000000
3.176115 0.303722 -0.013694 80.000000
3.158114 0.292228 -0.013395 51.000000
3.154016 0.282093 -0.013317 53.000000
3.156859 0.272587 -0.013348 66.000000
3.158677 0.262983 -0.013364 65.000000
3.147509 0.252334 -0.013175 54.000000
3.158237 0.243444 -0.013333 65.000000
3.153984 0.233385 -0.013254 65.000000
3.143714 0.222931 -0.013081 58.000000
3.150368 0.213690 -0.013175 60.000000
3.153005 0.204153 -0.013207 71.000000
3.155612 0.194602 -0.013238 61.000000
3.162184 0.185270 -0.013333 61.000000
3.170724 0.176010 -0.013458 72.000000
3.166256 0.166020 -0.013380 49.000000
3.165752 0.156256 -0.013364 63.000000
3.167216 0.146589 -0.013380 48.000000
3.170647 0.137001 -0.013427 44.000000
3.183042 0.127752 -0.013615 62.000000
3.185417 0.118060 -0.013647 57.000000
3.200754 0.108795 -0.013882 69.000000
3.208068 0.099190 -0.013992 41.000000
3.206358 0.089292 -0.013961 41.000000
3.211615 0.079578 -0.014039 35.000000
3.244832 0.070436 -0.014558 23.000000
3.193048 0.059518 -0.013741 53.000000
3.218082 0.406974 -0.053421 21.000000
3.223283 0.397590 -0.053532 28.000000
3.213572 0.386383 -0.053227 25.000000
3.221691 0.377339 -0.053421 35.000000
3.213896 0.366430 -0.053171 28.000000
3.202089 0.355131 -0.052811 45.000000
3.195213 0.344446 -0.052589 34.000000
3.190290 0.334015 -0.052422 34.000000
3.187322 0.323820 -0.052311 44.000000
3.188300 0.314040 -0.052311 69.000000
3.183278 0.303685 -0.052145 60.000000
3.181209 0.293641 -0.052061 48.000000
3.164174 0.282274 -0.051562 31.000000
3.177971 0.273685 -0.051923 56.000000
3.178796 0.263934 -0.051923 54.000000
3.177598 0.254020 -0.051867 71.000000
3.177366 0.244193 -0.051839 68.000000
3.176106 0.234296 -0.051784 54.000000
3.178804 0.224693 -0.051839 55.000000
3.179479 0.214939 -0.051839 60.000000
3.183116 0.205378 -0.051923 47.000000
3.180738 0.195426 -0.051839 63.000000
3.184316 0.185843 -0.051923 46.000000
3.184871 0.176073 -0.051923 56.000000
3.186395 0.166353 -0.051950 59.000000
3.188887 0.156676 -0.052006 53.000000
3.193347 0.147077 -0.052117 57.000000
3.195780 0.137366 -0.052172 46.000000
3.202179 0.127802 -0.052339 35.000000
3.213544 0.118386 -0.052644 55.000000
3.220886 0.108765 -0.052838 30.000000
3.235192 0.099317 -0.053227 30.000000
3.246473 0.089699 -0.053532 30.000000
3.247732 0.079764 -0.053560 30.000000
3.266950 0.070214 -0.054087 27.000000
3.259154 0.060041 -0.053865 20.000000
3.228029 0.388835 -0.094339 28.000000
3.221268 0.377999 -0.094017 38.000000
3.208514 0.366529 -0.093453 58.000000
3.204658 0.356132 -0.093251 45.000000
3.196795 0.345334 -0.092888 47.000000
3.198833 0.335629 -0.092929 56.000000
3.191895 0.325005 -0.092606 52.000000
3.182934 0.314230 -0.092203 63.000000
3.182888 0.304369 -0.092163 58.000000
3.177837 0.294051 -0.091921 71.000000
3.177729 0.284211 -0.091881 63.000000
3.176595 0.274289 -0.091800 85.000000
3.174434 0.264293 -0.091679 90.000000
3.171246 0.254234 -0.091518 74.000000
3.169023 0.244274 -0.091397 90.000000
3.170753 0.234624 -0.091437 74.000000
3.169465 0.224754 -0.091357 72.000000
3.168146 0.214894 -0.091276 75.000000
3.166796 0.205044 -0.091195 52.000000
3.164419 0.195144 -0.091074 51.000000
3.163007 0.185318 -0.090994 59.000000
3.168549 0.175889 -0.091195 55.000000
3.178054 0.166637 -0.091558 52.000000
3.182543 0.157083 -0.091719 43.000000
3.190994 0.147687 -0.092042 50.000000
3.197422 0.138154 -0.092284 40.000000
3.206816 0.128704 -0.092646 55.000000
3.216183 0.119197 -0.093009 45.000000
3.220527 0.109464 -0.093170 56.000000
3.224843 0.099706 -0.093332 52.000000
3.229129 0.089923 -0.093493 52.000000
3.230389 0.080040 -0.093533 42.000000
3.232617 0.070173 -0.093614 30.000000
3.196852 0.059589 -0.092163 16.000000
3.214076 0.405332 -0.132771 17.000000
3.208366 0.394613 -0.132404 23.000000
3.214519 0.385365 -0.132666 26.000000
3.204776 0.374223 -0.132090 46.000000
3.202932 0.364049 -0.131933 38.000000
3.200064 0.353781 -0.131724 47.000000
3.192199 0.342998 -0.131253 41.000000
3.189263 0.332787 -0.131044 51.000000
3.184308 0.322395 -0.130730 43.000000
3.173356 0.311449 -0.130101 41.000000
3.174297 0.301712 -0.130101 44.000000
3.170235 0.291513 -0.129840 49.000000
3.169126 0.281608 -0.129735 47.000000
3.163010 0.271284 -0.129369 17.000000
3.169799 0.262075 -0.129683 13.000000
3.158642 0.251394 -0.129055 20.000000
3.163381 0.242008 -0.129264 21.000000
3.160125 0.232008 -0.129055 30.000000
3.167795 0.222805 -0.129421 28.000000
3.166471 0.212950 -0.129316 27.000000
3.172092 0.203556 -0.129578 22.000000
3.171705 0.193762 -0.129526 20.000000
3.179263 0.184438 -0.129892 21.000000
3.187791 0.175124 -0.130311 37.000000
3.195294 0.165708 -0.130677 41.000000
3.203767 0.156297 -0.131096 28.000000
3.210217 0.146743 -0.131410 40.000000
3.213645 0.137022 -0.131567 34.000000
3.217044 0.127281 -0.131724 43.000000
3.223407 0.117632 -0.132038 43.000000
3.223753 0.107742 -0.132038 46.000000
3.231055 0.098066 -0.132404 32.000000
3.233337 0.088208 -0.132509 39.000000
3.233593 0.078287 -0.132509 38.000000
3.245798 0.068624 -0.133137 27.000000
3.254980 0.058831 -0.133608 18.000000
3.198691 0.405231 -0.171864 42.000000
3.197938 0.395171 -0.171734 39.000000
3.186256 0.383808 -0.170893 57.000000
3.177507 0.372869 -0.170246 69.000000
3.175662 0.362780 -0.170052 50.000000
3.170809 0.352375 -0.169664 49.000000
3.166914 0.342110 -0.169340 60.000000
3.163979 0.331976 -0.169081 68.000000
3.162004 0.321965 -0.168887 50.000000
3.159005 0.311871 -0.168629 59.000000
3.160940 0.302273 -0.168693 55.000000
3.158872 0.292298 -0.168499 70.000000
3.162735 0.282872 -0.168693 60.000000
3.163589 0.273167 -0.168693 67.000000
3.167395 0.263708 -0.168887 30.000000
3.168189 0.253990 -0.168887 61.000000
3.167958 0.244192 -0.168823 73.000000
3.160731 0.233883 -0.168305 105.000000
3.167406 0.224608 -0.168693 47.000000
3.167085 0.214822 -0.168629 46.000000
3.168725 0.205169 -0.168693 53.000000
3.166351 0.195263 -0.168499 34.000000
3.172912 0.185897 -0.168887 62.000000
3.172472 0.176107 -0.168823 59.000000
3.177979 0.166633 -0.169146 45.000000
3.185453 0.157226 -0.169599 53.000000
3.186917 0.147499 -0.169664 96.000000
3.197324 0.138150 -0.170311 54.000000
3.207704 0.128739 -0.170958 44.000000
3.206090 0.118824 -0.170829 67.000000
3.212423 0.109190 -0.171217 38.000000
3.218727 0.099518 -0.171605 47.000000
3.218020 0.089615 -0.171540 71.000000
3.225263 0.079914 -0.171993 36.000000
3.227489 0.070062 -0.172123 43.000000
3.240659 0.060400 -0.172964 24.000000
3.242825 0.050488 -0.173093 22.000000
3.213745 0.415311 -0.211381 11.000000
3.202144 0.403823 -0.210386 27.000000
3.205347 0.394241 -0.210539 22.000000
3.191692 0.382620 -0.209391 28.000000
3.180968 0.371434 -0.208473 36.000000
3.173177 0.360656 -0.207784 44.000000
3.167331 0.350150 -0.207248 31.000000
3.163434 0.339897 -0.206865 45.000000
3.157520 0.329463 -0.206329 47.000000
3.153557 0.319270 -0.205947 51.000000
3.157498 0.309887 -0.206176 48.000000
3.155456 0.299915 -0.205947 53.000000
3.157354 0.290324 -0.206023 37.000000
3.155251 0.280370 -0.205794 36.000000
3.153116 0.270432 -0.205564 58.000000
3.156911 0.261005 -0.205794 48.000000
3.154716 0.251080 -0.205564 36.000000
3.151495 0.241094 -0.205258 50.000000
3.158186 0.231865 -0.205717 52.000000
3.156893 0.222034 -0.205564 54.000000
3.157559 0.212348 -0.205564 42.000000
3.160186 0.202788 -0.205717 51.000000
3.160793 0.193092 -0.205717 40.000000
3.165352 0.183626 -0.206023 46.000000
3.168887 0.174079 -0.206253 39.000000
3.170402 0.164408 -0.206329 56.000000
3.171888 0.154730 -0.206406 54.000000
3.175335 0.145135 -0.206636 47.000000
3.182739 0.135693 -0.207171 87.000000
3.185133 0.126007 -0.207325 40.000000
3.182515 0.116125 -0.207095 34.000000
3.191825 0.106663 -0.207784 31.000000
3.198117 0.097054 -0.208243 38.000000
3.203383 0.087380 -0.208626 45.000000
3.222574 0.078017 -0.210080 29.000000
3.234761 0.068387 -0.210999 23.000000
3.239939 0.058554 -0.211381 25.000000
3.236116 0.048553 -0.211075 20.000000
3.220298 0.038428 -0.209851 7.000000
3.192672 0.413298 -0.249162 34.000000
3.191949 0.403251 -0.248985 28.000000
3.180319 0.391875 -0.247831 47.000000
3.177551 0.381641 -0.247476 45.000000
3.171781 0.371082 -0.246855 43.000000
3.162018 0.360110 -0.245880 59.000000
3.161128 0.350189 -0.245702 51.000000
3.157236 0.339956 -0.245258 57.000000
3.153311 0.329751 -0.244815 56.000000
3.151335 0.319774 -0.244549 63.000000
3.150318 0.309910 -0.244371 71.000000
3.151254 0.300243 -0.244371 46.000000
3.151169 0.290482 -0.244283 55.000000
3.151053 0.280725 -0.244194 53.000000
3.160831 0.271823 -0.244992 35.000000
3.164628 0.262371 -0.245258 55.000000
3.161447 0.252345 -0.244904 52.000000
3.161213 0.242568 -0.244815 54.000000
3.166909 0.233234 -0.245258 46.000000
3.167609 0.223517 -0.245258 65.000000
3.173249 0.214132 -0.245702 37.000000
3.171903 0.204268 -0.245525 54.000000
3.174504 0.194658 -0.245702 51.000000
3.179063 0.185149 -0.246057 44.000000
3.179616 0.175395 -0.246057 45.000000
3.177155 0.165484 -0.245791 66.000000
3.190582 0.156368 -0.246944 138.000000
3.180101 0.146077 -0.245968 65.000000
3.179539 0.136278 -0.245880 73.000000
3.181933 0.126601 -0.246057 69.000000
3.182306 0.116838 -0.246057 68.000000
3.185636 0.107175 -0.246323 56.000000
3.189932 0.097522 -0.246678 42.000000
3.192208 0.087790 -0.246855 40.000000
3.196445 0.078093 -0.247210 57.000000
3.207624 0.068518 -0.248186 45.000000
3.209811 0.058713 -0.248364 54.000000
3.226907 0.049121 -0.249872 24.000000
3.229034 0.039245 -0.250049 13.000000
3.212222 0.425705 -0.291926 23.000000
3.197727 0.413800 -0.290306 30.000000
3.193059 0.403237 -0.289699 32.000000
3.183421 0.392097 -0.288585 37.000000
3.172756 0.380902 -0.287371 41.000000
3.166005 0.370239 -0.286561 32.000000
3.160207 0.359733 -0.285852 34.000000
3.152397 0.349048 -0.284941 40.000000
3.156420 0.339695 -0.285245 47.000000
3.155468 0.329802 -0.285042 40.000000
3.158445 0.320321 -0.285245 41.000000
3.156443 0.310337 -0.284941 47.000000
