ply
format ascii 1.0
element vertex 1260
property float x
property float y
property float z
property float intensity
end_header
2.902990 -0.493311 0.638976 54.000000
2.901463 -0.502215 0.638976 52.000000
2.901837 -0.511454 0.639379 39.000000
2.894470 -0.519316 0.638169 49.000000
2.889009 -0.527489 0.637363 45.000000
2.890266 -0.536887 0.637968 40.000000
2.885719 -0.545206 0.637363 59.000000
2.883070 -0.553872 0.637161 58.000000
2.878474 -0.562151 0.636557 37.000000
2.875775 -0.570788 0.636355 35.000000
2.877851 -0.580383 0.637161 48.000000
2.874137 -0.588817 0.636758 45.000000
2.871358 -0.597432 0.636557 54.000000
2.875262 -0.607454 0.637766 45.000000
2.870512 -0.615655 0.637161 61.000000
2.868609 -0.624459 0.637161 51.000000
2.866680 -0.633257 0.637161 62.000000
2.860901 -0.641192 0.636355 49.000000
2.858920 -0.649966 0.636355 47.000000
2.856913 -0.658734 0.636355 44.000000
2.852971 -0.667049 0.635952 62.000000
2.853770 -0.676477 0.636557 41.000000
2.850729 -0.685000 0.636355 29.000000
2.850517 -0.694207 0.636758 52.000000
2.847423 -0.702714 0.636557 48.000000
2.848104 -0.712159 0.637161 42.000000
2.843058 -0.720172 0.636557 55.000000
2.837989 -0.728160 0.635952 62.000000
2.831002 -0.735631 0.634944 43.000000
2.825890 -0.743565 0.634339 39.000000
2.822649 -0.751979 0.634137 53.000000
2.818437 -0.760125 0.633734 31.000000
2.816092 -0.768768 0.633734 44.000000
2.812776 -0.777143 0.633533 59.000000
2.813208 -0.786561 0.634137 64.000000
2.810782 -0.795188 0.634137 60.000000
2.808329 -0.803807 0.634137 50.000000
2.805850 -0.812420 0.634137 42.000000
2.800524 -0.820198 0.633533 38.000000
2.792360 -0.827116 0.632323 60.000000
2.792624 -0.836522 0.632928 60.000000
2.789107 -0.844802 0.632726 59.000000
2.790248 -0.854503 0.633533 36.000000
2.786678 -0.862769 0.633331 39.000000
2.780279 -0.870144 0.632525 53.000000
2.774795 -0.877783 0.631920 40.000000
2.775821 -0.887485 0.632726 34.000000
2.771221 -0.895395 0.632323 47.000000
2.767530 -0.903588 0.632122 43.000000
2.765675 -0.912382 0.632323 41.000000
2.761004 -0.920243 0.631920 48.000000
2.760952 -0.929647 0.632525 44.000000
2.759015 -0.938429 0.632726 50.000000
2.755196 -0.946571 0.632525 41.000000
2.755055 -0.955983 0.633129 37.000000
2.752109 -0.964430 0.633129 49.000000
2.753754 -0.974504 0.634137 48.000000
2.750751 -0.982947 0.634137 33.000000
2.745880 -0.990717 0.633734 37.000000
2.746509 -1.000478 0.634541 55.000000
2.739749 -1.007547 0.633734 33.000000
2.733891 -1.014924 0.633129 38.000000
2.731682 -1.023651 0.633331 49.000000
2.726696 -1.031333 0.632928 36.000000
2.722604 -1.039345 0.632726 41.000000
2.722144 -1.048749 0.633331 53.000000
2.716176 -1.056031 0.632726 53.000000
2.714746 -1.065074 0.633129 36.000000
2.710555 -1.073038 0.632928 36.000000
2.707250 -1.081348 0.632928 52.000000
2.703012 -1.089283 0.632726 57.000000
2.705101 -1.099784 0.633936 54.000000
2.705339 -1.109565 0.634742 37.000000
2.702827 -1.118235 0.634944 47.000000
2.703903 -1.128408 0.635952 31.000000
2.694109 -1.134038 0.634541 64.000000
2.694224 -1.143829 0.635347 46.000000
2.688901 -1.151318 0.634944 48.000000
2.681760 -1.158009 0.634137 61.000000
2.672807 -1.163884 0.632928 38.000000
2.675500 -1.174836 0.634339 45.000000
2.672779 -1.183435 0.634541 38.000000
2.671819 -1.192828 0.635145 37.000000
2.669040 -1.201421 0.635347 51.000000
2.666233 -1.210009 0.635549 41.000000
2.666961 -1.220222 0.636557 51.000000
2.664095 -1.228808 0.636758 39.000000
2.661201 -1.237389 0.636960 15.000000
2.926062 -0.434113 0.607045 20.000000
2.920834 -0.442501 0.606283 41.000000
2.920433 -0.451609 0.606473 45.000000
2.923882 -0.461330 0.607426 40.000000
2.928269 -0.471232 0.608568 45.000000
2.925841 -0.480055 0.608378 45.000000
2.928227 -0.489675 0.609140 26.000000
2.924776 -0.498328 0.608759 37.000000
2.917429 -0.506293 0.607616 37.000000
2.919729 -0.515923 0.608378 39.000000
2.907504 -0.522971 0.606283 35.000000
2.901057 -0.531007 0.605330 42.000000
2.898449 -0.539725 0.605140 26.000000
2.897744 -0.548797 0.605330 34.000000
2.892191 -0.556944 0.604569 33.000000
2.890468 -0.565814 0.604569 52.000000
2.881979 -0.573342 0.603235 29.000000
2.886942 -0.583539 0.604569 37.000000
2.879368 -0.591211 0.603426 44.000000
2.870813 -0.598642 0.602092 50.000000
2.868002 -0.607244 0.601902 36.000000
2.862287 -0.615216 0.601140 41.000000
2.858467 -0.623577 0.600759 32.000000
2.855582 -0.632132 0.600569 46.000000
2.854587 -0.641105 0.600759 34.000000
2.854522 -0.650295 0.601140 45.000000
2.852513 -0.659049 0.601140 31.000000
2.855257 -0.668915 0.602092 28.000000
2.852236 -0.677445 0.601902 42.000000
2.843463 -0.684587 0.600569 25.000000
2.848026 -0.694934 0.601902 43.000000
2.842068 -0.702727 0.601140 46.000000
2.840851 -0.711681 0.601331 32.000000
2.839606 -0.720634 0.601521 36.000000
2.832627 -0.728123 0.600569 48.000000
2.830380 -0.736810 0.600569 41.000000
2.831904 -0.746489 0.601331 39.000000
2.830549 -0.755427 0.601521 45.000000
2.827270 -0.763851 0.601331 43.000000
2.824913 -0.772522 0.601331 48.000000
2.825369 -0.781969 0.601902 50.000000
2.823902 -0.790898 0.602092 41.000000
2.820517 -0.799291 0.601902 48.000000
2.815221 -0.807130 0.601331 58.000000
2.814617 -0.816309 0.601712 43.000000
2.812099 -0.824940 0.601712 31.000000
2.809555 -0.833564 0.601712 43.000000
2.807925 -0.842461 0.601902 40.000000
2.805327 -0.851072 0.601902 55.000000
2.801764 -0.859387 0.601712 47.000000
2.800052 -0.868269 0.601902 44.000000
2.793628 -0.875682 0.601140 39.000000
2.791864 -0.884545 0.601331 29.000000
2.787267 -0.892508 0.600950 27.000000
2.791055 -0.903168 0.602283 42.000000
2.785471 -0.910812 0.601712 39.000000
2.783596 -0.919662 0.601902 49.000000
2.780761 -0.928197 0.601902 48.000000
2.775110 -0.935784 0.601331 27.000000
2.773155 -0.944610 0.601521 45.000000
2.765602 -0.951518 0.600569 47.000000
2.756177 -0.957745 0.599235 31.000000
2.755079 -0.966846 0.599616 40.000000
2.750249 -0.974639 0.599235 45.000000
2.742624 -0.981420 0.598283 45.000000
2.739600 -0.989830 0.598283 44.000000
2.739317 -0.999238 0.598855 36.000000
2.737160 -1.007977 0.599045 49.000000
2.734055 -1.016369 0.599045 50.000000
2.730924 -1.024752 0.599045 41.000000
2.732358 -1.034863 0.599997 34.000000
2.730087 -1.043591 0.600188 35.000000
2.727789 -1.052315 0.600378 37.000000
2.720888 -1.059255 0.599616 56.000000
2.716711 -1.067239 0.599426 46.000000
2.716162 -1.076653 0.599997 39.000000
2.712847 -1.084981 0.599997 29.000000
2.711326 -1.094033 0.600378 32.000000
2.710685 -1.103455 0.600950 41.000000
2.710920 -1.113257 0.601712 38.000000
2.712028 -1.123445 0.602664 42.000000
2.710380 -1.132517 0.603045 29.000000
2.708702 -1.141588 0.603426 42.000000
2.705187 -1.149893 0.603426 43.000000
2.698939 -1.157028 0.602854 33.000000
2.695377 -1.165302 0.602854 41.000000
2.686389 -1.171214 0.601712 46.000000
2.685479 -1.180635 0.602283 40.000000
2.679152 -1.187676 0.601712 52.000000
2.675495 -1.195890 0.601712 36.000000
2.663758 -1.200465 0.599997 24.000000
2.668107 -1.212284 0.601712 33.000000
2.664376 -1.220464 0.601712 29.000000
2.702515 -1.247959 0.610663 9.000000
2.947100 -0.445163 0.574428 39.000000
2.942803 -0.453752 0.573892 43.000000
2.942369 -0.462932 0.574071 36.000000
2.939964 -0.471800 0.573892 37.000000
2.933648 -0.480023 0.572999 43.000000
2.931190 -0.488859 0.572821 42.000000
2.930647 -0.498014 0.572999 46.000000
2.930075 -0.507171 0.573178 43.000000
2.926567 -0.515816 0.572821 46.000000
2.924002 -0.524619 0.572642 48.000000
2.916572 -0.532526 0.571570 33.000000
2.916859 -0.541831 0.571927 51.000000
2.909382 -0.549680 0.570856 49.000000
2.900919 -0.557303 0.569605 53.000000
2.894367 -0.565257 0.568712 44.000000
2.884899 -0.572601 0.567283 45.000000
2.882164 -0.581254 0.567104 54.000000
2.877475 -0.589501 0.566569 56.000000
2.872764 -0.597724 0.566033 40.000000
2.870916 -0.606535 0.566033 43.000000
2.870004 -0.615547 0.566211 58.000000
2.869063 -0.624558 0.566390 39.000000
2.865212 -0.632933 0.566033 42.000000
2.863257 -0.641720 0.566033 31.000000
2.867990 -0.652029 0.567283 37.000000
2.867894 -0.661267 0.567640 53.000000
2.870642 -0.671183 0.568533 51.000000
2.870484 -0.680441 0.568891 42.000000
2.867427 -0.689015 0.568712 46.000000
2.869123 -0.698740 0.569427 42.000000
2.866010 -0.707304 0.569248 48.000000
2.859055 -0.714899 0.568355 43.000000
2.855894 -0.723425 0.568176 52.000000
2.852708 -0.731939 0.567998 50.000000
2.847592 -0.739945 0.567462 40.000000
2.844357 -0.748427 0.567283 53.000000
2.842048 -0.757150 0.567283 46.000000
2.840662 -0.766122 0.567462 49.000000
2.836400 -0.774315 0.567104 55.000000
2.834959 -0.783275 0.567283 37.000000
2.826857 -0.790379 0.566211 55.000000
2.825366 -0.799316 0.566390 61.000000
2.820062 -0.807168 0.565854 41.000000
2.816628 -0.815542 0.565675 37.000000
2.813168 -0.823903 0.565497 39.000000
2.813457 -0.833368 0.566033 47.000000
2.812773 -0.842561 0.566390 40.000000
2.813941 -0.852328 0.567104 46.000000
2.812253 -0.861245 0.567283 34.000000
2.811478 -0.870451 0.567640 65.000000
2.808794 -0.879072 0.567640 33.000000
2.807960 -0.888279 0.567998 47.000000
2.806159 -0.897189 0.568176 46.000000
2.803393 -0.905794 0.568176 50.000000
2.802471 -0.915002 0.568533 58.000000
2.797782 -0.922979 0.568176 51.000000
2.792137 -0.930624 0.567640 33.000000
2.792066 -0.940128 0.568176 40.000000
2.785443 -0.947422 0.567462 50.000000
2.784384 -0.956603 0.567819 52.000000
2.776789 -0.963527 0.566926 39.000000
2.770106 -0.970740 0.566211 47.000000
2.771752 -0.980875 0.567104 53.000000
2.763171 -0.987387 0.566033 52.000000
2.761979 -0.996528 0.566390 57.000000
2.757060 -1.004323 0.566033 45.000000
2.751196 -1.011758 0.565497 43.000000
2.750846 -1.021221 0.566033 45.000000
2.746778 -1.029310 0.565854 48.000000
2.745448 -1.038429 0.566211 50.000000
2.741330 -1.046496 0.566033 67.000000
2.737189 -1.054548 0.565854 47.000000
2.732106 -1.062227 0.565497 37.000000
2.730666 -1.071323 0.565854 47.000000
2.729196 -1.080420 0.566211 40.000000
2.726783 -1.089153 0.566390 64.000000
2.725253 -1.098249 0.566747 55.000000
2.723694 -1.107346 0.567104 47.000000
2.723015 -1.116818 0.567640 38.000000
2.719576 -1.125167 0.567640 47.000000
2.721559 -1.135779 0.568712 44.000000
2.718061 -1.144123 0.568712 43.000000
2.722689 -1.155918 0.570320 57.000000
2.716416 -1.163104 0.569784 52.000000
2.711932 -1.171042 0.569605 40.000000
2.705621 -1.178178 0.569069 42.000000
2.702894 -1.186869 0.569248 48.000000
2.695642 -1.193562 0.568533 42.000000
2.693764 -1.202629 0.568891 31.000000
2.683781 -1.208060 0.567640 33.000000
2.680063 -1.216288 0.567640 40.000000
2.676318 -1.224504 0.567640 33.000000
2.668975 -1.231060 0.566926 14.000000
2.690166 -1.250862 0.571927 7.000000
2.953363 -0.410410 0.538370 5.000000
2.967017 -0.440172 0.541375 30.000000
2.948104 -0.446621 0.538370 20.000000
2.949644 -0.456115 0.538871 32.000000
2.940439 -0.463936 0.537536 32.000000
2.932187 -0.471861 0.536367 40.000000
2.927806 -0.480377 0.535866 46.000000
2.926319 -0.489357 0.535866 37.000000
2.921888 -0.497837 0.535365 53.000000
2.919375 -0.506630 0.535199 40.000000
2.918778 -0.515756 0.535365 47.000000
2.920093 -0.525230 0.535866 41.000000
2.920408 -0.534541 0.536200 43.000000
2.924571 -0.544579 0.537202 31.000000
2.920948 -0.553182 0.536868 34.000000
2.922142 -0.562699 0.537369 34.000000
2.913628 -0.570339 0.536200 42.000000
2.906062 -0.578123 0.535199 32.000000
2.899443 -0.586061 0.534364 44.000000
2.891836 -0.593766 0.533362 49.000000
2.891931 -0.603037 0.533696 38.000000
2.892961 -0.612518 0.534197 33.000000
2.886248 -0.620357 0.533362 45.000000
2.888185 -0.630048 0.534030 49.000000
2.892978 -0.640395 0.535199 36.000000
2.889075 -0.648836 0.534865 38.000000
2.888994 -0.658133 0.535199 35.000000
2.886000 -0.666772 0.535032 40.000000
2.883941 -0.675623 0.535032 34.000000
2.880895 -0.684240 0.534865 47.000000
2.883576 -0.694227 0.535699 41.000000
2.876643 -0.701904 0.534865 37.000000
2.876390 -0.711199 0.535199 37.000000
2.868456 -0.718585 0.534197 36.000000
2.862414 -0.726413 0.533529 45.000000
2.862082 -0.735682 0.533863 30.000000
2.855995 -0.743467 0.533195 38.000000
2.851794 -0.751724 0.532861 49.000000
2.850427 -0.760723 0.533028 49.000000
2.842368 -0.767924 0.532027 39.000000
2.841901 -0.777160 0.532361 39.000000
2.839503 -0.785875 0.532361 32.000000
2.834230 -0.793786 0.531860 43.000000
2.835576 -0.803552 0.532528 46.000000
2.831202 -0.811705 0.532194 44.000000
2.830592 -0.820935 0.532528 43.000000
2.832791 -0.831001 0.533362 53.000000
2.830229 -0.839688 0.533362 45.000000
2.829528 -0.848933 0.533696 54.000000
2.825023 -0.857038 0.533362 33.000000
2.822381 -0.865701 0.533362 45.000000
2.824421 -0.875814 0.534197 45.000000
2.818897 -0.883592 0.533696 43.000000
2.815233 -0.891939 0.533529 33.000000
2.804971 -0.898169 0.532194 30.000000
2.799387 -0.905861 0.531693 30.000000
2.801281 -0.915975 0.532528 33.000000
2.793776 -0.923020 0.531693 26.000000
2.791867 -0.931899 0.531860 37.000000
2.790863 -0.941089 0.532194 36.000000
2.788896 -0.949965 0.532361 42.000000
2.786901 -0.958837 0.532528 53.000000
2.786741 -0.968352 0.533028 35.000000
2.782827 -0.976571 0.532861 47.000000
2.779818 -0.985104 0.532861 45.000000
2.777711 -0.993960 0.533028 56.000000
2.773721 -1.002142 0.532861 49.000000
2.767854 -1.009635 0.532361 39.000000
2.761967 -1.017100 0.531860 32.000000
2.758834 -1.025569 0.531860 39.000000
2.755674 -1.034029 0.531860 37.000000
2.754333 -1.043176 0.532194 40.000000
2.746515 -1.049863 0.531359 44.000000
2.743280 -1.058284 0.531359 46.000000
2.740021 -1.066695 0.531359 55.000000
2.736736 -1.075096 0.531359 37.000000
2.738925 -1.085665 0.532361 31.000000
2.734665 -1.093697 0.532194 44.000000
2.736784 -1.104293 0.533195 43.000000
2.737037 -1.114170 0.533863 42.000000
2.735430 -1.123310 0.534197 37.000000
2.731971 -1.131697 0.534197 46.000000
2.729396 -1.140453 0.534364 42.000000
2.728610 -1.149969 0.534865 39.000000
2.726885 -1.159106 0.535199 41.000000
2.720597 -1.166302 0.534698 40.000000
2.717911 -1.175034 0.534865 46.000000
2.712485 -1.182579 0.534531 42.000000
2.699817 -1.186931 0.532861 32.000000
2.694359 -1.194410 0.532528 30.000000
2.687081 -1.201063 0.531860 32.000000
2.682485 -1.208896 0.531693 32.000000
2.678763 -1.217120 0.531693 33.000000
2.687568 -1.231076 0.534030 20.000000
2.954737 -0.400583 0.501168 9.000000
2.975022 -0.412635 0.504576 30.000000
2.981567 -0.422871 0.505815 38.000000
2.980256 -0.432017 0.505815 47.000000
2.978916 -0.441158 0.505815 44.000000
2.968757 -0.448964 0.504421 43.000000
2.969319 -0.458372 0.504731 81.000000
2.964971 -0.467018 0.504266 59.000000
2.956696 -0.475014 0.503182 42.000000
2.946451 -0.482645 0.501788 56.000000
2.940084 -0.490868 0.501013 48.000000
2.933695 -0.499057 0.500239 49.000000
2.926309 -0.507042 0.499310 55.000000
2.921821 -0.515502 0.498845 44.000000
2.920226 -0.524464 0.498845 33.000000
2.921519 -0.533954 0.499310 44.000000
2.928608 -0.544541 0.500704 44.000000
2.929836 -0.554074 0.501168 59.000000
2.931033 -0.563620 0.501633 45.000000
2.932199 -0.573179 0.502098 54.000000
2.929457 -0.581979 0.501943 55.000000
2.928626 -0.591160 0.502098 46.000000
2.924863 -0.599745 0.501788 52.000000
2.916240 -0.607304 0.500704 52.000000
2.916296 -0.616657 0.501013 49.000000
2.912458 -0.625187 0.500704 41.000000
2.907630 -0.633488 0.500239 49.000000
2.907603 -0.642832 0.500549 33.000000
2.895013 -0.649369 0.498845 51.000000
2.895897 -0.658906 0.499310 55.000000
2.890012 -0.666898 0.498690 51.000000
2.886028 -0.675311 0.498380 57.000000
2.880098 -0.683250 0.497761 49.000000
2.879909 -0.692545 0.498071 41.000000
2.879691 -0.701845 0.498380 52.000000
2.877524 -0.710676 0.498380 40.000000
2.875330 -0.719501 0.498380 52.000000
2.875024 -0.728805 0.498690 58.000000
2.872775 -0.737622 0.498690 71.000000
2.868586 -0.745935 0.498380 59.000000
2.865329 -0.754480 0.498226 52.000000
2.859182 -0.762249 0.497606 46.000000
2.856830 -0.771017 0.497606 49.000000
2.854452 -0.779778 0.497606 48.000000
2.852046 -0.788532 0.497606 52.000000
2.852467 -0.798077 0.498071 40.000000
2.854758 -0.808170 0.498845 46.000000
2.854164 -0.817469 0.499155 50.000000
2.854490 -0.827047 0.499619 36.000000
2.857627 -0.837468 0.500549 56.000000
2.850309 -0.844827 0.499774 40.000000
2.844864 -0.852717 0.499310 55.000000
2.838453 -0.860294 0.498690 44.000000
2.827300 -0.866392 0.497296 53.000000
2.823685 -0.874769 0.497141 48.000000
2.817216 -0.882246 0.496522 51.000000
2.808846 -0.889096 0.495592 39.000000
2.809868 -0.898914 0.496212 47.000000
2.806157 -0.907226 0.496057 49.000000
2.806178 -0.916752 0.496522 58.000000
2.804290 -0.925666 0.496677 51.000000
2.800500 -0.933953 0.496522 61.000000
2.805111 -0.945065 0.497761 54.000000
2.808745 -0.955895 0.498845 49.000000
2.805799 -0.964508 0.498845 59.000000
2.804693 -0.973759 0.499155 50.000000
2.801692 -0.982359 0.499155 55.000000
2.803322 -0.992600 0.499929 45.000000
2.796542 -0.999865 0.499310 52.000000
2.790674 -1.007433 0.498845 41.000000
2.784786 -1.014974 0.498380 61.000000
2.783513 -1.024196 0.498690 58.000000
2.780358 -1.032731 0.498690 54.000000
2.778101 -1.041603 0.498845 38.000000
2.769349 -1.048022 0.497916 40.000000
2.764275 -1.055808 0.497606 42.000000
2.763788 -1.065350 0.498071 47.000000
2.759586 -1.073466 0.497916 66.000000
2.759958 -1.083372 0.498535 50.000000
2.757540 -1.092198 0.498690 48.000000
2.754176 -1.100653 0.498690 58.000000
2.754451 -1.110576 0.499310 44.000000
2.751031 -1.119021 0.499310 56.000000
2.743929 -1.125955 0.498690 45.000000
2.743200 -1.135502 0.499155 49.000000
2.736057 -1.142390 0.498535 47.000000
2.735271 -1.151929 0.499000 51.000000
2.730814 -1.159929 0.498845 50.000000
2.729967 -1.169469 0.499310 45.000000
2.726367 -1.177839 0.499310 52.000000
2.723645 -1.186593 0.499465 54.000000
2.713661 -1.192160 0.498380 46.000000
2.712701 -1.201681 0.498845 39.000000
2.702687 -1.207177 0.497761 33.000000
2.705276 -1.218303 0.498845 44.000000
2.695229 -1.223737 0.497761 34.000000
2.684276 -1.228710 0.496522 20.000000
2.672421 -1.233213 0.495128 10.000000
2.929343 -0.406563 0.461128 11.000000
2.964340 -0.420680 0.466418 27.000000
2.988503 -0.433456 0.470135 50.000000
2.984222 -0.442188 0.469706 34.000000
2.978937 -0.450751 0.469134 44.000000
2.986344 -0.461244 0.470421 88.000000
2.968294 -0.467791 0.467990 43.000000
2.963913 -0.476426 0.467562 40.000000
2.953646 -0.484079 0.466275 32.000000
2.952147 -0.493139 0.466275 38.000000
2.950620 -0.502193 0.466275 37.000000
2.943214 -0.510231 0.465417 29.000000
2.942610 -0.519430 0.465560 35.000000
2.942951 -0.528805 0.465846 40.000000
2.940341 -0.537654 0.465703 39.000000
2.939651 -0.546853 0.465846 31.000000
2.937959 -0.555869 0.465846 37.000000
2.939156 -0.565440 0.466275 43.000000
2.940321 -0.575023 0.466704 31.000000
2.941456 -0.584619 0.467133 49.000000
2.942559 -0.594227 0.467562 34.000000
2.937813 -0.602656 0.467133 33.000000
2.931106 -0.610659 0.466418 37.000000
2.933092 -0.620466 0.466990 29.000000
2.928271 -0.628840 0.466561 44.000000
2.925361 -0.637610 0.466418 36.000000
2.916626 -0.645088 0.465417 32.000000
2.914633 -0.654033 0.465417 41.000000
2.914543 -0.663411 0.465703 47.000000
2.913459 -0.672572 0.465846 42.000000
2.907526 -0.680606 0.465274 41.000000
2.900609 -0.688382 0.464559 46.000000
2.897521 -0.697047 0.464416 52.000000
2.895369 -0.705933 0.464416 34.000000
2.889346 -0.713865 0.463844 40.000000
2.887142 -0.722726 0.463844 39.000000
2.880114 -0.730365 0.463129 45.000000
2.877860 -0.739198 0.463129 46.000000
2.876537 -0.748272 0.463272 55.000000
2.879013 -0.758353 0.463987 44.000000
2.876673 -0.767182 0.463987 41.000000
2.872395 -0.775488 0.463701 48.000000
2.869047 -0.784037 0.463558 46.000000
2.869490 -0.793625 0.463987 49.000000
2.866089 -0.802159 0.463844 33.000000
2.862662 -0.810679 0.463701 28.000000
2.857307 -0.818641 0.463272 45.000000
2.855732 -0.827678 0.463415 42.000000
2.851280 -0.835879 0.463129 49.000000
2.849651 -0.844904 0.463272 45.000000
2.842305 -0.852223 0.462557 50.000000
2.836835 -0.860079 0.462129 48.000000
2.831344 -0.867909 0.461700 44.000000
2.829613 -0.876884 0.461843 53.000000
2.827854 -0.885857 0.461986 45.000000
2.825123 -0.894528 0.461986 46.000000
2.820480 -0.902589 0.461700 49.000000
2.819582 -0.911846 0.461986 52.000000
2.812066 -0.918957 0.461271 35.000000
2.811113 -0.928200 0.461557 56.000000
2.808253 -0.936820 0.461557 43.000000
2.807241 -0.946062 0.461843 44.000000
2.809948 -0.956582 0.462700 43.000000
2.805128 -0.964555 0.462414 31.000000
2.808701 -0.975427 0.463415 39.000000
2.807563 -0.984694 0.463701 54.000000
2.802663 -0.992642 0.463415 30.000000
2.798672 -1.000903 0.463272 37.000000
2.793726 -1.008813 0.462986 43.000000
2.791548 -1.017718 0.463129 35.000000
2.788413 -1.026278 0.463129 37.000000
2.783395 -1.034139 0.462843 50.000000
2.780210 -1.042673 0.462843 45.000000
2.775146 -1.050498 0.462557 36.000000
2.774684 -1.060066 0.462986 50.000000
2.773266 -1.069285 0.463272 35.000000
2.770895 -1.078146 0.463415 48.000000
2.771260 -1.088088 0.463987 51.000000
2.766988 -1.096221 0.463844 37.000000
2.763612 -1.104704 0.463844 46.000000
2.762964 -1.114287 0.464273 38.000000
2.753114 -1.120150 0.463272 29.000000
2.755159 -1.130844 0.464130 47.000000
2.751677 -1.139291 0.464130 40.000000
2.745428 -1.146585 0.463701 54.000000
2.750108 -1.158457 0.464988 39.000000
2.741986 -1.164956 0.464273 52.000000
2.742948 -1.175310 0.464988 44.000000
2.739329 -1.183720 0.464988 45.000000
2.731147 -1.190143 0.464273 44.000000
2.727483 -1.198516 0.464273 32.000000
2.731939 -1.210484 0.465560 32.000000
2.727308 -1.218456 0.465417 28.000000
2.727168 -1.228442 0.465989 39.000000
2.720682 -1.235577 0.465560 23.000000
2.724079 -1.247211 0.466704 27.000000
2.717543 -1.254319 0.466275 25.000000
2.719067 -1.265154 0.467133 18.000000
2.990589 -0.433516 0.433535 8.000000
2.992187 -0.443125 0.433928 31.000000
2.990813 -0.452303 0.433928 35.000000
2.988432 -0.461325 0.433797 41.000000
2.985044 -0.470183 0.433535 36.000000
2.983587 -0.479338 0.433535 45.000000
2.976233 -0.487527 0.432748 56.000000
2.974723 -0.496656 0.432748 53.000000
2.973185 -0.505780 0.432748 56.000000
2.969666 -0.514560 0.432486 55.000000
2.965145 -0.523152 0.432093 40.000000
2.965477 -0.532597 0.432355 55.000000
2.963829 -0.541692 0.432355 51.000000
2.958255 -0.550057 0.431831 53.000000
2.951683 -0.558209 0.431176 57.000000
2.953850 -0.568011 0.431700 59.000000
2.949175 -0.576500 0.431307 52.000000
2.949337 -0.585931 0.431569 43.000000
2.947526 -0.594977 0.431569 47.000000
2.942773 -0.603419 0.431176 51.000000
2.944790 -0.613254 0.431700 47.000000
2.943865 -0.622491 0.431831 45.000000
2.938064 -0.630687 0.431307 56.000000
2.939990 -0.640542 0.431831 42.000000
2.933171 -0.648488 0.431176 60.000000
2.929233 -0.657050 0.430914 52.000000
2.949436 -0.671095 0.433928 25.000000
2.921282 -0.674119 0.430390 42.000000
2.920166 -0.683304 0.430521 50.000000
2.917091 -0.692031 0.430390 45.000000
2.909171 -0.699585 0.429603 42.000000
2.907974 -0.708742 0.429734 38.000000
2.905786 -0.717660 0.429734 41.000000
2.902609 -0.726331 0.429603 38.000000
2.901328 -0.735477 0.429734 44.000000
2.895217 -0.743387 0.429210 52.000000
2.892923 -0.752266 0.429210 68.000000
2.893477 -0.761896 0.429603 51.000000
2.891126 -0.770769 0.429603 57.000000
2.889705 -0.779894 0.429734 54.000000
2.892080 -0.790063 0.430390 60.000000
2.889643 -0.798932 0.430390 49.000000
2.886223 -0.807526 0.430259 62.000000
2.879917 -0.815296 0.429734 47.000000
2.873590 -0.823036 0.429210 41.000000
2.868195 -0.831020 0.428817 57.000000
2.859924 -0.838142 0.428031 47.000000
2.854488 -0.846066 0.427638 58.000000
2.852828 -0.855105 0.427769 53.000000
2.853037 -0.864716 0.428162 55.000000
2.852267 -0.874046 0.428424 55.000000
2.850519 -0.883086 0.428555 51.000000
2.847796 -0.891827 0.428555 50.000000
2.845991 -0.900859 0.428686 55.000000
2.841326 -0.908982 0.428424 50.000000
2.834751 -0.916474 0.427900 36.000000
2.832868 -0.925475 0.428031 53.000000
2.831898 -0.934784 0.428293 59.000000
2.829957 -0.943781 0.428424 63.000000
2.829867 -0.953409 0.428817 59.000000
2.826929 -0.962086 0.428817 43.000000
2.826776 -0.971722 0.429210 49.000000
2.823782 -0.980390 0.429210 48.000000
2.821696 -0.989376 0.429341 50.000000
2.815844 -0.997035 0.428948 51.000000
2.809971 -1.004668 0.428555 67.000000
2.806876 -1.013284 0.428555 46.000000
2.800960 -1.020872 0.428162 47.000000
2.799675 -1.030145 0.428424 71.000000
2.793714 -1.037694 0.428031 49.000000
2.790517 -1.046260 0.428031 62.000000
2.785440 -1.054114 0.427769 54.000000
2.779415 -1.061593 0.427376 59.000000
2.780769 -1.071899 0.428031 61.000000
2.777468 -1.080425 0.428031 56.000000
2.775063 -1.089303 0.428162 58.000000
2.779081 -1.100734 0.429210 56.000000
2.772929 -1.108150 0.428817 57.000000
2.772275 -1.117765 0.429210 48.000000
2.771587 -1.127386 0.429603 51.000000
2.762613 -1.133625 0.428817 49.000000
2.761870 -1.143233 0.429210 50.000000
2.757435 -1.151319 0.429079 56.000000
2.754803 -1.160158 0.429210 72.000000
2.753056 -1.169379 0.429472 61.000000
2.758567 -1.181725 0.430783 39.000000
2.757659 -1.191363 0.431176 56.000000
2.753082 -1.199421 0.431045 50.000000
2.753020 -1.209458 0.431569 33.000000
2.751109 -1.218701 0.431831 58.000000
2.741926 -1.224709 0.431045 51.000000
2.747195 -1.237188 0.432355 60.000000
2.721723 -1.235771 0.429210 26.000000
2.723327 -1.246591 0.429997 34.000000
2.723090 -1.256603 0.430521 30.000000
2.730008 -1.269970 0.432093 9.000000
3.036448 -0.439852 0.401775 6.000000
3.001687 -0.444237 0.397732 30.000000
3.006201 -0.454332 0.398445 33.000000
3.004793 -0.463552 0.398445 45.000000
3.001395 -0.472461 0.398207 46.000000
3.007774 -0.482923 0.399159 40.000000
3.000399 -0.491188 0.398445 50.000000
2.993981 -0.499576 0.397851 53.000000
2.993413 -0.508925 0.397969 42.000000
2.984989 -0.516923 0.397137 55.000000
2.984367 -0.526250 0.397256 39.000000
2.981761 -0.535229 0.397137 52.000000
2.976197 -0.543662 0.396661 50.000000
2.970611 -0.552066 0.396186 36.000000
2.970854 -0.561545 0.396423 49.000000
2.968142 -0.570470 0.396305 50.000000
2.963454 -0.579003 0.395948 41.000000
2.959716 -0.587706 0.395710 38.000000
2.953032 -0.595804 0.395115 58.000000
2.951191 -0.604861 0.395115 48.000000
2.948349 -0.613710 0.394996 37.000000
2.943538 -0.622138 0.394640 46.000000
2.937732 -0.630334 0.394164 45.000000
2.936754 -0.639555 0.394283 45.000000
2.933809 -0.648347 0.394164 50.000000
2.931806 -0.657345 0.394164 55.000000
2.923966 -0.665018 0.393450 36.000000
2.924814 -0.674654 0.393807 29.000000
2.921764 -0.683398 0.393688 52.000000
2.921586 -0.692816 0.393926 48.000000
2.919446 -0.701776 0.393926 55.000000
2.920174 -0.711434 0.394283 41.000000
2.916049 -0.719914 0.394045 44.000000
2.913827 -0.728857 0.394045 44.000000
2.910615 -0.737549 0.393926 56.000000
2.907377 -0.746229 0.393807 38.000000
2.903151 -0.754646 0.393569 35.000000
2.901783 -0.763802 0.393688 54.000000
2.898466 -0.772446 0.393569 46.000000
2.898959 -0.782109 0.393926 40.000000
2.897504 -0.791261 0.394045 57.000000
2.894105 -0.799882 0.393926 45.000000
2.894507 -0.809559 0.394283 60.000000
2.892009 -0.818435 0.394283 47.000000
2.886621 -0.826485 0.393926 39.000000
2.884072 -0.835337 0.393926 46.000000
2.875777 -0.842509 0.393213 49.000000
2.870323 -0.850482 0.392856 63.000000
2.866749 -0.859000 0.392737 50.000000
2.859348 -0.866353 0.392142 54.000000
2.857626 -0.875412 0.392261 48.000000
2.855876 -0.884468 0.392380 48.000000
2.851254 -0.892633 0.392142 35.000000
2.852289 -0.902573 0.392618 38.000000
2.849506 -0.911320 0.392618 37.000000
2.847642 -0.920362 0.392737 37.000000
2.842917 -0.928479 0.392499 47.000000
2.838169 -0.936575 0.392261 44.000000
2.837166 -0.945905 0.392499 49.000000
2.838015 -0.955871 0.392975 55.000000
2.836010 -0.964893 0.393094 45.000000
2.833975 -0.973912 0.393213 49.000000
2.830974 -0.982601 0.393213 34.000000
2.829820 -0.991938 0.393450 40.000000
2.827699 -1.000946 0.393569 49.000000
2.821810 -1.008615 0.393213 43.000000
2.815900 -1.016258 0.392856 50.000000
2.809970 -1.023873 0.392499 41.000000
2.808680 -1.033174 0.392737 56.000000
2.803635 -1.041096 0.392499 45.000000
2.798568 -1.048996 0.392261 45.000000
2.793479 -1.056875 0.392023 54.000000
2.791151 -1.065794 0.392142 41.000000
2.787868 -1.074352 0.392142 47.000000
2.787335 -1.083979 0.392499 41.000000
2.787694 -1.093975 0.392975 57.000000
2.782478 -1.101792 0.392737 49.000000
2.785540 -1.112899 0.393569 38.000000
2.785797 -1.122923 0.394045 43.000000
2.782339 -1.131465 0.394045 44.000000
2.779773 -1.140372 0.394164 42.000000
2.774426 -1.148136 0.393926 28.000000
2.763559 -1.153586 0.392975 38.000000
2.763669 -1.163598 0.393450 58.000000
2.760085 -1.172072 0.393450 47.000000
2.758302 -1.181315 0.393688 49.000000
2.756489 -1.190558 0.393926 47.000000
2.755554 -1.200198 0.394283 44.000000
2.751859 -1.208646 0.394283 54.000000
2.746322 -1.216280 0.394045 37.000000
2.739857 -1.223486 0.393688 36.000000
2.734280 -1.231072 0.393450 34.000000
2.795598 -1.268978 0.402013 7.000000
3.022626 -0.447101 0.362642 44.000000
3.019274 -0.456075 0.362428 42.000000
3.017861 -0.465335 0.362428 41.000000
3.016419 -0.474592 0.362428 33.000000
3.020839 -0.484790 0.363069 38.000000
3.019338 -0.494055 0.363069 53.000000
3.016827 -0.503153 0.362962 49.000000
3.011348 -0.511739 0.362535 36.000000
3.007805 -0.520636 0.362321 54.000000
3.001298 -0.528998 0.361787 42.000000
2.994767 -0.537324 0.361253 51.000000
2.984302 -0.544901 0.360292 55.000000
2.980661 -0.553691 0.360079 52.000000
2.977971 -0.562648 0.359972 51.000000
2.979161 -0.572345 0.360292 47.000000
2.975439 -0.581101 0.360079 56.000000
2.972667 -0.590033 0.359972 58.000000
2.967919 -0.598560 0.359652 43.000000
2.966068 -0.607663 0.359652 50.000000
2.960297 -0.615949 0.359224 41.000000
2.959365 -0.625234 0.359331 58.000000
2.955489 -0.633893 0.359118 63.000000
2.954502 -0.643169 0.359224 60.000000
2.953486 -0.652445 0.359331 46.000000
2.954381 -0.662155 0.359652 56.000000
2.951366 -0.670996 0.359545 44.000000
2.945418 -0.679153 0.359118 46.000000
2.938480 -0.687054 0.358584 41.000000
2.934423 -0.695607 0.358370 62.000000
2.929375 -0.703909 0.358050 48.000000
2.928168 -0.713128 0.358157 59.000000
2.924036 -0.721632 0.357943 41.000000
2.919879 -0.730116 0.357729 67.000000
2.920517 -0.739804 0.358050 42.000000
2.921122 -0.749502 0.358370 52.000000
2.915922 -0.757710 0.358050 40.000000
2.915507 -0.767158 0.358263 52.000000
2.911218 -0.775587 0.358050 51.000000
2.904985 -0.783479 0.357623 49.000000
2.904486 -0.792912 0.357836 51.000000
2.900123 -0.801289 0.357623 49.000000
2.898609 -0.810451 0.357729 48.000000
2.898979 -0.820152 0.358050 51.000000
2.895493 -0.828768 0.357943 59.000000
2.891982 -0.837371 0.357836 61.000000
2.885582 -0.845121 0.357409 65.000000
2.882023 -0.853687 0.357302 42.000000
2.878438 -0.862240 0.357195 39.000000
2.871973 -0.869913 0.356768 52.000000
2.866438 -0.877847 0.356448 48.000000
2.867531 -0.887813 0.356875 48.000000
2.864794 -0.896607 0.356875 33.000000
2.862977 -0.905691 0.356982 59.000000
2.861132 -0.914774 0.357089 45.000000
2.856420 -0.922935 0.356875 54.000000
2.853575 -0.931695 0.356875 49.000000
2.852592 -0.941068 0.357089 54.000000
2.848748 -0.949501 0.356982 54.000000
2.849590 -0.959506 0.357409 58.000000
2.848516 -0.968884 0.357623 59.000000
2.847410 -0.978265 0.357836 60.000000
2.846274 -0.987648 0.358050 56.000000
2.845108 -0.997034 0.358263 51.000000
2.842973 -1.006090 0.358370 52.000000
2.838000 -1.014138 0.358157 63.000000
2.836746 -1.023515 0.358370 53.000000
2.836395 -1.033234 0.358690 77.000000
2.833212 -1.041931 0.358690 51.000000
2.830002 -1.050619 0.358690 57.000000
2.823041 -1.057900 0.358263 52.000000
2.819782 -1.066556 0.358263 34.000000
2.815568 -1.074847 0.358157 43.000000
2.807618 -1.081692 0.357623 50.000000
2.808920 -1.092103 0.358157 41.000000
2.800928 -1.098899 0.357623 55.000000
2.793846 -1.106023 0.357195 46.000000
2.795979 -1.116802 0.357836 44.000000
2.791618 -1.125003 0.357729 62.000000
2.792758 -1.135436 0.358263 60.000000
2.786502 -1.142866 0.357943 57.000000
2.781145 -1.150649 0.357729 55.000000
2.780354 -1.160325 0.358050 68.000000
2.779531 -1.170007 0.358370 45.000000
2.775013 -1.178141 0.358263 42.000000
2.774127 -1.187823 0.358584 48.000000
2.768645 -1.195540 0.358370 56.000000
2.772256 -1.207205 0.359224 34.000000
2.769450 -1.216104 0.359331 37.000000
2.762979 -1.223387 0.359011 46.000000
2.764659 -1.234291 0.359652 39.000000
2.762673 -1.243584 0.359865 37.000000
2.757939 -1.251642 0.359758 5.000000
3.024505 -0.438663 0.326258 18.000000
3.020190 -0.447504 0.325973 31.000000
3.020772 -0.457064 0.326163 34.000000
3.014436 -0.465572 0.325689 32.000000
3.015944 -0.475282 0.325973 25.000000
3.009557 -0.483744 0.325499 43.000000
3.000199 -0.491690 0.324739 57.000000
3.001622 -0.501383 0.325024 53.000000
2.996144 -0.509923 0.324644 48.000000
2.991623 -0.518604 0.324359 38.000000
2.988057 -0.527434 0.324169 47.000000
2.988385 -0.536950 0.324359 45.000000
2.983785 -0.545580 0.324074 56.000000
2.984055 -0.555095 0.324264 50.000000
2.985272 -0.564801 0.324549 55.000000
2.982548 -0.573770 0.324454 53.000000
2.975888 -0.581964 0.323979 34.000000
2.974089 -0.591091 0.323979 50.000000
2.970309 -0.599819 0.323789 52.000000
2.966505 -0.608530 0.323599 46.000000
2.959751 -0.616615 0.323124 39.000000
2.954923 -0.625075 0.322839 47.000000
2.952991 -0.634138 0.322839 63.000000
2.950059 -0.642983 0.322744 48.000000
2.951961 -0.652889 0.323124 40.000000
2.949944 -0.661943 0.323124 55.000000
2.952753 -0.672093 0.323599 48.000000
2.950677 -0.681148 0.323599 43.000000
2.947604 -0.689971 0.323504 51.000000
2.941599 -0.698093 0.323124 36.000000
2.938475 -0.706882 0.323029 49.000000
2.929522 -0.714246 0.322364 45.000000
2.922485 -0.722038 0.321889 36.000000
2.918324 -0.730518 0.321700 41.000000
2.917999 -0.739957 0.321889 46.000000
2.918608 -0.749647 0.322174 49.000000
2.923039 -0.760350 0.322839 67.000000
2.919730 -0.769061 0.322744 42.000000
2.920243 -0.778783 0.323029 58.000000
2.913034 -0.786443 0.322554 51.000000
2.908687 -0.794852 0.322364 57.000000
2.904315 -0.803242 0.322174 56.000000
2.902796 -0.812417 0.322269 54.000000
2.904122 -0.822402 0.322649 66.000000
2.904456 -0.832129 0.322934 36.000000
2.899977 -0.840483 0.322744 44.000000
2.903117 -0.851054 0.323314 46.000000
2.899538 -0.859674 0.323219 52.000000
2.892118 -0.867138 0.322744 61.000000
2.883728 -0.874276 0.322174 66.000000
2.877224 -0.881953 0.321794 54.000000
2.877358 -0.891659 0.322079 41.000000
2.875559 -0.900780 0.322174 40.000000
2.869935 -0.908697 0.321889 53.000000
2.865237 -0.916892 0.321700 48.000000
2.866200 -0.926902 0.322079 49.000000
2.864289 -0.936000 0.322174 35.000000
2.862349 -0.945095 0.322269 31.000000
2.858491 -0.953557 0.322174 54.000000
2.858383 -0.963275 0.322459 44.000000
2.860127 -0.973642 0.322934 45.000000
2.853360 -0.981119 0.322554 41.000000
2.850337 -0.989868 0.322554 50.000000
2.848226 -0.998937 0.322649 56.000000
2.846087 -1.008003 0.322744 38.000000
2.842980 -1.016730 0.322744 49.000000
2.842657 -1.026460 0.323029 56.000000
2.839495 -1.035177 0.323029 53.000000
2.837240 -1.044227 0.323124 44.000000
2.834023 -1.052926 0.323124 38.000000
2.829847 -1.061267 0.323029 49.000000
2.825646 -1.069592 0.322934 56.000000
2.821422 -1.077901 0.322839 41.000000
2.818102 -1.086552 0.322839 42.000000
2.814755 -1.095192 0.322839 38.000000
2.810455 -1.103459 0.322744 59.000000
2.806130 -1.111710 0.322649 56.000000
2.802706 -1.120314 0.322649 49.000000
2.800180 -1.129279 0.322744 58.000000
2.799469 -1.138989 0.323029 43.000000
2.794119 -1.146817 0.322839 49.000000
2.792427 -1.156145 0.323029 53.000000
2.787030 -1.163940 0.322839 46.000000
2.785281 -1.173257 0.323029 42.000000
2.785334 -1.183352 0.323409 50.000000
2.786266 -1.193851 0.323884 45.000000
2.779848 -1.201210 0.323599 45.000000
2.777063 -1.210130 0.323694 43.000000
2.773337 -1.218644 0.323694 44.000000
2.775957 -1.229967 0.324359 35.000000
2.774898 -1.239695 0.324644 32.000000
3.029994 -0.438696 0.288195 23.000000
3.021733 -0.446968 0.287618 34.000000
3.019362 -0.456088 0.287535 43.000000
3.017948 -0.465349 0.287535 33.000000
3.015522 -0.474451 0.287453 42.000000
3.021924 -0.484964 0.288112 36.000000
3.020422 -0.494233 0.288112 48.000000
3.016925 -0.503169 0.287947 57.000000
3.014385 -0.512255 0.287865 39.000000
3.015745 -0.522011 0.288112 49.000000
3.012166 -0.530915 0.287947 40.000000
3.009542 -0.539977 0.287865 39.000000
3.003950 -0.548491 0.287535 57.000000
2.995395 -0.556430 0.286958 38.000000
3.000528 -0.566913 0.287535 43.000000
2.989967 -0.574422 0.286793 53.000000
2.983300 -0.582637 0.286381 55.000000
2.983454 -0.592175 0.286546 46.000000
2.980645 -0.601128 0.286463 66.000000
2.981716 -0.610871 0.286711 55.000000
2.975925 -0.619203 0.286381 48.000000
2.974987 -0.628536 0.286463 53.000000
2.973044 -0.637660 0.286463 47.000000
2.969127 -0.646354 0.286298 54.000000
2.963237 -0.654600 0.285968 53.000000
2.952463 -0.661725 0.285226 41.000000
2.956250 -0.672107 0.285721 59.000000
2.954174 -0.681173 0.285721 50.000000
2.948189 -0.689325 0.285391 45.000000
2.953817 -0.700207 0.286051 53.000000
2.950686 -0.709033 0.285968 45.000000
2.945592 -0.717374 0.285721 41.000000
2.943378 -0.726408 0.285721 61.000000
2.943069 -0.735918 0.285886 51.000000
2.938865 -0.744454 0.285721 52.000000
2.940428 -0.754458 0.286051 71.000000
2.941958 -0.764479 0.286381 43.000000
2.937671 -0.772994 0.286216 55.000000
2.938175 -0.782773 0.286463 60.000000
2.938646 -0.792562 0.286711 61.000000
2.929471 -0.799736 0.286133 54.000000
2.922201 -0.807392 0.285721 49.000000
2.919710 -0.816353 0.285721 46.000000
2.915274 -0.824764 0.285556 57.000000
2.910814 -0.833156 0.285391 43.000000
2.909201 -0.842359 0.285474 42.000000
2.906603 -0.851280 0.285474 59.000000
2.904933 -0.860477 0.285556 46.000000
2.904189 -0.869957 0.285721 46.000000
2.899599 -0.878285 0.285556 53.000000
2.893079 -0.886009 0.285226 40.000000
2.894155 -0.896060 0.285556 53.000000
2.893295 -0.905531 0.285721 56.000000
2.885752 -0.912899 0.285309 60.000000
2.882938 -0.921748 0.285309 75.000000
2.879148 -0.930282 0.285226 51.000000
2.875333 -0.938802 0.285144 47.000000
2.873386 -0.947931 0.285226 42.000000
2.867628 -0.955796 0.284979 50.000000
2.867515 -0.965544 0.285226 68.000000
2.867370 -0.975300 0.285474 43.000000
2.861537 -0.983120 0.285226 53.000000
2.858507 -0.991895 0.285226 64.000000
2.855451 -1.000660 0.285226 50.000000
2.854246 -1.010081 0.285391 50.000000
2.851134 -1.018833 0.285391 58.000000
2.846120 -1.026899 0.285226 62.000000
2.843892 -1.035967 0.285309 71.000000
2.840701 -1.044687 0.285309 51.000000
2.839351 -1.054091 0.285474 59.000000
2.835170 -1.062447 0.285391 60.000000
2.832829 -1.071493 0.285474 62.000000
2.828598 -1.079823 0.285391 56.000000
2.828062 -1.089571 0.285639 66.000000
2.828421 -1.099688 0.285968 46.000000
2.829672 -1.110181 0.286381 60.000000
2.829959 -1.120324 0.286711 61.000000
2.827434 -1.129371 0.286793 45.000000
2.822107 -1.137295 0.286628 50.000000
2.816759 -1.145197 0.286463 51.000000
2.810466 -1.152698 0.286216 53.000000
2.801391 -1.159029 0.285721 52.000000
2.796902 -1.167234 0.285639 53.000000
2.794227 -1.176196 0.285721 57.000000
2.793357 -1.185932 0.285968 40.000000
2.795202 -1.196850 0.286463 54.000000
2.792432 -1.205815 0.286546 40.000000
2.789633 -1.214775 0.286628 47.000000
2.792280 -1.226133 0.287205 38.000000
2.785772 -1.233483 0.286958 51.000000
2.805634 -1.252590 0.289102 27.000000
2.786329 -1.254236 0.287700 8.000000
3.042314 -0.442318 0.252736 25.000000
3.033049 -0.450480 0.252171 16.000000
3.046447 -0.462021 0.253230 26.000000
3.043044 -0.471061 0.253089 38.000000
3.039613 -0.480084 0.252948 44.000000
3.039111 -0.489566 0.253019 45.000000
3.037595 -0.498887 0.253019 41.000000
3.030147 -0.507218 0.252595 36.000000
3.025626 -0.516010 0.252383 38.000000
3.019114 -0.524439 0.252030 30.000000
3.020438 -0.534219 0.252242 39.000000
3.020749 -0.543836 0.252383 48.000000
3.018085 -0.552921 0.252312 38.000000
3.010490 -0.561084 0.251889 46.000000
3.014635 -0.571429 0.252312 22.000000
3.001113 -0.578415 0.251465 29.000000
2.994430 -0.586662 0.251112 35.000000
2.990659 -0.595457 0.250970 36.000000
2.990774 -0.605025 0.251112 33.000000
2.985972 -0.613596 0.250900 28.000000
2.988958 -0.623771 0.251253 35.000000
2.991910 -0.633970 0.251606 43.000000
2.989951 -0.643146 0.251606 32.000000
2.983091 -0.651254 0.251253 31.000000
2.983027 -0.660834 0.251394 38.000000
2.980012 -0.669764 0.251324 41.000000
2.978916 -0.679125 0.251394 39.000000
2.976818 -0.688261 0.251394 34.000000
2.968865 -0.696027 0.250970 44.000000
2.966716 -0.705132 0.250970 43.000000
2.966478 -0.714697 0.251112 37.000000
2.956518 -0.721904 0.250547 35.000000
2.951385 -0.730254 0.250335 40.000000
2.946227 -0.738579 0.250123 43.000000
2.941047 -0.746879 0.249911 39.000000
2.947437 -0.758131 0.250547 31.000000
2.947994 -0.767923 0.250758 31.000000
2.942730 -0.776202 0.250547 41.000000
2.947081 -0.787025 0.251041 39.000000
2.946579 -0.796583 0.251182 31.000000
2.943159 -0.805356 0.251112 38.000000
2.943558 -0.815180 0.251324 49.000000
2.936241 -0.822863 0.250970 42.000000
2.930823 -0.831052 0.250758 39.000000
2.930177 -0.840589 0.250900 57.000000
2.919920 -0.847353 0.250335 52.000000
2.914435 -0.855466 0.250123 42.000000
2.911797 -0.864403 0.250123 62.000000
2.904354 -0.871900 0.249770 49.000000
2.903574 -0.881385 0.249911 43.000000
2.899903 -0.889997 0.249840 53.000000
2.896206 -0.898594 0.249770 47.000000
2.894387 -0.907774 0.249840 67.000000
2.896344 -0.918155 0.250193 53.000000
2.894463 -0.927340 0.250264 49.000000
2.892554 -0.936523 0.250335 38.000000
2.885874 -0.944153 0.250052 63.000000
2.878228 -0.951439 0.249699 51.000000
2.871511 -0.959002 0.249417 55.000000
2.869500 -0.968126 0.249487 37.000000
2.866516 -0.976925 0.249487 38.000000
2.866336 -0.986688 0.249699 41.000000
2.865180 -0.996131 0.249840 39.000000
2.860227 -1.004257 0.249699 34.000000
2.863715 -1.015358 0.250193 43.000000
2.864343 -1.025482 0.250476 50.000000
2.860245 -1.033926 0.250405 40.000000
2.857997 -1.043038 0.250476 41.000000
2.851975 -1.050768 0.250264 53.000000
2.846868 -1.058818 0.250123 45.000000
2.845474 -1.068248 0.250264 49.000000
2.840318 -1.076266 0.250123 49.000000
2.839798 -1.086043 0.250335 35.000000
2.834591 -1.094033 0.250193 49.000000
2.833081 -1.103447 0.250335 47.000000
2.833396 -1.113592 0.250617 36.000000
2.829039 -1.121912 0.250547 62.000000
2.825584 -1.130586 0.250547 40.000000
2.820251 -1.138503 0.250405 68.000000
2.813049 -1.145647 0.250123 48.000000
2.812290 -1.155408 0.250335 48.000000
2.807810 -1.163649 0.250264 43.000000
2.808829 -1.174180 0.250617 52.000000
2.804295 -1.182404 0.250547 44.000000
2.803408 -1.192172 0.250758 40.000000
2.802488 -1.201946 0.250970 34.000000
2.802450 -1.212121 0.251253 36.000000
2.800547 -1.221510 0.251394 32.000000
2.798613 -1.230898 0.251535 35.000000
2.791175 -1.237862 0.251253 53.000000
3.040087 -0.584605 0.215389 12.000000
3.038279 -0.593929 0.215389 7.000000
3.016860 -0.599355 0.214227 14.000000
2.992589 -0.613641 0.213007 27.000000
3.004374 -0.625670 0.213821 15.000000
2.997557 -0.633851 0.213530 32.000000
2.999502 -0.643883 0.213762 34.000000
2.987759 -0.650956 0.213182 29.000000
3.012066 -0.665942 0.214750 20.000000
3.006113 -0.674305 0.214518 42.000000
3.006950 -0.684189 0.214692 46.000000
3.016509 -0.696106 0.215389 35.000000
3.034772 -0.710137 0.216609 31.000000
3.012181 -0.714602 0.215389 38.000000
3.024534 -0.727343 0.216260 37.000000
3.035866 -0.739930 0.217073 37.000000
3.002569 -0.741577 0.215215 38.000000
3.016743 -0.754907 0.216202 43.000000
3.030863 -0.768331 0.217190 33.000000
3.003352 -0.771168 0.215679 37.000000
3.032855 -0.788673 0.217596 35.000000
3.011113 -0.792888 0.216434 39.000000
2.977800 -0.793888 0.214576 52.000000
2.981133 -0.804582 0.214924 46.000000
3.003688 -0.820567 0.216434 45.000000
2.992497 -0.827383 0.215912 40.000000
2.998597 -0.838982 0.216434 37.000000
2.965272 -0.839472 0.214576 55.000000
3.019304 -0.864791 0.218003 30.000000
2.987871 -0.865711 0.216260 44.000000
2.975622 -0.872065 0.215679 45.000000
2.965276 -0.878919 0.215215 43.000000
2.965434 -0.888873 0.215389 42.000000
2.955050 -0.895649 0.214924 46.000000
2.942743 -0.901785 0.214343 46.000000
2.937102 -0.909922 0.214169 46.000000
2.931439 -0.918033 0.213995 45.000000
2.923850 -0.925515 0.213704 38.000000
2.917193 -0.933264 0.213472 52.000000
2.909567 -0.940673 0.213182 56.000000
2.904770 -0.948975 0.213065 47.000000
2.901845 -0.957882 0.213065 43.000000
2.896051 -0.965833 0.212891 59.000000
2.891183 -0.974075 0.212775 45.000000
2.887235 -0.982619 0.212717 53.000000
2.886096 -0.992122 0.212833 36.000000
2.885867 -1.001954 0.213007 35.000000
2.878069 -1.009151 0.212717 39.000000
2.874019 -1.017642 0.212659 51.000000
2.874643 -1.027800 0.212891 47.000000
2.872415 -1.036953 0.212949 42.000000
2.869220 -1.045761 0.212949 48.000000
2.868809 -1.055593 0.213124 40.000000
2.866493 -1.064738 0.213182 52.000000
2.866952 -1.074929 0.213414 37.000000
2.866441 -1.084780 0.213588 43.000000
2.864033 -1.093925 0.213646 52.000000
2.857869 -1.101629 0.213472 50.000000
2.855406 -1.110754 0.213530 55.000000
2.848268 -1.118050 0.213298 33.000000
2.845752 -1.127151 0.213356 42.000000
2.839500 -1.134764 0.213182 42.000000
2.835079 -1.143097 0.213124 54.000000
2.832484 -1.152166 0.213182 45.000000
2.829859 -1.161229 0.213240 50.000000
2.830895 -1.171815 0.213530 32.000000
2.824523 -1.179340 0.213356 45.000000
2.822731 -1.188776 0.213472 40.000000
2.817233 -1.196649 0.213356 54.000000
2.814466 -1.205680 0.213414 37.000000
2.815336 -1.216289 0.213704 29.000000
2.810676 -1.224522 0.213646 35.000000
2.807820 -1.233541 0.213704 41.000000
2.810411 -1.244981 0.214111 24.000000
3.404810 -0.798679 0.197317 21.000000
3.388737 -0.805890 0.196670 24.000000
3.384306 -0.815815 0.196577 26.000000
3.374024 -0.824300 0.196207 25.000000
3.355963 -0.830812 0.195468 19.000000
3.346615 -0.839405 0.195144 28.000000
3.329501 -0.845983 0.194450 25.000000
3.315279 -0.853210 0.193896 34.000000
3.306846 -0.861868 0.193618 43.000000
3.297425 -0.870227 0.193295 42.000000
3.287983 -0.878537 0.192971 29.000000
3.281415 -0.887578 0.192786 35.000000
3.240134 -0.887103 0.190937 13.000000
3.257615 -0.902634 0.191908 19.000000
3.263488 -0.915048 0.192324 29.000000
3.290459 -0.933497 0.193757 54.000000
3.286619 -0.943313 0.193711 60.000000
3.259725 -0.946436 0.192555 36.000000
3.252013 -0.955027 0.192324 35.000000
3.259602 -0.968125 0.192832 87.000000
3.213560 -0.965204 0.190752 23.000000
3.173303 -0.963751 0.188949 17.000000
3.200892 -0.982854 0.190428 45.000000
3.194045 -0.991486 0.190243 27.000000
3.220538 -1.010542 0.191676 50.000000
3.212661 -1.018909 0.191445 46.000000
3.207617 -1.028152 0.191353 29.000000
3.236763 -1.048443 0.192925 35.000000
3.248722 -1.063334 0.193664 44.000000
3.242599 -1.072356 0.193526 35.000000
3.258245 -1.088624 0.194450 36.000000
3.269088 -1.103402 0.195144 43.000000
3.251504 -1.108596 0.194450 34.000000
3.245254 -1.117591 0.194312 34.000000
3.227656 -1.122625 0.193618 18.000000
3.335422 -1.171548 0.199074 86.000000
3.314864 -1.175770 0.198242 8.000000
2.848866 -1.060123 0.176142 6.000000
2.845600 -1.068859 0.176142 11.000000
2.850715 -1.080767 0.176558 9.000000
2.831523 -1.083446 0.175772 8.000000
2.864534 -1.106148 0.177575 21.000000
2.863920 -1.116018 0.177714 14.000000
2.857693 -1.123703 0.177575 27.000000
2.860733 -1.135042 0.177898 21.000000
2.847962 -1.140104 0.177436 32.000000
2.839819 -1.146967 0.177205 31.000000
2.839062 -1.156804 0.177344 55.000000
2.834576 -1.165129 0.177297 44.000000
2.835602 -1.175731 0.177529 27.000000
2.835669 -1.185966 0.177714 37.000000
2.826494 -1.192332 0.177436 33.000000
2.825581 -1.202170 0.177575 37.000000
2.817288 -1.208866 0.177344 44.000000
2.807148 -1.214729 0.177020 26.000000
2.803408 -1.223335 0.177020 27.000000
2.803299 -1.233538 0.177205 42.000000
2.799502 -1.242133 0.177205 14.000000
3.411681 -0.799008 0.154333 14.000000
3.416992 -0.811319 0.154604 21.000000
3.407685 -0.820161 0.154367 23.000000
3.386706 -0.826109 0.153724 22.000000
3.371542 -0.833377 0.153284 29.000000
3.354428 -0.840073 0.152776 34.000000
3.339242 -0.847164 0.152336 27.000000
3.326947 -0.854916 0.151997 30.000000
