ply
format ascii 1.0
element vertex 1247
property float x
property float y
property float z
property float intensity
end_header
3.024261 -0.836365 0.334047 34.000000
3.006341 -0.841353 0.332527 38.000000
2.993208 -0.847593 0.331482 39.000000
3.004950 -0.860879 0.332907 37.000000
2.987951 -0.865943 0.331482 30.000000
2.979548 -0.873428 0.330912 38.000000
2.987354 -0.885673 0.331957 29.000000
2.977947 -0.892835 0.331292 29.000000
2.974241 -0.901679 0.331197 36.000000
3.054275 -0.936149 0.339460 20.000000
2.977212 -0.922560 0.332052 41.000000
3.025671 -0.947739 0.337181 25.000000
3.028445 -0.958818 0.337751 25.000000
3.019799 -0.966286 0.337181 27.000000
3.079342 -0.995739 0.343449 18.000000
3.053560 -0.997769 0.341170 19.000000
3.005105 -0.992168 0.336611 24.000000
3.126714 -1.042917 0.349148 28.000000
2.987639 -1.006778 0.335471 15.000000
2.951549 -1.004724 0.332147 15.000000
2.932447 -1.008278 0.330532 21.000000
2.904886 -1.008788 0.328063 14.000000
2.927145 -1.026581 0.330627 15.000000
2.933366 -1.038877 0.331577 20.000000
2.956419 -1.077752 0.334901 6.000000
2.943218 -1.093447 0.334236 8.000000
3.084924 -0.475685 0.293142 32.000000
3.079512 -0.484527 0.292813 43.000000
3.077027 -0.493814 0.292730 31.000000
3.073530 -0.502930 0.292565 31.000000
3.067058 -0.511537 0.292153 38.000000
3.062527 -0.520443 0.291905 42.000000
3.056006 -0.528985 0.291493 39.000000
3.050443 -0.537666 0.291163 38.000000
3.050740 -0.547374 0.291328 49.000000
3.051988 -0.557269 0.291576 40.000000
3.050264 -0.566630 0.291576 43.000000
3.052428 -0.576726 0.291905 40.000000
3.054559 -0.586840 0.292235 34.000000
3.055679 -0.596782 0.292483 54.000000
3.055789 -0.606542 0.292648 52.000000
3.051959 -0.615520 0.292483 39.000000
3.049080 -0.624680 0.292400 31.000000
3.050077 -0.634641 0.292648 52.000000
3.047140 -0.643790 0.292565 50.000000
3.042227 -0.652508 0.292318 40.000000
3.035342 -0.660778 0.291905 42.000000
3.030381 -0.669442 0.291658 43.000000
3.030258 -0.679172 0.291823 51.000000
3.022330 -0.687139 0.291328 59.000000
3.021179 -0.696632 0.291411 46.000000
3.019998 -0.706124 0.291493 43.000000
3.018787 -0.715616 0.291576 46.000000
3.014639 -0.724409 0.291411 37.000000
3.014339 -0.734126 0.291576 42.000000
3.012073 -0.743370 0.291576 40.000000
3.007844 -0.752124 0.291411 46.000000
3.009387 -0.762328 0.291741 39.000000
3.005103 -0.771061 0.291576 51.000000
3.006582 -0.781280 0.291905 42.000000
3.006098 -0.791008 0.292070 44.000000
2.996916 -0.798430 0.291493 38.000000
2.993490 -0.807361 0.291411 46.000000
2.992922 -0.817066 0.291576 43.000000
2.989441 -0.825979 0.291493 45.000000
2.991691 -0.836489 0.291905 35.000000
2.988152 -0.845392 0.291823 34.000000
2.985544 -0.854556 0.291823 37.000000
2.990566 -0.865930 0.292483 48.000000
2.988852 -0.875381 0.292565 32.000000
2.983286 -0.883697 0.292318 40.000000
2.983424 -0.893703 0.292565 37.000000
2.972085 -0.900251 0.291823 34.000000
2.970262 -0.909657 0.291905 37.000000
2.969361 -0.919355 0.292070 39.000000
2.965575 -0.928163 0.291988 42.000000
2.961764 -0.936956 0.291905 35.000000
2.959824 -0.946342 0.291988 49.000000
2.953114 -0.954192 0.291658 48.000000
2.954909 -0.964795 0.292070 42.000000
2.946257 -0.971981 0.291576 24.000000
2.949879 -0.983223 0.292153 35.000000
2.946849 -0.992268 0.292153 35.000000
2.949451 -1.003230 0.292648 40.000000
2.941648 -1.010655 0.292235 41.000000
2.935709 -1.018695 0.291988 30.000000
2.934451 -1.028356 0.292153 33.000000
2.933161 -1.038019 0.292318 43.000000
2.931839 -1.047684 0.292483 42.000000
2.929549 -1.057012 0.292565 44.000000
2.927228 -1.066336 0.292648 38.000000
2.928619 -1.077032 0.293060 37.000000
2.928104 -1.087053 0.293307 37.000000
2.928488 -1.097430 0.293637 42.000000
2.925107 -1.106410 0.293637 39.000000
2.920768 -1.115023 0.293555 32.000000
2.922913 -1.126129 0.294049 46.000000
2.915729 -1.133646 0.293720 30.000000
2.916876 -1.144406 0.294132 39.000000
2.909645 -1.151882 0.293802 44.000000
2.905172 -1.160433 0.293720 45.000000
2.902522 -1.169714 0.293802 35.000000
2.901690 -1.179739 0.294049 40.000000
2.897134 -1.188258 0.293967 35.000000
2.897159 -1.198665 0.294297 35.000000
2.897146 -1.209083 0.294627 45.000000
2.895260 -1.218740 0.294792 35.000000
2.897011 -1.229954 0.295286 29.000000
2.893224 -1.238836 0.295286 39.000000
2.889410 -1.247706 0.295286 42.000000
2.885568 -1.256565 0.295286 37.000000
2.882612 -1.265813 0.295369 37.000000
2.875070 -1.273036 0.295039 43.000000
2.873881 -1.283070 0.295286 51.000000
2.863570 -1.289017 0.294709 7.000000
3.081491 -0.476998 0.255844 23.000000
3.064247 -0.483966 0.254714 37.000000
3.053884 -0.491940 0.254078 31.000000
3.052361 -0.501307 0.254078 43.000000
3.054744 -0.511326 0.254360 39.000000
3.049227 -0.520026 0.254078 37.000000
3.047617 -0.529379 0.254078 59.000000
3.044997 -0.538553 0.254007 52.000000
3.041367 -0.547539 0.253866 42.000000
3.048503 -0.558482 0.254502 38.000000
3.049718 -0.568379 0.254714 43.000000
3.047960 -0.577733 0.254714 49.000000
3.044214 -0.586704 0.254572 36.000000
3.041420 -0.595850 0.254502 48.000000
3.038600 -0.604984 0.254431 47.000000
3.037707 -0.614500 0.254502 37.000000
3.030922 -0.622815 0.254149 55.000000
3.027044 -0.631704 0.254007 41.000000
3.023139 -0.640575 0.253866 51.000000
3.019210 -0.649428 0.253725 56.000000
3.016228 -0.658475 0.253654 59.000000
3.014194 -0.667726 0.253654 44.000000
3.010185 -0.676534 0.253513 63.000000
3.011013 -0.686430 0.253725 55.000000
3.011808 -0.696337 0.253937 55.000000
3.013543 -0.706483 0.254219 70.000000
3.012332 -0.715955 0.254290 53.000000
3.007212 -0.724494 0.254078 59.000000
3.004005 -0.733480 0.254007 38.000000
3.002710 -0.742932 0.254078 38.000000
2.998481 -0.751657 0.253937 38.000000
2.998095 -0.761342 0.254078 56.000000
2.990914 -0.769296 0.253725 54.000000
2.990470 -0.778971 0.253866 46.000000
2.989996 -0.788650 0.254007 40.000000
2.978888 -0.795506 0.253372 29.000000
2.976433 -0.804642 0.253372 51.000000
2.974913 -0.814032 0.253442 43.000000
2.971440 -0.822890 0.253372 55.000000
2.972744 -0.833077 0.253654 43.000000
2.969214 -0.841922 0.253584 54.000000
2.966617 -0.851027 0.253584 52.000000
2.964951 -0.860402 0.253654 69.000000
2.964211 -0.870056 0.253795 43.000000
2.964397 -0.879996 0.254007 53.000000
2.958817 -0.888228 0.253795 51.000000
2.956078 -0.897301 0.253795 38.000000
2.959033 -0.908119 0.254219 45.000000
2.957186 -0.917489 0.254290 49.000000
2.959117 -0.928048 0.254643 48.000000
2.957207 -0.937423 0.254714 44.000000
2.948617 -0.944667 0.254290 47.000000
2.946654 -0.954016 0.254360 36.000000
2.948454 -0.964601 0.254714 41.000000
2.939797 -0.971765 0.254290 38.000000
2.939641 -0.981727 0.254502 57.000000
2.936615 -0.990741 0.254502 30.000000
2.935450 -1.000388 0.254643 48.000000
2.932367 -1.009390 0.254643 44.000000
2.929257 -1.018381 0.254643 41.000000
2.926119 -1.027363 0.254643 40.000000
2.925774 -1.037335 0.254855 41.000000
2.922577 -1.046306 0.254855 48.000000
2.922168 -1.056283 0.255067 55.000000
2.917977 -1.064902 0.254996 52.000000
2.919377 -1.075572 0.255349 39.000000
2.920738 -1.086260 0.255702 48.000000
2.922996 -1.097317 0.256126 35.000000
2.917750 -1.105573 0.255985 37.000000
2.920867 -1.117011 0.256479 31.000000
2.916496 -1.125608 0.256409 38.000000
2.909310 -1.133104 0.256126 41.000000
2.909534 -1.143482 0.256409 37.000000
2.901375 -1.150566 0.256056 41.000000
2.893201 -1.157611 0.255702 40.000000
2.895186 -1.168720 0.256126 42.000000
2.892511 -1.177973 0.256197 44.000000
2.891652 -1.187978 0.256409 53.000000
2.890759 -1.197988 0.256621 41.000000
2.887069 -1.206851 0.256621 43.000000
2.884273 -1.216090 0.256691 47.000000
2.884200 -1.226493 0.256974 31.000000
2.875840 -1.233372 0.256621 31.000000
2.872042 -1.242189 0.256621 30.000000
2.868218 -1.250995 0.256621 39.000000
2.858887 -1.257381 0.256197 25.000000
2.858664 -1.267762 0.256479 33.000000
2.839278 -1.269610 0.255279 24.000000
3.088617 -0.467107 0.217015 11.000000
3.059544 -0.472312 0.215389 39.000000
3.059067 -0.481852 0.215447 34.000000
3.062503 -0.492027 0.215737 59.000000
3.056053 -0.500613 0.215447 45.000000
3.056472 -0.510315 0.215563 41.000000
3.055876 -0.519858 0.215621 52.000000
3.048365 -0.528207 0.215273 46.000000
3.044764 -0.537210 0.215157 45.000000
3.044084 -0.546725 0.215215 39.000000
3.039446 -0.555523 0.215040 48.000000
3.039691 -0.565210 0.215157 50.000000
3.035981 -0.574162 0.215040 43.000000
3.027343 -0.582153 0.214634 53.000000
3.022603 -0.590863 0.214460 49.000000
3.018818 -0.599744 0.214343 51.000000
3.013049 -0.608212 0.214111 45.000000
3.008236 -0.616851 0.213937 50.000000
3.008283 -0.626485 0.214053 51.000000
3.008301 -0.636125 0.214169 48.000000
3.013167 -0.646818 0.214576 50.000000
3.018972 -0.657761 0.215040 37.000000
3.020839 -0.667882 0.215273 56.000000
3.020724 -0.677584 0.215389 42.000000
3.018631 -0.686849 0.215389 58.000000
3.013591 -0.695433 0.215215 49.000000
3.012415 -0.704902 0.215273 39.000000
3.008296 -0.713680 0.215157 44.000000
3.007063 -0.723139 0.215215 49.000000
2.999011 -0.730942 0.214866 53.000000
2.994816 -0.739661 0.214750 54.000000
2.997375 -0.750058 0.215040 50.000000
2.997962 -0.759986 0.215215 43.000000
2.989815 -0.767690 0.214866 40.000000
2.989378 -0.777362 0.214982 46.000000
2.984083 -0.785766 0.214808 61.000000
2.978764 -0.794146 0.214634 36.000000
2.977278 -0.803541 0.214692 54.000000
2.971910 -0.811882 0.214518 60.000000
2.965556 -0.819931 0.214285 54.000000
2.968795 -0.830640 0.214634 53.000000
2.969114 -0.840560 0.214808 36.000000
2.965562 -0.849390 0.214750 52.000000
2.964859 -0.859041 0.214866 53.000000
2.962210 -0.868133 0.214866 50.000000
2.960490 -0.877500 0.214924 52.000000
2.959696 -0.887152 0.215040 49.000000
2.954094 -0.895359 0.214866 50.000000
2.951334 -0.904418 0.214866 45.000000
2.952359 -0.914651 0.215098 50.000000
2.953350 -0.924898 0.215331 51.000000
2.949547 -0.933653 0.215273 49.000000
2.945717 -0.942393 0.215215 54.000000
2.945662 -0.952348 0.215389 51.000000
2.945573 -0.962311 0.215563 44.000000
2.942607 -0.971343 0.215563 46.000000
2.937719 -0.979735 0.215447 50.000000
2.933753 -0.988424 0.215389 45.000000
2.931652 -0.997742 0.215447 59.000000
2.931410 -1.007705 0.215621 45.000000
2.929247 -1.017021 0.215679 54.000000
2.927997 -1.026664 0.215796 51.000000
2.929539 -1.037309 0.216086 55.000000
2.930103 -1.047637 0.216318 52.000000
2.924997 -1.055943 0.216202 52.000000
2.921743 -1.064912 0.216202 53.000000
2.917526 -1.073526 0.216144 48.000000
2.915154 -1.082819 0.216202 55.000000
2.910884 -1.091407 0.216144 46.000000
2.908455 -1.100686 0.216202 39.000000
2.905997 -1.109960 0.216260 41.000000
2.904441 -1.119589 0.216376 44.000000
2.902853 -1.129218 0.216493 44.000000
2.898446 -1.137754 0.216434 62.000000
2.893086 -1.145905 0.216318 50.000000
2.888630 -1.154405 0.216260 56.000000
2.882297 -1.162142 0.216086 41.000000
2.880567 -1.171732 0.216202 56.000000
2.878806 -1.181322 0.216318 63.000000
2.877013 -1.190912 0.216434 28.000000
2.877030 -1.201272 0.216667 37.000000
2.876091 -1.211256 0.216841 54.000000
2.876037 -1.221636 0.217073 56.000000
2.874111 -1.231240 0.217190 43.000000
2.871236 -1.240448 0.217248 42.000000
2.868332 -1.249650 0.217306 48.000000
2.861743 -1.257239 0.217131 36.000000
2.860610 -1.267226 0.217306 28.000000
2.856709 -1.275996 0.217306 37.000000
2.862793 -1.289265 0.217945 6.000000
3.059594 -0.464554 0.178684 16.000000
3.052232 -0.473023 0.178407 29.000000
3.047806 -0.481918 0.178268 35.000000
3.043354 -0.490790 0.178130 22.000000
3.054649 -0.502226 0.178731 36.000000
3.046197 -0.510443 0.178407 48.000000
3.041663 -0.519282 0.178268 57.000000
3.035134 -0.527758 0.178037 34.000000
3.031533 -0.536720 0.177945 49.000000
3.032821 -0.546548 0.178083 39.000000
3.029166 -0.555490 0.177991 40.000000
3.021554 -0.563684 0.177714 47.000000
3.021774 -0.573323 0.177806 39.000000
3.018039 -0.582214 0.177714 36.000000
3.017219 -0.591662 0.177760 51.000000
3.014410 -0.600721 0.177714 47.000000
3.009615 -0.609373 0.177575 42.000000
3.006753 -0.618402 0.177529 56.000000
3.016576 -0.630070 0.178083 33.000000
3.008765 -0.638081 0.177806 45.000000
3.009724 -0.647938 0.177945 53.000000
3.014554 -0.658659 0.178268 44.000000
3.006667 -0.666609 0.177991 62.000000
3.006557 -0.676268 0.178083 58.000000
3.004468 -0.685489 0.178083 67.000000
3.000404 -0.694254 0.177991 51.000000
2.996315 -0.703000 0.177898 46.000000
2.997060 -0.712881 0.178037 48.000000
2.993887 -0.721839 0.177991 37.000000
2.988747 -0.730311 0.177852 49.000000
2.991341 -0.740675 0.178083 49.000000
2.989055 -0.749849 0.178083 45.000000
2.984804 -0.758524 0.177991 44.000000
2.982462 -0.767678 0.177991 49.000000
2.975260 -0.775567 0.177760 55.000000
2.971900 -0.784436 0.177714 36.000000
2.972375 -0.794323 0.177852 57.000000
2.964138 -0.801875 0.177575 61.000000
2.964555 -0.811756 0.177714 30.000000
2.961087 -0.820581 0.177667 42.000000
2.959518 -0.829930 0.177714 48.000000
2.951191 -0.837372 0.177436 35.000000
2.951489 -0.847248 0.177575 55.000000
2.949836 -0.856578 0.177621 43.000000
2.946235 -0.865342 0.177575 49.000000
2.939735 -0.873241 0.177390 56.000000
2.937999 -0.882543 0.177436 55.000000
2.936234 -0.891842 0.177482 48.000000
2.938259 -0.902311 0.177714 43.000000
2.938339 -0.912208 0.177852 51.000000
2.937433 -0.921816 0.177945 38.000000
2.934592 -0.930824 0.177945 46.000000
2.934576 -0.940736 0.178083 42.000000
2.927875 -0.948505 0.177898 45.000000
2.926850 -0.958104 0.177991 48.000000
2.921999 -0.966452 0.177898 61.000000
2.916178 -0.974464 0.177760 48.000000
2.916014 -0.984363 0.177898 42.000000
2.917709 -0.994915 0.178130 47.000000
2.919365 -1.005486 0.178361 41.000000
2.920041 -1.015750 0.178546 47.000000
2.918797 -1.025365 0.178638 39.000000
2.918462 -1.035316 0.178777 44.000000
2.917153 -1.044937 0.178869 57.000000
2.913933 -1.053882 0.178869 63.000000
2.910686 -1.062817 0.178869 59.000000
2.906475 -1.071397 0.178823 54.000000
2.905983 -1.081353 0.178962 59.000000
2.901716 -1.089912 0.178916 37.000000
2.896491 -1.098102 0.178823 60.000000
2.893108 -1.106983 0.178823 59.000000
2.886902 -1.114775 0.178684 49.000000
2.879745 -1.122178 0.178499 30.000000
2.879078 -1.132103 0.178638 48.000000
2.873734 -1.140194 0.178546 50.000000
2.871150 -1.149376 0.178592 45.000000
2.866684 -1.157806 0.178546 39.000000
2.871445 -1.169984 0.178962 45.000000
2.871538 -1.180306 0.179147 39.000000
2.872518 -1.191022 0.179378 44.000000
2.874381 -1.202139 0.179655 46.000000
2.872520 -1.211728 0.179748 42.000000
2.869709 -1.220926 0.179794 43.000000
2.868704 -1.230905 0.179933 44.000000
2.862163 -1.238511 0.179794 41.000000
2.854687 -1.245689 0.179609 45.000000
2.849023 -1.253638 0.179517 37.000000
2.843337 -1.261563 0.179424 38.000000
2.854957 -1.277209 0.180210 22.000000
2.831606 -1.287679 0.179424 8.000000
3.051455 -0.462024 0.140183 26.000000
3.045084 -0.470619 0.140013 28.000000
3.040665 -0.479492 0.139912 38.000000
3.042140 -0.489295 0.140013 38.000000
3.042597 -0.498949 0.140081 42.000000
3.044994 -0.508941 0.140217 40.000000
3.047360 -0.518952 0.140352 35.000000
3.034921 -0.526419 0.139980 47.000000
3.033292 -0.535727 0.139980 46.000000
3.035569 -0.545739 0.140115 38.000000
3.030931 -0.554509 0.140013 54.000000
3.023320 -0.562707 0.139810 45.000000
3.023544 -0.572352 0.139878 52.000000
3.017848 -0.580869 0.139743 59.000000
3.018013 -0.590509 0.139810 47.000000
3.019128 -0.600351 0.139912 54.000000
3.015313 -0.609214 0.139844 43.000000
3.011472 -0.618060 0.139776 59.000000
3.010540 -0.627500 0.139810 51.000000
3.009578 -0.636941 0.139844 63.000000
3.011518 -0.647011 0.139980 40.000000
3.007566 -0.655821 0.139912 51.000000
3.005540 -0.665045 0.139912 55.000000
3.003485 -0.674263 0.139912 40.000000
2.999454 -0.683030 0.139844 63.000000
2.996370 -0.692004 0.139810 36.000000
2.992287 -0.700738 0.139743 43.000000
2.990123 -0.709915 0.139743 61.000000
2.987931 -0.719085 0.139743 52.000000
2.981827 -0.727301 0.139607 62.000000
2.982492 -0.737165 0.139709 52.000000
2.979247 -0.746069 0.139675 53.000000
2.975976 -0.754960 0.139641 55.000000
2.971710 -0.763589 0.139573 56.000000
2.968386 -0.772450 0.139540 64.000000
2.969867 -0.782573 0.139675 46.000000
2.968418 -0.791938 0.139709 54.000000
2.965010 -0.800781 0.139675 61.000000
2.964467 -0.810401 0.139743 51.000000
2.962930 -0.819758 0.139776 55.000000
2.964251 -0.829923 0.139912 50.000000
2.956883 -0.837651 0.139743 47.000000
2.952378 -0.846167 0.139675 44.000000
2.951688 -0.855778 0.139743 45.000000
2.944253 -0.863423 0.139573 55.000000
2.940632 -0.872167 0.139540 50.000000
2.939857 -0.881759 0.139607 43.000000
2.938094 -0.891065 0.139641 39.000000
2.940125 -0.901540 0.139810 45.000000
2.936390 -0.910260 0.139776 54.000000
2.932630 -0.918965 0.139743 57.000000
2.929797 -0.927958 0.139743 47.000000
2.925984 -0.936638 0.139709 52.000000
2.921195 -0.944995 0.139641 59.000000
2.921132 -0.954884 0.139743 45.000000
2.920086 -0.964469 0.139810 56.000000
2.917114 -0.973423 0.139810 64.000000
2.916955 -0.983326 0.139912 49.000000
2.914870 -0.992593 0.139946 54.000000
2.913702 -1.002181 0.140013 61.000000
2.907781 -1.010131 0.139912 56.000000
2.906554 -1.019709 0.139980 40.000000
2.901528 -1.027954 0.139912 45.000000
2.902125 -1.038198 0.140047 46.000000
2.897986 -1.046757 0.140013 46.000000
2.897578 -1.056671 0.140115 50.000000
2.894322 -1.065555 0.140115 60.000000
2.893850 -1.075475 0.140217 48.000000
2.890537 -1.084348 0.140217 48.000000
2.887197 -1.093211 0.140217 48.000000
2.883829 -1.102063 0.140217 58.000000
2.886029 -1.113064 0.140420 43.000000
2.883532 -1.122276 0.140454 60.000000
2.880075 -1.131117 0.140454 63.000000
2.875662 -1.139579 0.140420 49.000000
2.874936 -1.149510 0.140521 53.000000
2.876030 -1.160195 0.140691 41.000000
2.873383 -1.169390 0.140724 48.000000
2.875329 -1.180478 0.140927 36.000000
2.873540 -1.190059 0.140995 55.000000
2.875409 -1.201181 0.141198 37.000000
2.869868 -1.209221 0.141131 39.000000
2.867984 -1.218802 0.141198 45.000000
2.859638 -1.225626 0.141029 43.000000
2.856782 -1.234790 0.141063 47.000000
2.854813 -1.244347 0.141131 41.000000
2.851897 -1.253502 0.141164 30.000000
2.854433 -1.265081 0.141401 22.000000
2.844151 -1.270977 0.141164 35.000000
2.814727 -1.268198 0.140217 10.000000
3.061821 -0.425438 0.102750 14.000000
3.056541 -0.434269 0.102663 10.000000
3.055195 -0.443644 0.102663 12.000000
3.073599 -0.455942 0.103096 8.000000
3.056369 -0.462979 0.102750 24.000000
3.049006 -0.471440 0.102620 41.000000
3.043595 -0.480170 0.102534 37.000000
3.042107 -0.489505 0.102534 37.000000
3.040591 -0.498836 0.102534 38.000000
3.040033 -0.508327 0.102555 40.000000
3.039444 -0.517819 0.102577 34.000000
3.028975 -0.525606 0.102382 41.000000
3.020457 -0.533681 0.102231 37.000000
3.021758 -0.543475 0.102296 30.000000
3.014175 -0.551666 0.102166 61.000000
3.012468 -0.560910 0.102166 53.000000
3.008768 -0.569779 0.102122 49.000000
3.004061 -0.578441 0.102058 43.000000
3.005215 -0.588229 0.102122 46.000000
3.004377 -0.597641 0.102144 58.000000
3.007430 -0.607844 0.102252 50.000000
3.009469 -0.617871 0.102339 55.000000
3.007559 -0.627101 0.102339 45.000000
3.007577 -0.636738 0.102382 47.000000
3.003655 -0.645543 0.102339 50.000000
3.002637 -0.654967 0.102361 46.000000
3.001590 -0.664392 0.102382 55.000000
2.991732 -0.671848 0.102209 44.000000
2.992582 -0.681689 0.102274 42.000000
2.990476 -0.690866 0.102274 52.000000
2.984448 -0.699127 0.102187 37.000000
2.987154 -0.709433 0.102296 54.000000
2.980103 -0.717426 0.102187 43.000000
2.972059 -0.725146 0.102058 38.000000
2.972733 -0.734980 0.102122 48.000000
2.967554 -0.743369 0.102058 51.000000
2.968167 -0.753206 0.102122 41.000000
2.968747 -0.763054 0.102187 59.000000
2.950911 -0.768135 0.101841 27.000000
2.960142 -0.780238 0.102101 47.000000
2.960633 -0.790088 0.102166 35.000000
2.961090 -0.799949 0.102231 51.000000
2.956693 -0.808503 0.102187 40.000000
2.955163 -0.817836 0.102209 44.000000
2.956491 -0.827976 0.102296 46.000000
2.954899 -0.837314 0.102317 34.000000
2.954239 -0.846926 0.102361 42.000000
2.955467 -0.857098 0.102447 57.000000
2.948986 -0.865037 0.102361 43.000000
2.949194 -0.874932 0.102425 58.000000
2.946496 -0.883976 0.102425 48.000000
2.945684 -0.893592 0.102469 49.000000
2.942929 -0.902625 0.102469 46.000000
2.942055 -0.912241 0.102512 48.000000
2.937335 -0.920665 0.102469 57.000000
2.932590 -0.929069 0.102425 52.000000
2.924964 -0.936539 0.102317 42.000000
2.921126 -0.945201 0.102296 40.000000
2.913461 -0.952607 0.102187 37.000000
2.912423 -0.962167 0.102231 37.000000
2.906612 -0.970149 0.102166 55.000000
2.907412 -0.980339 0.102252 33.000000
2.905337 -0.989576 0.102274 54.000000
2.908906 -1.000759 0.102425 47.000000
2.910545 -1.011317 0.102534 57.000000
2.911202 -1.021565 0.102620 45.000000
2.907112 -1.030158 0.102599 47.000000
2.907704 -1.040418 0.102685 55.000000
2.900736 -1.047976 0.102599 44.000000
2.899386 -1.057555 0.102642 49.000000
2.894252 -1.065755 0.102599 41.000000
2.887219 -1.073237 0.102512 52.000000
2.885785 -1.082792 0.102555 53.000000
2.883385 -1.091994 0.102577 67.000000
2.882823 -1.101905 0.102642 39.000000
2.886892 -1.113620 0.102815 36.000000
2.880667 -1.121384 0.102750 53.000000
2.875351 -1.129486 0.102707 48.000000
2.873732 -1.139039 0.102750 47.000000
2.867439 -1.146737 0.102685 47.000000
2.865761 -1.156276 0.102728 46.000000
2.863127 -1.165440 0.102750 35.000000
2.857688 -1.173459 0.102707 52.000000
2.866084 -1.187190 0.102988 31.000000
2.859660 -1.194822 0.102923 51.000000
2.856902 -1.203978 0.102945 53.000000
2.852275 -1.212346 0.102923 47.000000
2.846704 -1.220304 0.102880 42.000000
2.850289 -1.232203 0.103053 37.000000
2.844662 -1.240144 0.103010 33.000000
2.837183 -1.247257 0.102923 38.000000
2.836085 -1.257170 0.102988 40.000000
2.844995 -1.271572 0.103291 23.000000
2.883928 -1.299583 0.104308 5.000000
2.879928 -1.308425 0.104308 6.000000
3.062397 -0.425850 0.064635 16.000000
3.056126 -0.434538 0.064589 33.000000
3.052799 -0.443625 0.064570 27.000000
3.051424 -0.452988 0.064570 30.000000
3.048042 -0.462048 0.064552 39.000000
3.046610 -0.471397 0.064552 46.000000
3.043175 -0.480430 0.064533 69.000000
3.035763 -0.488809 0.064478 40.000000
3.036222 -0.498445 0.064496 47.000000
3.036651 -0.508088 0.064515 47.000000
3.027192 -0.516056 0.064441 55.000000
3.021654 -0.524656 0.064404 67.000000
3.019046 -0.533750 0.064395 53.000000
3.013458 -0.542301 0.064358 50.000000
3.012763 -0.551724 0.064367 48.000000
3.011056 -0.560964 0.064367 53.000000
3.005391 -0.569454 0.064330 71.000000
3.004612 -0.578861 0.064339 61.000000
3.002822 -0.588076 0.064339 60.000000
2.998062 -0.596700 0.064311 71.000000
2.999157 -0.606490 0.064339 62.000000
3.000221 -0.616293 0.064367 67.000000
2.995379 -0.624881 0.064339 52.000000
2.992470 -0.633861 0.064330 52.000000
2.993444 -0.643669 0.064358 62.000000
2.990478 -0.652637 0.064348 51.000000
2.993343 -0.662890 0.064395 60.000000
2.991295 -0.672070 0.064395 46.000000
2.985320 -0.680355 0.064358 50.000000
2.987115 -0.690412 0.064395 60.000000
2.984010 -0.699345 0.064385 45.000000
2.984768 -0.709190 0.064413 51.000000
2.983551 -0.718578 0.064422 63.000000
2.977447 -0.726779 0.064385 52.000000
2.976173 -0.736151 0.064395 53.000000
2.976811 -0.746008 0.064422 51.000000
2.971600 -0.754398 0.064395 54.000000
2.969272 -0.763512 0.064395 44.000000
2.962077 -0.771357 0.064348 49.000000
2.956796 -0.779676 0.064321 47.000000
2.954390 -0.788743 0.064321 59.000000
2.952922 -0.798065 0.064330 59.000000
2.949495 -0.806856 0.064321 58.000000
2.943151 -0.814834 0.064284 50.000000
2.940638 -0.823859 0.064284 63.000000
2.936172 -0.832331 0.064265 54.000000
2.933604 -0.841336 0.064265 61.000000
2.932930 -0.850889 0.064284 67.000000
2.933184 -0.860728 0.064311 65.000000
2.932447 -0.870292 0.064330 52.000000
2.932636 -0.880148 0.064358 63.000000
2.934707 -0.890593 0.064404 36.000000
2.931004 -0.899299 0.064395 50.000000
2.927277 -0.907991 0.064385 57.000000
2.919707 -0.915471 0.064339 88.000000
2.918791 -0.925029 0.064358 48.000000
2.914987 -0.933674 0.064348 65.000000
2.915914 -0.943845 0.064385 46.000000
2.911103 -0.952164 0.064367 37.000000
2.915764 -0.963602 0.064441 60.000000
2.915639 -0.973493 0.064469 65.000000
2.917376 -0.984032 0.064515 49.000000
2.915290 -0.993301 0.064524 60.000000
2.915065 -1.003217 0.064552 59.000000
2.911030 -1.011827 0.064543 45.000000
2.906968 -1.020422 0.064533 56.000000
2.902881 -1.029001 0.064524 62.000000
2.898769 -1.037565 0.064515 53.000000
2.895572 -1.046453 0.064515 65.000000
2.890470 -1.054646 0.064496 67.000000
2.888159 -1.063855 0.064506 64.000000
2.887693 -1.073756 0.064533 58.000000
2.885321 -1.082962 0.064543 49.000000
2.884790 -1.092872 0.064570 53.000000
2.879556 -1.101003 0.064552 63.000000
2.879896 -1.111273 0.064589 58.000000
2.875541 -1.119740 0.064580 58.000000
2.873954 -1.129288 0.064598 51.000000
2.871405 -1.138469 0.064607 48.000000
2.867899 -1.147273 0.064607 49.000000
2.864366 -1.156066 0.064607 49.000000
2.859879 -1.164471 0.064598 55.000000
2.857218 -1.173620 0.064607 55.000000
2.855452 -1.183146 0.064626 42.000000
2.850886 -1.191515 0.064617 53.000000
2.849060 -1.201033 0.064635 69.000000
2.845361 -1.209768 0.064635 49.000000
2.842556 -1.218886 0.064644 54.000000
2.843391 -1.229586 0.064691 44.000000
2.842355 -1.239503 0.064718 37.000000
2.835793 -1.247010 0.064691 41.000000
2.839267 -1.258947 0.064765 40.000000
2.837217 -1.268469 0.064783 39.000000
2.842427 -1.281278 0.064876 22.000000
2.836663 -1.289164 0.064857 37.000000
2.830876 -1.297028 0.064839 59.000000
2.837776 -1.310740 0.064950 20.000000
2.830116 -1.317751 0.064913 19.000000
3.042707 -0.422790 0.026045 18.000000
3.039415 -0.431842 0.026052 26.000000
3.039066 -0.441308 0.026049 47.000000
3.035719 -0.450337 0.026055 25.000000
3.034323 -0.459648 0.026055 33.000000
3.030922 -0.468651 0.026062 44.000000
3.023543 -0.477014 0.026082 60.000000
3.020090 -0.485971 0.026088 51.000000
3.016612 -0.494911 0.026095 44.000000
3.012120 -0.503670 0.026105 41.000000
3.007603 -0.512406 0.026115 45.000000
3.005031 -0.521460 0.026118 59.000000
3.004402 -0.530851 0.026115 44.000000
3.001775 -0.539889 0.026118 44.000000
2.999121 -0.548916 0.026122 50.000000
2.999389 -0.558480 0.026115 50.000000
2.997662 -0.567680 0.026115 56.000000
3.004744 -0.578572 0.026085 32.000000
2.995104 -0.586254 0.026112 43.000000
2.992310 -0.595245 0.026115 68.000000
2.994391 -0.605214 0.026102 50.000000
2.990561 -0.613996 0.026108 55.000000
2.987684 -0.622964 0.026112 50.000000
2.986737 -0.632334 0.026108 50.000000
2.980872 -0.640655 0.026122 66.000000
2.984755 -0.651074 0.026102 62.000000
2.993484 -0.662601 0.026065 36.000000
2.986559 -0.670688 0.026082 47.000000
2.984487 -0.679848 0.026082 51.000000
2.983361 -0.689226 0.026078 56.000000
2.982207 -0.698603 0.026075 59.000000
2.982968 -0.708441 0.026065 45.000000
2.980781 -0.717589 0.026065 57.000000
2.978565 -0.726731 0.026065 51.000000
2.977293 -0.736105 0.026062 55.000000
2.976960 -0.745721 0.026055 57.000000
2.971750 -0.754114 0.026065 64.000000
2.963611 -0.761736 0.026085 56.000000
2.953518 -0.768813 0.026112 51.000000
2.945343 -0.776343 0.026132 46.000000
2.939082 -0.784346 0.026145 62.000000
2.935696 -0.793099 0.026148 46.000000
2.933249 -0.802102 0.026148 56.000000
2.932702 -0.811630 0.026141 76.000000
2.934051 -0.821700 0.026128 58.000000
2.930554 -0.830426 0.026132 54.000000
2.927992 -0.839413 0.026132 46.000000
2.924443 -0.848114 0.026135 54.000000
2.921827 -0.857082 0.026135 48.000000
2.922060 -0.866894 0.026125 46.000000
2.919387 -0.875854 0.026125 41.000000
2.920514 -0.885967 0.026112 42.000000
2.919694 -0.895508 0.026105 65.000000
2.916933 -0.904461 0.026105 52.000000
2.919871 -0.915199 0.026085 45.000000
2.917049 -0.924152 0.026085 57.000000
2.917058 -0.934011 0.026075 58.000000
2.914179 -0.942956 0.026075 71.000000
2.911272 -0.951892 0.026075 54.000000
2.909287 -0.961133 0.026072 53.000000
2.908222 -0.970686 0.026065 55.000000
2.906178 -0.979923 0.026062 49.000000
2.903158 -0.988835 0.026062 45.000000
2.899165 -0.997412 0.026065 59.000000
2.903649 -1.008924 0.026039 36.000000
2.892991 -1.015182 0.026065 56.000000
2.892691 -1.025054 0.026055 59.000000
2.893299 -1.035269 0.026042 57.000000
2.890109 -1.044141 0.026042 47.000000
2.889711 -1.054030 0.026032 48.000000
2.890218 -1.064271 0.026019 47.000000
2.889751 -1.074178 0.026009 53.000000
2.885506 -1.082687 0.026012 36.000000
2.884041 -1.092242 0.026006 48.000000
2.878808 -1.100372 0.026012 51.000000
2.872619 -1.108120 0.026022 75.000000
2.873866 -1.118740 0.026006 29.000000
2.866697 -1.126091 0.026019 49.000000
2.862299 -1.134512 0.026022 55.000000
2.860662 -1.144030 0.026015 65.000000
2.858994 -1.153549 0.026009 54.000000
2.852662 -1.161185 0.026019 48.000000
2.854637 -1.172208 0.025999 40.000000
2.851028 -1.180960 0.025999 50.000000
2.848314 -1.190087 0.025996 48.000000
2.849258 -1.200760 0.025979 31.000000
2.840958 -1.207541 0.025996 48.000000
2.839078 -1.217039 0.025989 49.000000
2.837167 -1.226536 0.025982 36.000000
2.829724 -1.233638 0.025996 44.000000
2.827757 -1.243117 0.025989 35.000000
2.823016 -1.251382 0.025992 44.000000
2.820076 -1.260445 0.025989 36.000000
2.818932 -1.270322 0.025979 38.000000
2.815021 -1.278965 0.025979 46.000000
2.811993 -1.288011 0.025976 30.000000
2.817109 -1.300821 0.025942 28.000000
3.023363 -0.428805 -0.011542 17.000000
3.035887 -0.440088 -0.011762 40.000000
3.032544 -0.449107 -0.011730 37.000000
3.036095 -0.459157 -0.011809 55.000000
3.032696 -0.468164 -0.011777 42.000000
3.032233 -0.477622 -0.011793 44.000000
3.023843 -0.485811 -0.011683 57.000000
3.017405 -0.494277 -0.011605 57.000000
3.012915 -0.503037 -0.011558 47.000000
3.004458 -0.511104 -0.011448 50.000000
3.000906 -0.519977 -0.011416 62.000000
2.994373 -0.528312 -0.011338 55.000000
2.987817 -0.536612 -0.011259 58.000000
2.992058 -0.546855 -0.011353 59.000000
2.990366 -0.556032 -0.011353 51.000000
2.991594 -0.565762 -0.011401 60.000000
2.997699 -0.576449 -0.011526 41.000000
2.993954 -0.585259 -0.011495 55.000000
2.995086 -0.595026 -0.011542 73.000000
2.996187 -0.604806 -0.011589 61.000000
2.993338 -0.613795 -0.011573 52.000000
2.993398 -0.623383 -0.011605 57.000000
2.990493 -0.632357 -0.011589 71.000000
2.985607 -0.640899 -0.011542 69.000000
2.985580 -0.650481 -0.011573 54.000000
2.982594 -0.659422 -0.011558 60.000000
2.977630 -0.667912 -0.011510 68.000000
2.974592 -0.676822 -0.011495 71.000000
2.975425 -0.686620 -0.011542 53.000000
2.973304 -0.695745 -0.011542 60.000000
2.973101 -0.705326 -0.011573 66.000000
2.972868 -0.714912 -0.011605 68.000000
2.974546 -0.724976 -0.011668 68.000000
2.970366 -0.733619 -0.011636 55.000000
2.967132 -0.742486 -0.011620 76.000000
2.960963 -0.750602 -0.011558 65.000000
2.952836 -0.758190 -0.011463 73.000000
2.948560 -0.766742 -0.011432 61.000000
2.941360 -0.774511 -0.011353 63.000000
2.932207 -0.781727 -0.011243 62.000000
2.933656 -0.791762 -0.011306 77.000000
2.931213 -0.800759 -0.011306 59.000000
2.926816 -0.809215 -0.011275 61.000000
2.929133 -0.819538 -0.011353 62.000000
2.930453 -0.829610 -0.011416 65.000000
2.926933 -0.838321 -0.011401 55.000000
2.929149 -0.848689 -0.011479 69.000000
2.925572 -0.857390 -0.011463 52.000000
2.921969 -0.866077 -0.011448 53.000000
2.922172 -0.875900 -0.011495 47.000000
2.917557 -0.884280 -0.011463 76.000000
2.916742 -0.893813 -0.011495 71.000000
2.915896 -0.903349 -0.011526 51.000000
2.914066 -0.912590 -0.011542 66.000000
2.916971 -0.923337 -0.011636 61.000000
2.916982 -0.933196 -0.011683 60.000000
2.915056 -0.942449 -0.011699 63.000000
2.915953 -0.952630 -0.011762 61.000000
2.910168 -0.960631 -0.011715 61.000000
2.909104 -0.970188 -0.011746 58.000000
2.905167 -0.978789 -0.011730 80.000000
2.903097 -0.988019 -0.011746 60.000000
2.901943 -0.997572 -0.011777 59.000000
2.896035 -1.005486 -0.011730 53.000000
2.895767 -1.015359 -0.011777 61.000000
2.892638 -1.024238 -0.011777 57.000000
2.891365 -1.033781 -0.011809 57.000000
2.884418 -1.041288 -0.011746 66.000000
2.882150 -1.050475 -0.011762 55.000000
2.879852 -1.059658 -0.011777 47.000000
2.877524 -1.068837 -0.011793 60.000000
2.870487 -1.076255 -0.011730 61.000000
2.867172 -1.085057 -0.011730 64.000000
2.861027 -1.092777 -0.011683 69.000000
2.857661 -1.101550 -0.011683 60.000000
2.853336 -1.109949 -0.011668 59.000000
2.850848 -1.119063 -0.011683 64.000000
2.850190 -1.128909 -0.011730 59.000000
2.848570 -1.138390 -0.011762 49.000000
2.846919 -1.147872 -0.011793 44.000000
2.845236 -1.157355 -0.011825 53.000000
2.844447 -1.167217 -0.011872 52.000000
2.842700 -1.176704 -0.011903 57.000000
2.839077 -1.185420 -0.011903 44.000000
2.838191 -1.195289 -0.011950 64.000000
2.834511 -1.203990 -0.011950 54.000000
2.830803 -1.212681 -0.011950 58.000000
2.828905 -1.222153 -0.011982 57.000000
2.824226 -1.230427 -0.011966 45.000000
2.825015 -1.241097 -0.012045 38.000000
2.826679 -1.252189 -0.012139 51.000000
2.825562 -1.262079 -0.012186 57.000000
2.824412 -1.271974 -0.012233 62.000000
2.834152 -1.286835 -0.012469 48.000000
2.811099 -1.286783 -0.012139 16.000000
3.011829 -0.446802 -0.047899 25.000000
3.027247 -0.458579 -0.048371 42.000000
3.022862 -0.467407 -0.048288 43.000000
3.015489 -0.475747 -0.048121 45.000000
3.009081 -0.484204 -0.047983 43.000000
3.003634 -0.492787 -0.047872 52.000000
2.999151 -0.501507 -0.047788 51.000000
3.003511 -0.511711 -0.047955 30.000000
2.993062 -0.519388 -0.047705 49.000000
2.988501 -0.528048 -0.047622 55.000000
2.984900 -0.536861 -0.047566 45.000000
2.986188 -0.546554 -0.047650 49.000000
2.983515 -0.555531 -0.047622 43.000000
2.982779 -0.564867 -0.047650 41.000000
2.983977 -0.574581 -0.047733 59.000000
2.979256 -0.583158 -0.047650 41.000000
2.978434 -0.592490 -0.047677 42.000000
2.985421 -0.603404 -0.047927 45.000000
2.981597 -0.612159 -0.047872 41.000000
2.985577 -0.622526 -0.048038 44.000000
2.981697 -0.631269 -0.047983 43.000000
2.978769 -0.640204 -0.047955 39.000000
2.975814 -0.649127 -0.047927 59.000000
2.974785 -0.658470 -0.047955 51.000000
2.969824 -0.666937 -0.047872 39.000000
2.958017 -0.673829 -0.047594 43.000000
2.951066 -0.681777 -0.047455 39.000000
2.948960 -0.690828 -0.047455 51.000000
2.942936 -0.698950 -0.047344 31.000000
2.943694 -0.708676 -0.047428 63.000000
2.946362 -0.718886 -0.047566 72.000000
2.946083 -0.728402 -0.047622 40.000000
2.946744 -0.738164 -0.047705 47.000000
2.949310 -0.748429 -0.047844 34.000000
2.946032 -0.757225 -0.047816 63.000000
2.941760 -0.765757 -0.047761 39.000000
2.940364 -0.775033 -0.047788 43.000000
2.935074 -0.783278 -0.047705 36.000000
2.930727 -0.791758 -0.047650 49.000000
2.930213 -0.801273 -0.047705 45.000000
2.927741 -0.810259 -0.047705 45.000000
2.921391 -0.818160 -0.047594 43.000000
2.925600 -0.829024 -0.047788 45.000000
2.925925 -0.838821 -0.047872 40.000000
2.924299 -0.848072 -0.047899 43.000000
2.924561 -0.857882 -0.047983 61.000000
2.919998 -0.866283 -0.047927 69.000000
2.915412 -0.874664 -0.047872 47.000000
2.915585 -0.884473 -0.047955 61.000000
2.909990 -0.892536 -0.047872 60.000000
2.901509 -0.899685 -0.047705 45.000000
2.898735 -0.908583 -0.047705 36.000000
2.894028 -0.916869 -0.047650 46.000000
2.895962 -0.927265 -0.047788 49.000000
2.896908 -0.937375 -0.047899 58.000000
2.892118 -0.945638 -0.047844 43.000000
2.892051 -0.955446 -0.047927 44.000000
2.892900 -0.965578 -0.048038 55.000000
2.894660 -0.976044 -0.048177 43.000000
2.890706 -0.984598 -0.048149 56.000000
2.888617 -0.993787 -0.048177 70.000000
2.878000 -1.000023 -0.047955 60.000000
2.871145 -1.007525 -0.047844 35.000000
2.871809 -1.017663 -0.047955 49.000000
2.866791 -1.025796 -0.047899 42.000000
2.857049 -1.032211 -0.047705 51.000000
2.853868 -1.040972 -0.047705 55.000000
2.850661 -1.049722 -0.047705 42.000000
2.850239 -1.059507 -0.047788 50.000000
2.846039 -1.067896 -0.047761 35.000000
2.847424 -1.078390 -0.047899 49.000000
2.843168 -1.086765 -0.047872 48.000000
2.843551 -1.096920 -0.047983 49.000000
2.843899 -1.107088 -0.048094 40.000000
2.844212 -1.117268 -0.048205 55.000000
2.843559 -1.127092 -0.048288 47.000000
2.841016 -1.136182 -0.048316 62.000000
2.840298 -1.146014 -0.048399 49.000000
2.836769 -1.154722 -0.048399 55.000000
2.837837 -1.165317 -0.048538 46.000000
2.835172 -1.174400 -0.048565 49.000000
2.831556 -1.183092 -0.048565 42.000000
2.826070 -1.190998 -0.048510 44.000000
2.824243 -1.200444 -0.048565 43.000000
2.821466 -1.209497 -0.048593 48.000000
2.821413 -1.219733 -0.048704 48.000000
2.816741 -1.227984 -0.048676 35.000000
2.812960 -1.236619 -0.048676 41.000000
2.810067 -1.245648 -0.048704 44.000000
2.806232 -1.254264 -0.048704 35.000000
3.039360 -0.450117 -0.087124 34.000000
3.038952 -0.459589 -0.087165 46.000000
3.032591 -0.468148 -0.086963 58.000000
3.026205 -0.476671 -0.086762 45.000000
3.022756 -0.485636 -0.086681 39.000000
3.013363 -0.493614 -0.086359 48.000000
3.005922 -0.501869 -0.086117 59.000000
2.997473 -0.509915 -0.085835 68.000000
2.991956 -0.518426 -0.085673 55.000000
2.988384 -0.527255 -0.085593 50.000000
2.985769 -0.536244 -0.085552 45.000000
2.986075 -0.545761 -0.085633 58.000000
2.984387 -0.554920 -0.085633 68.000000
2.985615 -0.564630 -0.085754 54.000000
2.984850 -0.573976 -0.085794 55.000000
2.983075 -0.583131 -0.085794 76.000000
2.982252 -0.592475 -0.085835 70.000000
2.985318 -0.602611 -0.086036 55.000000
2.982476 -0.611566 -0.085996 54.000000
2.980586 -0.620713 -0.085996 63.000000
2.976712 -0.629441 -0.085915 63.000000
2.976721 -0.638990 -0.085996 66.000000
2.977675 -0.648758 -0.086117 57.000000
2.974695 -0.657674 -0.086076 44.000000
2.968764 -0.665922 -0.085915 71.000000
2.964758 -0.674584 -0.085835 56.000000
2.959754 -0.683002 -0.085714 57.000000
2.956672 -0.691851 -0.085673 62.000000
2.951619 -0.700227 -0.085552 61.000000
2.949457 -0.709279 -0.085552 57.000000
2.945325 -0.717851 -0.085472 58.000000
2.947959 -0.728082 -0.085673 57.000000
2.942804 -0.736395 -0.085552 81.000000
2.943436 -0.746157 -0.085673 59.000000
2.941133 -0.755183 -0.085673 57.000000
2.935901 -0.763448 -0.085552 65.000000
2.930647 -0.771688 -0.085432 76.000000
2.928266 -0.780676 -0.085432 66.000000
2.921033 -0.788354 -0.085230 58.000000
2.922457 -0.798365 -0.085391 61.000000
2.922883 -0.808127 -0.085512 60.000000
2.921351 -0.817359 -0.085552 64.000000
2.921714 -0.827135 -0.085673 70.000000
2.922045 -0.836920 -0.085794 64.000000
2.917544 -0.845325 -0.085714 72.000000
2.914937 -0.854272 -0.085714 75.000000
2.911344 -0.862927 -0.085673 69.000000
2.910597 -0.872428 -0.085754 74.000000
2.906951 -0.881064 -0.085714 61.000000
2.907100 -0.890857 -0.085835 69.000000
2.898627 -0.897997 -0.085593 53.000000
2.894905 -0.906587 -0.085552 64.000000
2.894015 -0.916067 -0.085633 57.000000
2.891191 -0.924942 -0.085633 50.000000
2.889290 -0.934115 -0.085673 63.000000
2.892109 -0.944837 -0.085915 56.000000
2.890145 -0.954019 -0.085956 60.000000
2.897631 -0.966360 -0.086399 48.000000
2.895600 -0.975564 -0.086439 59.000000
2.893539 -0.984765 -0.086480 45.000000
2.887669 -0.992663 -0.086359 54.000000
2.878003 -0.999223 -0.086076 58.000000
2.871153 -1.006724 -0.085915 75.000000
2.869934 -1.016196 -0.085996 63.000000
2.860217 -1.022640 -0.085714 60.000000
2.858006 -1.031750 -0.085754 73.000000
2.856705 -1.041198 -0.085835 60.000000
2.852560 -1.049612 -0.085794 57.000000
2.855882 -1.060795 -0.086076 65.000000
2.854485 -1.070253 -0.086157 68.000000
2.851188 -1.079006 -0.086157 53.000000
2.850665 -1.088818 -0.086278 49.000000
2.850108 -1.098637 -0.086399 55.000000
2.846724 -1.107376 -0.086399 48.000000
2.847033 -1.117565 -0.086560 57.000000
2.845449 -1.127030 -0.086641 54.000000
2.843833 -1.136497 -0.086721 46.000000
2.839407 -1.144842 -0.086681 47.000000
2.834955 -1.153171 -0.086641 55.000000
2.834177 -1.163002 -0.086762 48.000000
2.835212 -1.173603 -0.086963 50.000000
2.831598 -1.182296 -0.086963 58.000000
2.828878 -1.191365 -0.087004 59.000000
2.827049 -1.200820 -0.087084 70.000000
2.827025 -1.211062 -0.087245 59.000000
2.825131 -1.220522 -0.087326 49.000000
2.817709 -1.227587 -0.087165 50.000000
2.814844 -1.236628 -0.087205 36.000000
2.806470 -1.243234 -0.087004 56.000000
2.808116 -1.254284 -0.087245 40.000000
2.990940 -0.444773 -0.121466 33.000000
3.004372 -0.456190 -0.122251 37.000000
3.001971 -0.465253 -0.122199 35.000000
3.001516 -0.474616 -0.122251 42.000000
3.001032 -0.483981 -0.122303 45.000000
2.997562 -0.492862 -0.122199 62.000000
2.999975 -0.502715 -0.122408 57.000000
2.998419 -0.511917 -0.122408 57.000000
2.992899 -0.520430 -0.122199 37.000000
2.994238 -0.530131 -0.122356 44.000000
2.988666 -0.538608 -0.122146 48.000000
2.985035 -0.547415 -0.122042 45.000000
2.983342 -0.556570 -0.122042 53.000000
2.979658 -0.565349 -0.121937 54.000000
2.977909 -0.574488 -0.121937 50.000000
2.976133 -0.583621 -0.121937 51.000000
2.975307 -0.592944 -0.121989 50.000000
2.977390 -0.602860 -0.122199 61.000000
2.975526 -0.611992 -0.122199 50.000000
2.973635 -0.621118 -0.122199 69.000000
2.968784 -0.629618 -0.122042 57.000000
2.963909 -0.638093 -0.121885 53.000000
2.961938 -0.647184 -0.121885 60.000000
2.958963 -0.656052 -0.121832 52.000000
2.953039 -0.664252 -0.121623 54.000000
2.950014 -0.673086 -0.121571 70.000000
2.947935 -0.682134 -0.121571 54.000000
2.948745 -0.691858 -0.121728 68.000000
2.946609 -0.700901 -0.121728 59.000000
2.946386 -0.710405 -0.121832 53.000000
2.942252 -0.718968 -0.121728 45.000000
2.942941 -0.728710 -0.121885 51.000000
2.937786 -0.737008 -0.121728 46.000000
2.932607 -0.745281 -0.121571 64.000000
2.927405 -0.753529 -0.121414 53.000000
2.927012 -0.763009 -0.121518 55.000000
2.924658 -0.771986 -0.121518 69.000000
2.921310 -0.780697 -0.121466 50.000000
2.918902 -0.789656 -0.121466 49.000000
2.918392 -0.799134 -0.121571 60.000000
2.918814 -0.808883 -0.121728 71.000000
2.918242 -0.818372 -0.121832 41.000000
2.913796 -0.826777 -0.121728 59.000000
2.913165 -0.836263 -0.121832 48.000000
2.914423 -0.846309 -0.122042 72.000000
2.908938 -0.854403 -0.121885 58.000000
2.906302 -0.863324 -0.121885 60.000000
2.900771 -0.871375 -0.121728 59.000000
2.895217 -0.879401 -0.121571 56.000000
2.895370 -0.889158 -0.121728 84.000000
2.890720 -0.897445 -0.121623 52.000000
2.886047 -0.905712 -0.121518 48.000000
2.886111 -0.915467 -0.121675 59.000000
2.888044 -0.925839 -0.121937 68.000000
2.886141 -0.935003 -0.121989 46.000000
2.882309 -0.943542 -0.121937 41.000000
2.881297 -0.953007 -0.122042 62.000000
2.881202 -0.962791 -0.122199 44.000000
2.880127 -0.972264 -0.122303 57.000000
2.876185 -0.980773 -0.122251 64.000000
2.871274 -0.988943 -0.122146 48.000000
2.869170 -0.998075 -0.122199 49.000000
2.864210 -1.006212 -0.122094 52.000000
2.862051 -1.015328 -0.122146 60.000000
2.854221 -1.022422 -0.121885 50.000000
2.853888 -1.032191 -0.122042 48.000000
2.850708 -1.040942 -0.122042 57.000000
2.846564 -1.049338 -0.121989 76.000000
2.845203 -1.058762 -0.122094 62.000000
2.846617 -1.069240 -0.122356 50.000000
2.845191 -1.078676 -0.122460 55.000000
2.844666 -1.088469 -0.122617 54.000000
2.841314 -1.097191 -0.122617 75.000000
2.838865 -1.106265 -0.122670 55.000000
2.840105 -1.116795 -0.122931 54.000000
2.837594 -1.125871 -0.122984 56.000000
2.833199 -1.134200 -0.122931 61.000000
2.833411 -1.144382 -0.123141 43.000000
2.833586 -1.154575 -0.123350 58.000000
2.830954 -1.163642 -0.123402 61.000000
2.829216 -1.173086 -0.123507 62.000000
2.822839 -1.180606 -0.123350 70.000000
2.818284 -1.188873 -0.123298 57.000000
2.814623 -1.197514 -0.123298 69.000000
2.808182 -1.204963 -0.123141 59.000000
2.806306 -1.214365 -0.123245 44.000000
2.808059 -1.225363 -0.123559 45.000000
2.806115 -1.234776 -0.123664 49.000000
2.806879 -1.245403 -0.123926 44.000000
2.810338 -1.257268 -0.124345 30.000000
2.821946 -1.272859 -0.125234 9.000000
3.009812 -0.445738 -0.160087 36.000000
3.016324 -0.456164 -0.160605 65.000000
3.007020 -0.464197 -0.160087 50.000000
3.004596 -0.473265 -0.160023 40.000000
3.000175 -0.482005 -0.159828 55.000000
2.996712 -0.490885 -0.159699 63.000000
2.995192 -0.500076 -0.159699 64.000000
2.995611 -0.509598 -0.159828 57.000000
2.992067 -0.518445 -0.159699 57.000000
2.990463 -0.527622 -0.159699 57.000000
2.989812 -0.536971 -0.159764 64.000000
2.989132 -0.546320 -0.159828 68.000000
2.981555 -0.554393 -0.159440 58.000000
2.980821 -0.563723 -0.159505 69.000000
2.975158 -0.572111 -0.159246 68.000000
2.968492 -0.580278 -0.158923 52.000000
2.965719 -0.589188 -0.158858 50.000000
2.963897 -0.598284 -0.158858 63.000000
2.964003 -0.607776 -0.158987 58.000000
2.967986 -0.618088 -0.159376 66.000000
2.968028 -0.627603 -0.159505 80.000000
2.964138 -0.636287 -0.159376 69.000000
2.968022 -0.646653 -0.159764 72.000000
2.966024 -0.655756 -0.159764 53.000000
2.959130 -0.663760 -0.159440 64.000000
2.955133 -0.672392 -0.159311 47.000000
2.948195 -0.680333 -0.158987 66.000000
2.944150 -0.688920 -0.158858 56.000000
2.942023 -0.697949 -0.158858 68.000000
2.936957 -0.706271 -0.158664 70.000000
2.934777 -0.715278 -0.158664 66.000000
2.937412 -0.725476 -0.158987 61.000000
2.933237 -0.733999 -0.158858 54.000000
2.930971 -0.742995 -0.158858 59.000000
2.926744 -0.751487 -0.158728 69.000000
2.926357 -0.760965 -0.158858 67.000000
2.924973 -0.770194 -0.158923 67.000000
2.918740 -0.778135 -0.158664 80.000000
2.920192 -0.788126 -0.158923 76.000000
2.922574 -0.798397 -0.159246 63.000000
2.922034 -0.807892 -0.159376 70.000000
2.920503 -0.817122 -0.159440 56.000000
2.917982 -0.826078 -0.159440 65.000000
2.911597 -0.833927 -0.159181 55.000000
2.916692 -0.845078 -0.159699 58.000000
2.910256 -0.852899 -0.159440 69.000000
2.905712 -0.861256 -0.159311 59.000000
2.899232 -0.869020 -0.159052 65.000000
2.894643 -0.877332 -0.158923 71.000000
2.890984 -0.885916 -0.158858 61.000000
2.885392 -0.893895 -0.158664 53.000000
2.878827 -0.901550 -0.158405 60.000000
2.876999 -0.910679 -0.158470 85.000000
2.875142 -0.919805 -0.158534 71.000000
2.878004 -0.930464 -0.158923 70.000000
2.878929 -0.940530 -0.159181 72.000000
2.874135 -0.948732 -0.159052 51.000000
2.879731 -0.960387 -0.159634 68.000000
2.878662 -0.969855 -0.159764 58.000000
2.872839 -0.977717 -0.159570 58.000000
2.873600 -0.987824 -0.159828 48.000000
2.872442 -0.997291 -0.159958 58.000000
2.864660 -1.004447 -0.159634 47.000000
2.861565 -1.013231 -0.159634 55.000000
2.854685 -1.020661 -0.159376 59.000000
2.854355 -1.030431 -0.159570 45.000000
2.854931 -1.040551 -0.159828 64.000000
2.851725 -1.049305 -0.159828 65.000000
2.849428 -1.058396 -0.159893 57.000000
2.850839 -1.068886 -0.160217 80.000000
2.850346 -1.078687 -0.160411 64.000000
2.846091 -1.087070 -0.160346 72.000000
2.845536 -1.096874 -0.160540 53.000000
2.843087 -1.105961 -0.160605 51.000000
2.842468 -1.115772 -0.160799 53.000000
2.841814 -1.125590 -0.160993 55.000000
2.839274 -1.134674 -0.161058 62.000000
2.834854 -1.143006 -0.160993 59.000000
2.832258 -1.152074 -0.161058 55.000000
2.828711 -1.160758 -0.161058 46.000000
2.824214 -1.169049 -0.160993 54.000000
2.816010 -1.175785 -0.160670 48.000000
2.814229 -1.185194 -0.160799 58.000000
2.810580 -1.193822 -0.160799 48.000000
2.806904 -1.202439 -0.160799 63.000000
2.806866 -1.212628 -0.161058 36.000000
2.802217 -1.220835 -0.160993 63.000000
2.803940 -1.231836 -0.161381 51.000000
2.804709 -1.242454 -0.161705 52.000000
2.793596 -1.247796 -0.161187 32.000000
3.007980 -0.447300 -0.196072 25.000000
3.001664 -0.455780 -0.195690 42.000000
3.000252 -0.464987 -0.195690 33.000000
2.992901 -0.473257 -0.195230 36.000000
2.985529 -0.481487 -0.194771 32.000000
2.984038 -0.490644 -0.194771 43.000000
2.980551 -0.499468 -0.194618 36.000000
2.977039 -0.508275 -0.194465 54.000000
2.974484 -0.517236 -0.194388 56.000000
2.976810 -0.527052 -0.194695 45.000000
2.973217 -0.535830 -0.194541 44.000000
2.971558 -0.544949 -0.194541 45.000000
2.966932 -0.553516 -0.194312 55.000000
2.966200 -0.562801 -0.194388 50.000000
2.960542 -0.571144 -0.194082 48.000000
2.955841 -0.579650 -0.193853 56.000000
2.945247 -0.586965 -0.193164 62.000000
2.946365 -0.596591 -0.193393 46.000000
2.948427 -0.606429 -0.193700 58.000000
2.949481 -0.616083 -0.193929 63.000000
2.950504 -0.625748 -0.194159 49.000000
2.956369 -0.636473 -0.194771 51.000000
2.957325 -0.646177 -0.195001 56.000000
2.961169 -0.656540 -0.195460 51.000000
2.955250 -0.664748 -0.195154 47.000000
2.950280 -0.673147 -0.194924 49.000000
2.945286 -0.681522 -0.194695 42.000000
2.939298 -0.689645 -0.194388 51.000000
