ply
format ascii 1.0
element vertex 1239
property float x
property float y
property float z
property float intensity
end_header
3.060837 -0.570997 0.179563 42.000000
3.052201 -0.579084 0.179239 48.000000
3.053352 -0.589012 0.179378 34.000000
3.051531 -0.598377 0.179378 34.000000
3.044782 -0.606762 0.179147 32.000000
3.046823 -0.616891 0.179332 43.000000
3.044915 -0.626236 0.179332 35.000000
3.048847 -0.636798 0.179609 47.000000
3.047857 -0.646356 0.179655 29.000000
3.045859 -0.655703 0.179655 28.000000
3.040905 -0.664406 0.179517 38.000000
3.039828 -0.673948 0.179563 34.000000
3.036771 -0.683052 0.179517 36.000000
3.036610 -0.692809 0.179609 41.000000
3.035443 -0.702347 0.179655 49.000000
3.038137 -0.712795 0.179887 32.000000
3.036908 -0.722344 0.179933 36.000000
3.040504 -0.733060 0.180210 48.000000
3.037271 -0.742148 0.180164 39.000000
3.031101 -0.750504 0.179979 37.000000
3.028784 -0.759800 0.179979 37.000000
3.022566 -0.768106 0.179794 28.000000
3.020195 -0.777375 0.179794 37.000000
3.011995 -0.785128 0.179517 44.000000
3.004743 -0.793092 0.179285 40.000000
3.004225 -0.802821 0.179378 30.000000
2.999820 -0.811513 0.179285 39.000000
2.993462 -0.819659 0.179101 38.000000
2.992858 -0.829372 0.179193 33.000000
2.985490 -0.837203 0.178962 35.000000
2.989635 -0.848265 0.179285 35.000000
2.986058 -0.857158 0.179239 44.000000
2.986293 -0.867149 0.179378 42.000000
2.985536 -0.876869 0.179470 34.000000
2.989535 -0.888013 0.179794 34.000000
2.990624 -0.898329 0.179979 30.000000
2.991678 -0.908660 0.180164 30.000000
2.986966 -0.917248 0.180071 35.000000
2.987000 -0.927295 0.180210 37.000000
2.989860 -0.938247 0.180488 22.000000
2.984111 -0.946510 0.180349 45.000000
2.981193 -0.955661 0.180349 34.000000
2.972544 -0.962958 0.180071 34.000000
2.962930 -0.969900 0.179748 42.000000
2.967528 -0.981492 0.180118 30.000000
2.963556 -0.990275 0.180071 30.000000
2.949145 -0.995533 0.179517 34.000000
2.945131 -1.004254 0.179470 33.000000
2.941091 -1.012960 0.179424 41.000000
2.944575 -1.024273 0.179748 35.000000
2.945189 -1.034625 0.179933 51.000000
2.940118 -1.042989 0.179840 45.000000
2.941607 -1.053687 0.180071 42.000000
2.941179 -1.063725 0.180210 39.000000
2.938840 -1.073085 0.180256 34.000000
2.937409 -1.082787 0.180349 36.000000
2.933137 -1.091446 0.180303 31.000000
2.930710 -1.100790 0.180349 42.000000
2.930122 -1.110837 0.180488 43.000000
2.929499 -1.120892 0.180626 27.000000
2.925114 -1.129514 0.180580 30.000000
2.920704 -1.138121 0.180534 29.000000
2.919058 -1.147807 0.180626 40.000000
2.909023 -1.154180 0.180303 33.000000
2.903613 -1.162358 0.180210 35.000000
2.902812 -1.172382 0.180349 33.000000
2.899202 -1.181282 0.180349 45.000000
2.899260 -1.191689 0.180534 29.000000
2.894668 -1.200196 0.180488 39.000000
2.894659 -1.210611 0.180673 29.000000
2.895534 -1.221426 0.180904 43.000000
2.894531 -1.231475 0.181042 38.000000
2.887985 -1.239169 0.180904 34.000000
2.889671 -1.250402 0.181181 24.000000
2.886737 -1.259660 0.181227 28.000000
2.889260 -1.271325 0.181551 19.000000
2.883520 -1.279374 0.181459 25.000000
2.890525 -1.293105 0.182013 6.000000
3.072630 -0.455594 0.140860 5.000000
3.074182 -0.465468 0.140961 26.000000
3.068789 -0.474286 0.140826 29.000000
3.064358 -0.483231 0.140724 32.000000
3.067794 -0.493424 0.140894 21.000000
3.062321 -0.502186 0.140758 29.000000
3.059780 -0.511414 0.140724 37.000000
3.058197 -0.520799 0.140724 33.000000
3.053631 -0.529666 0.140623 36.000000
3.047071 -0.538162 0.140454 23.000000
3.048356 -0.548039 0.140555 42.000000
3.045677 -0.557209 0.140521 33.000000
3.038058 -0.565452 0.140318 39.000000
3.039255 -0.575328 0.140420 35.000000
3.035513 -0.584272 0.140352 40.000000
3.038610 -0.594542 0.140521 35.000000
3.038732 -0.604252 0.140589 48.000000
3.034905 -0.613175 0.140521 32.000000
3.031051 -0.622081 0.140454 37.000000
3.025215 -0.630561 0.140318 42.000000
3.026200 -0.640461 0.140420 26.000000
3.020312 -0.648902 0.140284 36.000000
3.018307 -0.658165 0.140284 35.000000
3.023104 -0.668934 0.140521 52.000000
3.017137 -0.677330 0.140386 34.000000
3.013096 -0.686139 0.140318 38.000000
3.013898 -0.696055 0.140420 44.000000
3.011749 -0.705298 0.140420 48.000000
3.006653 -0.713842 0.140318 42.000000
3.004449 -0.723063 0.140318 40.000000
3.001246 -0.732040 0.140284 34.000000
2.998986 -0.741244 0.140284 48.000000
2.997667 -0.750684 0.140318 36.000000
2.992444 -0.759140 0.140217 39.000000
2.990101 -0.768317 0.140217 47.000000
2.991598 -0.778494 0.140352 46.000000
2.991128 -0.788178 0.140420 48.000000
2.986765 -0.796835 0.140352 41.000000
2.984306 -0.805995 0.140352 31.000000
2.984712 -0.815938 0.140454 43.000000
2.984121 -0.825624 0.140521 39.000000
2.978687 -0.833967 0.140420 50.000000
2.973229 -0.842284 0.140318 44.000000
2.967749 -0.850575 0.140217 39.000000
2.966085 -0.859954 0.140250 50.000000
2.964392 -0.869331 0.140284 51.000000
2.965544 -0.879559 0.140420 36.000000
2.965703 -0.889515 0.140521 47.000000
2.962004 -0.898319 0.140487 33.000000
2.964011 -0.908868 0.140657 49.000000
2.963118 -0.918549 0.140724 33.000000
2.964101 -0.928831 0.140860 48.000000
2.963143 -0.938525 0.140927 49.000000
2.956442 -0.946392 0.140792 41.000000
2.949721 -0.954227 0.140657 37.000000
2.945830 -0.962961 0.140623 49.000000
2.940964 -0.971367 0.140555 32.000000
2.937022 -0.980069 0.140521 47.000000
2.929266 -0.987478 0.140352 40.000000
2.924330 -0.995815 0.140284 45.000000
2.922207 -1.005108 0.140318 36.000000
2.924773 -1.016037 0.140521 39.000000
2.925415 -1.026329 0.140657 42.000000
2.920368 -1.034631 0.140589 32.000000
2.921885 -1.045270 0.140758 44.000000
2.920544 -1.054909 0.140826 34.000000
2.918233 -1.064206 0.140860 55.000000
2.917768 -1.074190 0.140961 36.000000
2.912585 -1.082440 0.140894 41.000000
2.910186 -1.091722 0.140927 46.000000
2.909627 -1.101707 0.141029 46.000000
2.903433 -1.109558 0.140927 36.000000
2.897218 -1.117381 0.140826 47.000000
2.892845 -1.125902 0.140792 43.000000
2.890307 -1.135137 0.140826 43.000000
2.880308 -1.141421 0.140589 41.000000
2.879576 -1.151366 0.140691 43.000000
2.876957 -1.160569 0.140724 48.000000
2.877085 -1.170897 0.140860 33.000000
2.883649 -1.183895 0.141232 43.000000
2.880003 -1.192736 0.141232 39.000000
2.877253 -1.201952 0.141266 40.000000
2.876314 -1.211938 0.141368 30.000000
2.871663 -1.220366 0.141334 41.000000
2.866068 -1.228382 0.141266 40.000000
2.864121 -1.237963 0.141334 37.000000
2.860309 -1.246744 0.141334 28.000000
2.856471 -1.255513 0.141334 36.000000
2.859915 -1.267512 0.141605 30.000000
2.862400 -1.279135 0.141842 19.000000
2.878507 -1.296945 0.142586 6.000000
2.873605 -1.305357 0.142552 9.000000
3.024149 -0.448625 0.102014 8.000000
3.043518 -0.461038 0.102469 24.000000
3.030232 -0.468544 0.102209 21.000000
3.030756 -0.478150 0.102252 26.000000
3.036185 -0.488555 0.102404 29.000000
3.030725 -0.497221 0.102317 37.000000
3.028199 -0.506353 0.102296 40.000000
3.027617 -0.515808 0.102317 32.000000
3.022080 -0.524412 0.102231 51.000000
3.023411 -0.534202 0.102296 49.000000
3.016837 -0.542592 0.102187 36.000000
3.014175 -0.551666 0.102166 47.000000
3.013451 -0.561093 0.102187 48.000000
3.014663 -0.570892 0.102252 37.000000
3.008970 -0.579384 0.102166 40.000000
3.012084 -0.589571 0.102274 27.000000
3.005358 -0.597836 0.102166 35.000000
3.001550 -0.606658 0.102122 36.000000
3.001633 -0.616265 0.102166 34.000000
2.988962 -0.623230 0.101928 47.000000
2.984101 -0.631777 0.101863 38.000000
2.984104 -0.641349 0.101906 41.000000
2.980169 -0.650075 0.101863 23.000000
2.984994 -0.660725 0.102014 28.000000
2.987830 -0.670973 0.102122 40.000000
2.988682 -0.680802 0.102187 48.000000
2.991451 -0.691091 0.102296 46.000000
2.987369 -0.699810 0.102252 38.000000
2.987154 -0.709433 0.102296 46.000000
2.990796 -0.719996 0.102425 21.000000
2.978859 -0.726802 0.102209 43.000000
2.973703 -0.735219 0.102144 31.000000
2.964644 -0.742641 0.101993 41.000000
2.962352 -0.751733 0.101993 35.000000
2.962937 -0.761563 0.102058 37.000000
2.959619 -0.770398 0.102036 38.000000
2.956275 -0.779220 0.102014 26.000000
2.957735 -0.789316 0.102101 40.000000
2.957229 -0.798907 0.102144 43.000000
2.958622 -0.809029 0.102231 40.000000
2.956126 -0.818103 0.102231 28.000000
2.956491 -0.827976 0.102296 42.000000
2.951051 -0.836226 0.102231 34.000000
2.948472 -0.845275 0.102231 36.000000
2.943944 -0.853761 0.102187 35.000000
2.941311 -0.862789 0.102187 46.000000
2.941526 -0.872661 0.102252 30.000000
2.941707 -0.882542 0.102317 40.000000
2.930375 -0.888954 0.102122 30.000000
2.935281 -0.900282 0.102296 32.000000
2.932505 -0.909283 0.102296 42.000000
2.927794 -0.917678 0.102252 44.000000
2.924011 -0.926355 0.102231 50.000000
2.919251 -0.934712 0.102187 39.000000
2.917321 -0.943972 0.102209 35.000000
2.915361 -0.953228 0.102231 33.000000
2.910524 -0.961541 0.102187 37.000000
2.911355 -0.971730 0.102274 42.000000
2.912149 -0.981934 0.102361 46.000000
2.906284 -0.989898 0.102296 45.000000
2.903233 -0.998809 0.102296 35.000000
2.901100 -1.008039 0.102317 33.000000
2.900824 -1.017927 0.102382 42.000000
2.907112 -1.030158 0.102599 27.000000
2.898289 -1.037053 0.102469 38.000000
2.896034 -1.046279 0.102490 44.000000
2.899386 -1.057555 0.102642 45.000000
2.898005 -1.067135 0.102685 32.000000
2.892843 -1.075325 0.102642 38.000000
2.888594 -1.083845 0.102620 45.000000
2.887125 -1.093409 0.102663 35.000000
2.876285 -1.099409 0.102490 47.000000
2.875697 -1.109306 0.102555 45.000000
2.870417 -1.117399 0.102512 35.000000
2.877213 -1.130217 0.102750 25.000000
2.865366 -1.135726 0.102555 36.000000
2.866510 -1.146366 0.102663 22.000000
2.855561 -1.152165 0.102490 41.000000
2.859422 -1.163933 0.102663 29.000000
2.856763 -1.173080 0.102685 36.000000
2.854998 -1.182603 0.102728 40.000000
2.849511 -1.190586 0.102685 31.000000
2.851374 -1.201651 0.102815 32.000000
2.844913 -1.209221 0.102750 35.000000
2.843947 -1.219124 0.102815 42.000000
2.837440 -1.226654 0.102750 30.000000
2.821747 -1.230164 0.102469 24.000000
2.817044 -1.238413 0.102447 37.000000
2.817802 -1.249074 0.102555 31.000000
2.820347 -1.260566 0.102707 16.000000
2.862961 -1.290144 0.103810 6.000000
3.026081 -0.439739 0.064321 18.000000
3.032631 -0.450196 0.064395 23.000000
3.024315 -0.458448 0.064330 44.000000
3.020918 -0.467418 0.064311 46.000000
3.018482 -0.476528 0.064302 36.000000
3.018980 -0.486105 0.064321 67.000000
3.020435 -0.495851 0.064348 48.000000
3.011996 -0.503959 0.064284 46.000000
3.010435 -0.513197 0.064284 47.000000
3.005891 -0.521917 0.064256 45.000000
3.000337 -0.530440 0.064219 55.000000
3.000664 -0.539997 0.064237 63.000000
2.993092 -0.548119 0.064182 49.000000
2.987464 -0.556566 0.064145 50.000000
2.989672 -0.566473 0.064182 43.000000
2.983993 -0.574886 0.064145 39.000000
2.985159 -0.584615 0.064173 52.000000
2.983351 -0.593770 0.064173 33.000000
2.982496 -0.603119 0.064182 74.000000
2.985528 -0.613273 0.064228 43.000000
2.983633 -0.622429 0.064228 55.000000
2.978775 -0.630958 0.064200 37.000000
2.975847 -0.639883 0.064191 39.000000
2.970939 -0.648370 0.064163 54.000000
2.969912 -0.657698 0.064173 48.000000
2.968856 -0.667026 0.064182 44.000000
2.965821 -0.675909 0.064173 49.000000
2.963733 -0.685005 0.064173 64.000000
2.961618 -0.694094 0.064173 47.000000
2.959475 -0.703177 0.064173 63.000000
2.962164 -0.713424 0.064219 55.000000
2.958019 -0.722034 0.064200 45.000000
2.953848 -0.730626 0.064182 46.000000
2.953532 -0.740171 0.064200 40.000000
2.951247 -0.749229 0.064200 48.000000
2.951840 -0.759027 0.064228 42.000000
2.941756 -0.766062 0.064154 30.000000
2.941326 -0.775594 0.064173 52.000000
2.937001 -0.784098 0.064154 44.000000
2.936512 -0.793627 0.064173 50.000000
2.934063 -0.802633 0.064173 45.000000
2.932551 -0.811897 0.064182 44.000000
2.931972 -0.821430 0.064200 53.000000
2.935210 -0.832059 0.064256 58.000000
2.937449 -0.842439 0.064302 49.000000
2.932930 -0.850889 0.064284 55.000000
2.925509 -0.858475 0.064237 41.000000
2.923820 -0.867731 0.064247 56.000000
2.912524 -0.874109 0.064163 43.000000
2.906959 -0.882169 0.064136 40.000000
2.902326 -0.890496 0.064117 48.000000
2.896716 -0.898507 0.064089 37.000000
2.895854 -0.907988 0.064108 43.000000
2.899727 -0.918984 0.064173 44.000000
2.901655 -0.929402 0.064219 48.000000
2.904498 -0.940148 0.064274 52.000000
2.897798 -0.947810 0.064237 39.000000
2.893928 -0.956382 0.064228 69.000000
2.896671 -0.967157 0.064284 26.000000
2.900322 -0.978277 0.064348 30.000000
2.891628 -0.985235 0.064293 39.000000
2.889537 -0.994428 0.064302 54.000000
2.890251 -1.004601 0.064339 55.000000
2.889986 -1.014458 0.064367 36.000000
2.886860 -1.023319 0.064367 51.000000
2.881824 -1.031497 0.064348 50.000000
2.873003 -1.038294 0.064293 47.000000
2.871683 -1.047789 0.064311 66.000000
2.860949 -1.053828 0.064237 34.000000
2.865200 -1.065389 0.064311 48.000000
2.861918 -1.074175 0.064311 56.000000
2.858609 -1.082950 0.064311 52.000000
2.855273 -1.091715 0.064311 40.000000
2.856574 -1.102270 0.064358 60.000000
2.851316 -1.110303 0.064339 57.000000
2.850688 -1.120143 0.064367 59.000000
2.846308 -1.128515 0.064358 43.000000
2.845618 -1.138356 0.064385 56.000000
2.844894 -1.148204 0.064413 58.000000
2.840432 -1.156550 0.064404 45.000000
2.835945 -1.164878 0.064395 52.000000
2.838824 -1.176254 0.064459 46.000000
2.834280 -1.184572 0.064450 49.000000
2.838003 -1.196370 0.064524 55.000000
2.836160 -1.205854 0.064543 40.000000
2.834285 -1.215338 0.064561 50.000000
2.834214 -1.225616 0.064598 35.000000
2.829524 -1.233905 0.064589 39.000000
2.829386 -1.244191 0.064626 31.000000
2.826470 -1.253271 0.064635 41.000000
2.822612 -1.261937 0.064635 31.000000
2.822373 -1.272235 0.064672 31.000000
2.814815 -1.279232 0.064635 42.000000
2.819059 -1.291612 0.064718 27.000000
2.834146 -1.309062 0.064913 6.000000
3.024877 -0.420319 0.026105 22.000000
3.019613 -0.429036 0.026118 28.000000
3.017293 -0.438155 0.026122 30.000000
3.020881 -0.448142 0.026105 36.000000
3.017514 -0.457109 0.026112 30.000000
3.005226 -0.464687 0.026148 67.000000
3.003786 -0.473905 0.026148 29.000000
2.997381 -0.482326 0.026165 33.000000
2.994901 -0.491358 0.026168 34.000000
2.984502 -0.499063 0.026198 28.000000
2.979013 -0.507547 0.026211 34.000000
2.976457 -0.516513 0.026214 46.000000
2.974858 -0.525642 0.026214 45.000000
2.974216 -0.534943 0.026211 39.000000
2.968626 -0.543347 0.026224 31.000000
2.964979 -0.552087 0.026231 35.000000
2.967201 -0.561923 0.026218 49.000000
2.966445 -0.571212 0.026214 34.000000
2.969586 -0.581269 0.026198 40.000000
2.966808 -0.590182 0.026201 53.000000
2.964983 -0.599282 0.026201 36.000000
2.965090 -0.608777 0.026195 40.000000
2.964187 -0.618074 0.026191 37.000000
2.961299 -0.626959 0.026195 41.000000
2.956428 -0.635412 0.026204 48.000000
2.948602 -0.643202 0.026224 55.000000
2.948568 -0.652677 0.026218 45.000000
2.943624 -0.661064 0.026228 37.000000
2.939632 -0.669648 0.026234 42.000000
2.934641 -0.677990 0.026244 45.000000
2.932547 -0.686990 0.026244 29.000000
2.936263 -0.697368 0.026224 42.000000
2.937027 -0.707074 0.026214 43.000000
2.932901 -0.715608 0.026221 46.000000
2.934575 -0.725561 0.026208 44.000000
2.938156 -0.736016 0.026188 47.000000
2.939761 -0.746009 0.026175 41.000000
2.937459 -0.755025 0.026175 39.000000
2.926418 -0.761770 0.026204 45.000000
2.921166 -0.769981 0.026214 41.000000
2.921689 -0.779711 0.026204 45.000000
2.919283 -0.788671 0.026204 58.000000
2.913956 -0.796834 0.026214 46.000000
2.913425 -0.806303 0.026208 48.000000
2.911901 -0.815506 0.026204 44.000000
2.915158 -0.826070 0.026185 27.000000
2.907803 -0.833633 0.026201 40.000000
2.904272 -0.842272 0.026204 26.000000
2.893996 -0.848930 0.026231 42.000000
2.890419 -0.857520 0.026234 46.000000
2.887775 -0.866384 0.026234 50.000000
2.882232 -0.874369 0.026244 32.000000
2.888141 -0.885844 0.026214 38.000000
2.890187 -0.896179 0.026198 36.000000
2.882652 -0.903548 0.026214 53.000000
2.885587 -0.914198 0.026195 40.000000
2.890388 -0.925483 0.026168 30.000000
2.877069 -0.930964 0.026204 57.000000
2.873248 -0.939476 0.026208 48.000000
2.866554 -0.947033 0.026221 51.000000
2.858891 -0.954242 0.026238 32.000000
2.859741 -0.964285 0.026224 39.000000
2.842569 -0.968223 0.026274 27.000000
2.850933 -0.980839 0.026234 37.000000
2.854524 -0.991876 0.026211 58.000000
2.846749 -0.998975 0.026228 37.000000
2.844613 -1.008037 0.026224 41.000000
2.844332 -1.017769 0.026214 47.000000
2.841196 -1.026491 0.026214 45.000000
2.843671 -1.037257 0.026195 41.000000
2.846107 -1.048047 0.026175 55.000000
2.845690 -1.057818 0.026165 41.000000
2.848986 -1.069000 0.026141 46.000000
2.847564 -1.078444 0.026135 47.000000
2.844242 -1.087175 0.026135 63.000000
2.840893 -1.095896 0.026135 47.000000
2.838450 -1.104969 0.026132 51.000000
2.835977 -1.114037 0.026128 39.000000
2.835335 -1.123837 0.026118 31.000000
2.830946 -1.132159 0.026122 45.000000
2.828386 -1.141213 0.026118 41.000000
2.828577 -1.151392 0.026105 41.000000
2.826882 -1.160823 0.026098 47.000000
2.827003 -1.171020 0.026085 54.000000
2.817860 -1.177376 0.026105 40.000000
2.817921 -1.187568 0.026092 38.000000
2.816106 -1.196989 0.026085 37.000000
2.812420 -1.205623 0.026085 43.000000
2.804118 -1.212263 0.026102 42.000000
2.795801 -1.218864 0.026118 38.000000
2.794796 -1.228642 0.026108 29.000000
2.790099 -1.236806 0.026112 42.000000
2.788117 -1.246175 0.026105 53.000000
2.784281 -1.254723 0.026105 50.000000
2.772223 -1.259540 0.026135 28.000000
2.760162 -1.264294 0.026165 15.000000
2.737201 -1.263960 0.026234 7.000000
2.976167 -0.440750 -0.010835 51.000000
2.980732 -0.450777 -0.010929 43.000000
2.976371 -0.459462 -0.010882 36.000000
2.979886 -0.469369 -0.010961 50.000000
2.979419 -0.478668 -0.010976 37.000000
2.979910 -0.488130 -0.011008 59.000000
2.974453 -0.496611 -0.010945 47.000000
2.971930 -0.505566 -0.010929 48.000000
2.965439 -0.513827 -0.010851 45.000000
2.961880 -0.522575 -0.010819 56.000000
2.958294 -0.531306 -0.010788 52.000000
2.952716 -0.539660 -0.010725 57.000000
2.949080 -0.548350 -0.010694 45.000000
2.950331 -0.557953 -0.010741 68.000000
2.948606 -0.567002 -0.010741 65.000000
2.943909 -0.575469 -0.010694 60.000000
2.940168 -0.584109 -0.010662 58.000000
2.937382 -0.592928 -0.010647 66.000000
2.938488 -0.602540 -0.010694 67.000000
2.937604 -0.611756 -0.010709 64.000000
2.935713 -0.620766 -0.010709 47.000000
2.932817 -0.629560 -0.010694 53.000000
2.928918 -0.638129 -0.010662 60.000000
2.931828 -0.648191 -0.010741 65.000000
2.926899 -0.656526 -0.010694 45.000000
2.921946 -0.664837 -0.010647 47.000000
2.915021 -0.672673 -0.010568 61.000000
2.912944 -0.681613 -0.010568 47.000000
2.914731 -0.691470 -0.010631 51.000000
2.911623 -0.700176 -0.010615 60.000000
2.912376 -0.709816 -0.010662 64.000000
2.915038 -0.719947 -0.010741 62.000000
2.912815 -0.728886 -0.010741 59.000000
2.921226 -0.740523 -0.010914 52.000000
2.917004 -0.748985 -0.010882 63.000000
2.909854 -0.756671 -0.010804 50.000000
2.909452 -0.766105 -0.010835 54.000000
2.901292 -0.773481 -0.010741 49.000000
2.899871 -0.782639 -0.010757 51.000000
2.893598 -0.790478 -0.010694 72.000000
2.886341 -0.798018 -0.010615 56.000000
2.883878 -0.806870 -0.010615 58.000000
2.880428 -0.815441 -0.010599 46.000000
2.876951 -0.823999 -0.010584 52.000000
2.877291 -0.833657 -0.010631 35.000000
2.868963 -0.840792 -0.010537 50.000000
2.867328 -0.849874 -0.010552 44.000000
2.864707 -0.858667 -0.010552 53.000000
2.863016 -0.867742 -0.010568 51.000000
2.864165 -0.877694 -0.010631 55.000000
2.863369 -0.887069 -0.010662 60.000000
2.860634 -0.895849 -0.010662 50.000000
2.863591 -0.906433 -0.010757 57.000000
2.862701 -0.915823 -0.010788 52.000000
2.861780 -0.925217 -0.010819 58.000000
2.862730 -0.935235 -0.010882 55.000000
2.858898 -0.943700 -0.010866 48.000000
2.855041 -0.952150 -0.010851 60.000000
2.851159 -0.960585 -0.010835 53.000000
2.846305 -0.968683 -0.010804 35.000000
2.840483 -0.976436 -0.010757 62.000000
2.838419 -0.985474 -0.010772 54.000000
2.828778 -0.991860 -0.010662 57.000000
2.825721 -1.000534 -0.010662 43.000000
2.824521 -1.009872 -0.010694 64.000000
2.825171 -1.019892 -0.010757 68.000000
2.825787 -1.029924 -0.010819 51.000000
2.824490 -1.039280 -0.010851 70.000000
2.823163 -1.048637 -0.010882 51.000000
2.820869 -1.057644 -0.010898 52.000000
2.819481 -1.067002 -0.010929 55.000000
2.816194 -1.075647 -0.010929 46.000000
2.810082 -1.083202 -0.010882 46.000000
2.812337 -1.093994 -0.010976 68.000000
2.814551 -1.104810 -0.011071 53.000000
2.813008 -1.114176 -0.011102 51.000000
2.813290 -1.124286 -0.011165 59.000000
2.814464 -1.134782 -0.011243 53.000000
2.814674 -1.144918 -0.011306 60.000000
2.815773 -1.155447 -0.011385 69.000000
2.810367 -1.163315 -0.011353 49.000000
2.805862 -1.171546 -0.011338 45.000000
2.803176 -1.180537 -0.011353 57.000000
2.797701 -1.188350 -0.011322 47.000000
2.791284 -1.195746 -0.011275 64.000000
2.783014 -1.202320 -0.011196 43.000000
2.775645 -1.209255 -0.011133 40.000000
2.772838 -1.218167 -0.011149 36.000000
2.770002 -1.227073 -0.011165 40.000000
2.768963 -1.236790 -0.011212 38.000000
2.762420 -1.244047 -0.011165 33.000000
2.755860 -1.251275 -0.011118 12.000000
2.711098 -1.240992 -0.010411 8.000000
2.940632 -0.436268 -0.045902 33.000000
2.939280 -0.445288 -0.045902 25.000000
2.939876 -0.454608 -0.045957 37.000000
2.944392 -0.464558 -0.046124 30.000000
2.942953 -0.473589 -0.046124 34.000000
2.944445 -0.483100 -0.046207 38.000000
2.942950 -0.492131 -0.046207 45.000000
2.936498 -0.500320 -0.046068 34.000000
2.941844 -0.510521 -0.046262 38.000000
2.932389 -0.518155 -0.046040 34.000000
2.928818 -0.526796 -0.045985 29.000000
2.931121 -0.536497 -0.046096 25.000000
2.929461 -0.545487 -0.046096 49.000000
2.926792 -0.554287 -0.046068 35.000000
2.927041 -0.563641 -0.046124 34.000000
2.921373 -0.571851 -0.046013 42.000000
2.921566 -0.581201 -0.046068 52.000000
2.917809 -0.589766 -0.046013 37.000000
2.911090 -0.597712 -0.045874 28.000000
2.912179 -0.607251 -0.045957 40.000000
2.911280 -0.616389 -0.045985 37.000000
2.906443 -0.624689 -0.045902 49.000000
2.904513 -0.633603 -0.045902 33.000000
2.908412 -0.643805 -0.046068 36.000000
2.904472 -0.652287 -0.046013 48.000000
2.904407 -0.661638 -0.046068 45.000000
2.899441 -0.669872 -0.045985 53.000000
2.896399 -0.678536 -0.045957 40.000000
2.898194 -0.688342 -0.046068 30.000000
2.894125 -0.696763 -0.046013 46.000000
2.887117 -0.704456 -0.045874 44.000000
2.884943 -0.713310 -0.045874 48.000000
2.885650 -0.722885 -0.045957 40.000000
2.887295 -0.732717 -0.046068 46.000000
2.889874 -0.742814 -0.046207 42.000000
2.878874 -0.749413 -0.045957 33.000000
2.882362 -0.759768 -0.046124 31.000000
2.888710 -0.770924 -0.046373 38.000000
2.886332 -0.779783 -0.046373 46.000000
2.880069 -0.787581 -0.046262 43.000000
2.872821 -0.795082 -0.046124 38.000000
2.870368 -0.803892 -0.046124 27.000000
2.865003 -0.811878 -0.046040 30.000000
2.859616 -0.819839 -0.045957 48.000000
2.853246 -0.827496 -0.045846 40.000000
2.846857 -0.835121 -0.045735 44.000000
2.844281 -0.843852 -0.045735 41.000000
2.841679 -0.852574 -0.045735 44.000000
2.840964 -0.861867 -0.045791 37.000000
2.836394 -0.869994 -0.045735 55.000000
2.832757 -0.878396 -0.045707 37.000000
2.835773 -0.888874 -0.045874 39.000000
2.835892 -0.898475 -0.045957 33.000000
2.837882 -0.908693 -0.046096 46.000000
2.838886 -0.918625 -0.046207 30.000000
2.841755 -0.929192 -0.046373 33.000000
2.839841 -0.938219 -0.046401 39.000000
2.837897 -0.947243 -0.046429 51.000000
2.829294 -0.954031 -0.046262 42.000000
2.824461 -0.962063 -0.046207 48.000000
2.820551 -0.970399 -0.046179 33.000000
2.810950 -0.976754 -0.045985 32.000000
2.806053 -0.984712 -0.045929 57.000000
2.804904 -0.993983 -0.045985 37.000000
2.797134 -1.000902 -0.045846 43.000000
2.799692 -1.011514 -0.046013 33.000000
2.798454 -1.020783 -0.046068 46.000000
2.794371 -1.029019 -0.046040 45.000000
2.794012 -1.038631 -0.046124 29.000000
2.794557 -1.048601 -0.046234 42.000000
2.793196 -1.057877 -0.046290 46.000000
2.795541 -1.068581 -0.046456 45.000000
2.787585 -1.075355 -0.046318 33.000000
2.788931 -1.085714 -0.046456 44.000000
2.785587 -1.094265 -0.046456 42.000000
2.782217 -1.102806 -0.046456 44.000000
2.781606 -1.112449 -0.046540 54.000000
2.780961 -1.122098 -0.046623 40.000000
2.780283 -1.131755 -0.046706 39.000000
2.774949 -1.139520 -0.046651 34.000000
2.776058 -1.149939 -0.046789 41.000000
2.775284 -1.159606 -0.046873 44.000000
2.766186 -1.165788 -0.046706 39.000000
2.761676 -1.173878 -0.046678 46.000000
2.754386 -1.180771 -0.046567 46.000000
2.747998 -1.188027 -0.046484 53.000000
2.757170 -1.202040 -0.046873 21.000000
2.745232 -1.206876 -0.046623 38.000000
2.739689 -1.214483 -0.046567 39.000000
2.742339 -1.225735 -0.046762 25.000000
2.734008 -1.232091 -0.046623 20.000000
2.922066 -0.423574 -0.082288 32.000000
2.922730 -0.432830 -0.082368 37.000000
2.920400 -0.441645 -0.082328 29.000000
2.920019 -0.450755 -0.082368 39.000000
2.921584 -0.460178 -0.082489 35.000000
2.921145 -0.469298 -0.082530 52.000000
2.924621 -0.479066 -0.082731 65.000000
2.918210 -0.487213 -0.082530 51.000000
2.917686 -0.496331 -0.082570 46.000000
2.915165 -0.505110 -0.082530 65.000000
2.910650 -0.513530 -0.082409 56.000000
2.909061 -0.522457 -0.082409 48.000000
2.908427 -0.531559 -0.082449 54.000000
2.903836 -0.539931 -0.082328 49.000000
2.899220 -0.548280 -0.082207 69.000000
2.897525 -0.557172 -0.082207 51.000000
2.895802 -0.566059 -0.082207 44.000000
2.896011 -0.575330 -0.082288 47.000000
2.895212 -0.584410 -0.082328 50.000000
2.889490 -0.592487 -0.082167 56.000000
2.887659 -0.601349 -0.082167 53.000000
2.888733 -0.610826 -0.082288 53.000000
2.883915 -0.619056 -0.082167 42.000000
2.882002 -0.627901 -0.082167 47.000000
2.882013 -0.637171 -0.082247 65.000000
2.880045 -0.646010 -0.082247 59.000000
2.884869 -0.656395 -0.082530 61.000000
2.884789 -0.665693 -0.082610 42.000000
2.880787 -0.674084 -0.082530 57.000000
2.881622 -0.683612 -0.082650 68.000000
2.880483 -0.692683 -0.082691 51.000000
2.875432 -0.700806 -0.082570 62.000000
2.872298 -0.709385 -0.082530 47.000000
2.871078 -0.718437 -0.082570 63.000000
2.869828 -0.727487 -0.082610 51.000000
2.869519 -0.736786 -0.082691 60.000000
2.866278 -0.745334 -0.082650 51.000000
2.864944 -0.754379 -0.082691 59.000000
2.863581 -0.763422 -0.082731 60.000000
2.859297 -0.771683 -0.082650 55.000000
2.851133 -0.778871 -0.082409 42.000000
2.846804 -0.787082 -0.082328 46.000000
2.843413 -0.795542 -0.082288 47.000000
2.841921 -0.804534 -0.082328 53.000000
2.839439 -0.813250 -0.082328 50.000000
2.835971 -0.821679 -0.082288 55.000000
2.832478 -0.830095 -0.082247 52.000000
2.836623 -0.840769 -0.082530 55.000000
2.839773 -0.851190 -0.082771 81.000000
2.834280 -0.859028 -0.082650 50.000000
2.829720 -0.867134 -0.082570 62.000000
2.827047 -0.875811 -0.082570 56.000000
2.826254 -0.885078 -0.082650 47.000000
2.826382 -0.894650 -0.082771 44.000000
2.821721 -0.902707 -0.082691 38.000000
2.820840 -0.911975 -0.082771 45.000000
2.822778 -0.922177 -0.082973 47.000000
2.824679 -0.932399 -0.083174 53.000000
2.823701 -0.941693 -0.083255 50.000000
2.820798 -0.950352 -0.083255 65.000000
2.814086 -0.957713 -0.083094 55.000000
2.811135 -0.966343 -0.083094 60.000000
2.804381 -0.973651 -0.082933 61.000000
2.794781 -0.979935 -0.082650 63.000000
2.789877 -0.987837 -0.082570 51.000000
2.780248 -0.994036 -0.082288 52.000000
2.777185 -1.002561 -0.082288 67.000000
2.774096 -1.011077 -0.082288 41.000000
2.770044 -1.019238 -0.082247 42.000000
2.768777 -1.028427 -0.082328 42.000000
2.767480 -1.037619 -0.082409 50.000000
2.769890 -1.048227 -0.082650 49.000000
2.771328 -1.058503 -0.082852 54.000000
2.768068 -1.067001 -0.082852 51.000000
2.766643 -1.076213 -0.082933 35.000000
2.767979 -1.086522 -0.083134 44.000000
2.765561 -1.095377 -0.083174 64.000000
2.764043 -1.104598 -0.083255 57.000000
2.760641 -1.113073 -0.083255 57.000000
2.760916 -1.123043 -0.083416 46.000000
2.759306 -1.132267 -0.083497 53.000000
2.758589 -1.141874 -0.083618 59.000000
2.755073 -1.150332 -0.083618 70.000000
2.751530 -1.158779 -0.083618 43.000000
2.747962 -1.167215 -0.083618 49.000000
2.744368 -1.175640 -0.083618 49.000000
2.737080 -1.182469 -0.083457 52.000000
2.732523 -1.190462 -0.083416 53.000000
2.730688 -1.199643 -0.083497 45.000000
2.726081 -1.207610 -0.083457 39.000000
2.719626 -1.214745 -0.083336 32.000000
2.714975 -1.222673 -0.083295 31.000000
2.711212 -1.230997 -0.083295 11.000000
2.921135 -0.425265 -0.117698 30.000000
2.914877 -0.433492 -0.117436 41.000000
2.911559 -0.442134 -0.117332 42.000000
2.910189 -0.451064 -0.117332 35.000000
2.904845 -0.459368 -0.117122 32.000000
2.902436 -0.468119 -0.117070 40.000000
2.901972 -0.477183 -0.117122 59.000000
2.899510 -0.485919 -0.117070 42.000000
2.897021 -0.494645 -0.117017 40.000000
2.894506 -0.503360 -0.116965 34.000000
2.893931 -0.512411 -0.117017 40.000000
2.892345 -0.521287 -0.117017 29.000000
2.888768 -0.529799 -0.116913 41.000000
2.883202 -0.537928 -0.116703 39.000000
2.878594 -0.546214 -0.116546 49.000000
2.873963 -0.554476 -0.116389 31.000000
2.875189 -0.563866 -0.116546 38.000000
2.873445 -0.572684 -0.116546 48.000000
2.871675 -0.581497 -0.116546 56.000000
2.871834 -0.590706 -0.116651 35.000000
2.868053 -0.599107 -0.116546 47.000000
2.866201 -0.607903 -0.116546 32.000000
2.864322 -0.616693 -0.116546 36.000000
2.859490 -0.624840 -0.116389 53.000000
2.857559 -0.633610 -0.116389 44.000000
2.859500 -0.643249 -0.116599 29.000000
2.854592 -0.651353 -0.116442 40.000000
2.853553 -0.660333 -0.116494 42.000000
2.848597 -0.668401 -0.116337 51.000000
2.847504 -0.677368 -0.116389 47.000000
2.845413 -0.686101 -0.116389 62.000000
2.840384 -0.694117 -0.116232 58.000000
2.841149 -0.703547 -0.116389 44.000000
2.838978 -0.712260 -0.116389 44.000000
2.841619 -0.722195 -0.116651 30.000000
2.841324 -0.731406 -0.116756 33.000000
2.841000 -0.740623 -0.116860 46.000000
2.839680 -0.749590 -0.116913 44.000000
2.839296 -0.758813 -0.117017 51.000000
2.835027 -0.767000 -0.116913 43.000000
2.830734 -0.775167 -0.116808 42.000000
2.828342 -0.783848 -0.116808 34.000000
2.824001 -0.791983 -0.116703 42.000000
2.821558 -0.800643 -0.116703 51.000000
2.819088 -0.809296 -0.116703 50.000000
2.817551 -0.818219 -0.116756 48.000000
2.815028 -0.826859 -0.116756 41.000000
2.816307 -0.836628 -0.116965 37.000000
2.810858 -0.844404 -0.116808 35.000000
2.808254 -0.853023 -0.116808 41.000000
2.807533 -0.862220 -0.116913 42.000000
2.803921 -0.870534 -0.116860 41.000000
2.800284 -0.878833 -0.116808 38.000000
2.794719 -0.886516 -0.116651 29.000000
2.798643 -0.897217 -0.117017 55.000000
2.798728 -0.906721 -0.117174 44.000000
2.799730 -0.916545 -0.117384 56.000000
2.798801 -0.925756 -0.117489 44.000000
2.795948 -0.934338 -0.117489 40.000000
2.797799 -0.944507 -0.117750 47.000000
2.792998 -0.952442 -0.117646 38.000000
2.791007 -0.961331 -0.117698 38.000000
2.785215 -0.968906 -0.117541 44.000000
2.781287 -0.977116 -0.117489 41.000000
2.775452 -0.984644 -0.117332 44.000000
2.769597 -0.992145 -0.117174 45.000000
2.767480 -1.000977 -0.117227 38.000000
2.764396 -1.009462 -0.117227 51.000000
2.763160 -1.018629 -0.117332 35.000000
2.762830 -1.028145 -0.117489 54.000000
2.760597 -1.036967 -0.117541 50.000000
2.759271 -1.046139 -0.117646 45.000000
2.755116 -1.054243 -0.117593 58.000000
2.750005 -1.061972 -0.117489 37.000000
2.746734 -1.070404 -0.117489 53.000000
2.745296 -1.079556 -0.117593 39.000000
2.743828 -1.088709 -0.117698 43.000000
2.742329 -1.097863 -0.117803 43.000000
2.741727 -1.107392 -0.117960 43.000000
2.743866 -1.118057 -0.118274 44.000000
2.740423 -1.126470 -0.118274 44.000000
2.736954 -1.134872 -0.118274 43.000000
2.730695 -1.142109 -0.118117 45.000000
2.724417 -1.149318 -0.117960 39.000000
2.719959 -1.157280 -0.117907 44.000000
2.713643 -1.164439 -0.117750 32.000000
2.710974 -1.173155 -0.117803 46.000000
2.707362 -1.181467 -0.117803 38.000000
2.706467 -1.190973 -0.117960 31.000000
2.706453 -1.200890 -0.118169 33.000000
2.704579 -1.210002 -0.118274 32.000000
2.703586 -1.219525 -0.118431 35.000000
2.715288 -1.234835 -0.119320 12.000000
2.912703 -0.413095 -0.153552 30.000000
2.912409 -0.422173 -0.153617 33.000000
2.910113 -0.430960 -0.153552 39.000000
2.906804 -0.439587 -0.153423 35.000000
2.906428 -0.448655 -0.153487 46.000000
2.901095 -0.456948 -0.153228 45.000000
2.893768 -0.464896 -0.152840 34.000000
2.895282 -0.474256 -0.153034 45.000000
2.888892 -0.482314 -0.152711 61.000000
2.883464 -0.490505 -0.152452 29.000000
2.879979 -0.499008 -0.152323 49.000000
2.875486 -0.507321 -0.152128 33.000000
2.874898 -0.516317 -0.152193 41.000000
2.869375 -0.524417 -0.151934 60.000000
2.863827 -0.532487 -0.151675 60.000000
2.862180 -0.541270 -0.151675 59.000000
2.861486 -0.550238 -0.151740 63.000000
2.861743 -0.559397 -0.151870 56.000000
2.857078 -0.567590 -0.151675 60.000000
2.856301 -0.576551 -0.151740 62.000000
2.853541 -0.585110 -0.151675 42.000000
2.853687 -0.594269 -0.151805 63.000000
2.852826 -0.603228 -0.151870 46.000000
2.849987 -0.611768 -0.151805 65.000000
2.845171 -0.619871 -0.151611 50.000000
2.842282 -0.628381 -0.151546 52.000000
2.844235 -0.637973 -0.151805 60.000000
2.843238 -0.646917 -0.151870 49.000000
2.838322 -0.654964 -0.151675 53.000000
2.834356 -0.663213 -0.151546 34.000000
2.838134 -0.673289 -0.151934 54.000000
2.835085 -0.681759 -0.151870 42.000000
2.835888 -0.691163 -0.152064 53.000000
2.830848 -0.699142 -0.151870 74.000000
2.825786 -0.707097 -0.151675 61.000000
2.825538 -0.716254 -0.151805 46.000000
2.824293 -0.725167 -0.151870 57.000000
2.819158 -0.733075 -0.151675 38.000000
2.820756 -0.742737 -0.151934 49.000000
2.821357 -0.752159 -0.152128 45.000000
2.819036 -0.760812 -0.152128 68.000000
2.821501 -0.770772 -0.152452 48.000000
2.822970 -0.780489 -0.152711 31.000000
2.818640 -0.788608 -0.152581 47.000000
2.817168 -0.797524 -0.152646 48.000000
2.814708 -0.806163 -0.152646 35.000000
2.812222 -0.814794 -0.152646 47.000000
2.808751 -0.823138 -0.152581 58.000000
2.806212 -0.831751 -0.152581 56.000000
2.799824 -0.839210 -0.152323 68.000000
2.793416 -0.846637 -0.152064 51.000000
2.787944 -0.854326 -0.151870 35.000000
2.787215 -0.863466 -0.151999 47.000000
2.786458 -0.872610 -0.152128 70.000000
2.785671 -0.881757 -0.152258 59.000000
2.784853 -0.890907 -0.152387 54.000000
2.784006 -0.900061 -0.152517 65.000000
2.783128 -0.909218 -0.152646 71.000000
2.783168 -0.918691 -0.152840 52.000000
2.783177 -0.928173 -0.153034 51.000000
2.778425 -0.936070 -0.152905 63.000000
2.775540 -0.944590 -0.152905 56.000000
2.772629 -0.953100 -0.152905 54.000000
2.772519 -0.962584 -0.153099 51.000000
2.771437 -0.971746 -0.153228 50.000000
2.764680 -0.978912 -0.152970 59.000000
2.759784 -0.986717 -0.152840 51.000000
2.756744 -0.995179 -0.152840 55.000000
2.753678 -1.003632 -0.152840 51.000000
2.751522 -1.012420 -0.152905 48.000000
2.745597 -1.019814 -0.152711 54.000000
2.743390 -1.028583 -0.152775 46.000000
2.741154 -1.037348 -0.152840 57.000000
2.738891 -1.046109 -0.152905 52.000000
2.736600 -1.054866 -0.152970 59.000000
2.734281 -1.063619 -0.153034 53.000000
2.731005 -1.072003 -0.153034 46.000000
2.728631 -1.080744 -0.153099 57.000000
2.724376 -1.088740 -0.153034 48.000000
2.723799 -1.098213 -0.153228 46.000000
2.721341 -1.106940 -0.153293 58.000000
2.719779 -1.116042 -0.153423 48.000000
2.715420 -1.123999 -0.153358 57.000000
2.711959 -1.132324 -0.153358 44.000000
2.709392 -1.141026 -0.153423 50.000000
2.705878 -1.149333 -0.153423 36.000000
2.699588 -1.156450 -0.153228 57.000000
2.696027 -1.164727 -0.153228 49.000000
2.694271 -1.173790 -0.153358 58.000000
2.694311 -1.183657 -0.153617 44.000000
2.691579 -1.192321 -0.153681 61.000000
2.691553 -1.202202 -0.153940 48.000000
2.688762 -1.210864 -0.154005 41.000000
2.690486 -1.221583 -0.154393 40.000000
2.890234 -0.411728 -0.186734 35.000000
2.883037 -0.419734 -0.186275 40.000000
2.879763 -0.428284 -0.186122 33.000000
2.877450 -0.436968 -0.186045 36.000000
2.879052 -0.446251 -0.186275 38.000000
2.875699 -0.454771 -0.186122 33.000000
2.867400 -0.462482 -0.185586 37.000000
2.860064 -0.470309 -0.185126 29.000000
2.861558 -0.479575 -0.185356 29.000000
2.854176 -0.487347 -0.184897 46.000000
2.855615 -0.496612 -0.185126 37.000000
2.853095 -0.505197 -0.185050 34.000000
2.850551 -0.513772 -0.184973 36.000000
2.857788 -0.524130 -0.185662 41.000000
2.876751 -0.536727 -0.187270 24.000000
2.856477 -0.542026 -0.185815 34.000000
2.862634 -0.552295 -0.186428 32.000000
2.855055 -0.559926 -0.185968 30.000000
2.845500 -0.567127 -0.185356 31.000000
2.843747 -0.575854 -0.185356 31.000000
2.836107 -0.583373 -0.184897 28.000000
2.832352 -0.591664 -0.184744 36.000000
2.823695 -0.598905 -0.184208 24.000000
2.819895 -0.607147 -0.184055 34.000000
2.821915 -0.616645 -0.184361 32.000000
2.820984 -0.625515 -0.184438 29.000000
2.824888 -0.635477 -0.184897 33.000000
2.820981 -0.643698 -0.184744 30.000000
2.807335 -0.649657 -0.183825 23.000000
2.816978 -0.660995 -0.184744 43.000000
2.821728 -0.671247 -0.185280 37.000000
2.820625 -0.680134 -0.185356 29.000000
2.817556 -0.688548 -0.185280 37.000000
2.810591 -0.695993 -0.184897 40.000000
2.808442 -0.704612 -0.184897 37.000000
2.807234 -0.713470 -0.184973 37.000000
2.809860 -0.723320 -0.185356 36.000000
2.804733 -0.731184 -0.185126 40.000000
2.799584 -0.739023 -0.184897 31.000000
2.801157 -0.748637 -0.185203 26.000000
2.800772 -0.757747 -0.185356 30.000000
2.799396 -0.766599 -0.185433 55.000000
2.792226 -0.773854 -0.185050 36.000000
2.786959 -0.781611 -0.184820 35.000000
2.782629 -0.789614 -0.184667 45.000000
2.781152 -0.798422 -0.184744 45.000000
2.778689 -0.806950 -0.184744 39.000000
2.778114 -0.816033 -0.184897 29.000000
2.776553 -0.824835 -0.184973 40.000000
2.777830 -0.834496 -0.185280 37.000000
2.773348 -0.842435 -0.185126 33.000000
2.768844 -0.850355 -0.184973 37.000000
2.765270 -0.858551 -0.184897 43.000000
2.762623 -0.867030 -0.184897 52.000000
2.759950 -0.875502 -0.184897 43.000000
2.761049 -0.885181 -0.185203 37.000000
2.757372 -0.893341 -0.185126 34.000000
2.757461 -0.902726 -0.185356 34.000000
2.754679 -0.911181 -0.185356 41.000000
2.750925 -0.919313 -0.185280 43.000000
2.744312 -0.926474 -0.184973 52.000000
2.740513 -0.934567 -0.184897 39.000000
2.733861 -0.941673 -0.184591 32.000000
2.730018 -0.949729 -0.184514 53.000000
2.720505 -0.955789 -0.183978 29.000000
2.722259 -0.965796 -0.184361 34.000000
2.720222 -0.974479 -0.184438 43.000000
2.720970 -0.984175 -0.184744 49.000000
2.721685 -0.993885 -0.185050 43.000000
2.724237 -1.004297 -0.185509 52.000000
2.724882 -1.014040 -0.185815 39.000000
2.726425 -1.024146 -0.186198 51.000000
2.724203 -1.032859 -0.186275 40.000000
2.718227 -1.040144 -0.186045 51.000000
2.715024 -1.048479 -0.186045 41.000000
2.709006 -1.055718 -0.185815 35.000000
2.706683 -1.064389 -0.185892 41.000000
2.703404 -1.072688 -0.185892 41.000000
2.701027 -1.081347 -0.185968 35.000000
2.700470 -1.090748 -0.186198 53.000000
2.700805 -1.100531 -0.186504 32.000000
2.702028 -1.110705 -0.186887 43.000000
2.703214 -1.120898 -0.187270 35.000000
2.698842 -1.128801 -0.187193 47.000000
2.696285 -1.137463 -0.187270 53.000000
2.692782 -1.145730 -0.187270 44.000000
2.689255 -1.153986 -0.187270 37.000000
2.686617 -1.162627 -0.187346 49.000000
2.683952 -1.171262 -0.187423 47.000000
2.680346 -1.179491 -0.187423 30.000000
2.680361 -1.189324 -0.187729 36.000000
2.678520 -1.198356 -0.187882 30.000000
2.675740 -1.206977 -0.187959 37.000000
2.680194 -1.218892 -0.188648 16.000000
2.689133 -1.232922 -0.189719 7.000000
2.870708 -0.408151 -0.220683 28.000000
2.870428 -0.417099 -0.220772 37.000000
2.867165 -0.425611 -0.220594 29.000000
2.863876 -0.434106 -0.220417 44.000000
2.867452 -0.443653 -0.220860 22.000000
2.861159 -0.451671 -0.220417 32.000000
2.861726 -0.460763 -0.220594 40.000000
2.860299 -0.469541 -0.220594 38.000000
2.855898 -0.477820 -0.220328 31.000000
2.853436 -0.486412 -0.220239 32.000000
2.855856 -0.495847 -0.220594 34.000000
2.849418 -0.503738 -0.220151 30.000000
2.853740 -0.513537 -0.220683 33.000000
2.850192 -0.521931 -0.220505 35.000000
2.844660 -0.529942 -0.220151 34.000000
2.844979 -0.539038 -0.220328 31.000000
2.839399 -0.547010 -0.219973 30.000000
2.832820 -0.554760 -0.219530 35.000000
2.828174 -0.562865 -0.219263 40.000000
2.823505 -0.570946 -0.218997 36.000000
2.818813 -0.579005 -0.218731 42.000000
2.819949 -0.588260 -0.218997 48.000000
2.815207 -0.596290 -0.218731 43.000000
2.810444 -0.604295 -0.218465 37.000000
2.812469 -0.613765 -0.218820 54.000000
2.809600 -0.622175 -0.218731 37.000000
2.813509 -0.632102 -0.219263 35.000000
2.815441 -0.641617 -0.219618 41.000000
2.805696 -0.648456 -0.218909 44.000000
2.816300 -0.660017 -0.220062 49.000000
2.834612 -0.673492 -0.221925 35.000000
2.819944 -0.679152 -0.220772 41.000000
2.836232 -0.692290 -0.222457 31.000000
2.813790 -0.695964 -0.220594 41.000000
2.804878 -0.702897 -0.219973 44.000000
2.806570 -0.712480 -0.220328 43.000000
2.806301 -0.721583 -0.220505 37.000000
2.791543 -0.726925 -0.219352 40.000000
2.797968 -0.737772 -0.220151 43.000000
2.798578 -0.747124 -0.220417 46.000000
2.795311 -0.755447 -0.220328 44.000000
2.833331 -0.775063 -0.224054 30.000000
2.790623 -0.772584 -0.220328 41.000000
2.793994 -0.782755 -0.220860 32.000000
2.777206 -0.787246 -0.219530 42.000000
2.784352 -0.798510 -0.220417 35.000000
2.769453 -0.803439 -0.219263 46.000000
2.791824 -0.819227 -0.221570 34.000000
2.790253 -0.828072 -0.221659 39.000000
2.787699 -0.836629 -0.221659 38.000000
2.784166 -0.844888 -0.221570 42.000000
2.776800 -0.851964 -0.221127 46.000000
2.765611 -0.857822 -0.220328 41.000000
2.759165 -0.865111 -0.219973 45.000000
2.763144 -0.875679 -0.220594 33.000000
2.743371 -0.878681 -0.218997 43.000000
2.745400 -0.888627 -0.219441 45.000000
2.738874 -0.895807 -0.219086 41.000000
2.743679 -0.906707 -0.219796 32.000000
2.737105 -0.913858 -0.219441 34.000000
2.726738 -0.919703 -0.218731 43.000000
2.735217 -0.931921 -0.219796 36.000000
2.732345 -0.940308 -0.219796 37.000000
2.724744 -0.947050 -0.219352 35.000000
2.725585 -0.956725 -0.219707 39.000000
2.716065 -0.962752 -0.219086 35.000000
2.711223 -0.970409 -0.218909 43.000000
2.711043 -0.979738 -0.219175 46.000000
2.703346 -0.986344 -0.218731 39.000000
2.702177 -0.995321 -0.218909 35.000000
2.707513 -1.006732 -0.219707 46.000000
2.706276 -1.015734 -0.219884 45.000000
2.706873 -1.025444 -0.220239 54.000000
2.700923 -1.032676 -0.219973 32.000000
2.694955 -1.039882 -0.219707 43.000000
2.692680 -1.048506 -0.219796 40.000000
2.689450 -1.056763 -0.219796 56.000000
2.685270 -1.064641 -0.219707 43.000000
2.687539 -1.075095 -0.220239 40.000000
2.692541 -1.086692 -0.221038 42.000000
2.691039 -1.095699 -0.221215 45.000000
2.690429 -1.105085 -0.221481 44.000000
2.688866 -1.114097 -0.221659 24.000000
2.690030 -1.124262 -0.222102 42.000000
2.684733 -1.131736 -0.221925 47.000000
2.683081 -1.140747 -0.222102 44.000000
2.677738 -1.148187 -0.221925 35.000000
2.671461 -1.155211 -0.221659 40.000000
2.666078 -1.162605 -0.221481 33.000000
2.660675 -1.169977 -0.221304 34.000000
2.657983 -1.178538 -0.221393 45.000000
2.653446 -1.186280 -0.221304 45.000000
2.649794 -1.194415 -0.221304 49.000000
2.638863 -1.199241 -0.220594 46.000000
2.640604 -1.209822 -0.221127 20.000000
3.427439 -0.770145 -0.319663 13.000000
3.421180 -0.779774 -0.319258 21.000000
3.415864 -0.789595 -0.318954 27.000000
3.409550 -0.799164 -0.318549 27.000000
3.400307 -0.808013 -0.317841 32.000000
3.396844 -0.818208 -0.317739 33.000000
3.387552 -0.826977 -0.317031 34.000000
3.382102 -0.836650 -0.316727 50.000000
3.373729 -0.845573 -0.316120 31.000000
3.368225 -0.855186 -0.315816 35.000000
3.363659 -0.865020 -0.315614 38.000000
3.359063 -0.874835 -0.315411 40.000000
3.359250 -0.885897 -0.315715 35.000000
3.356516 -0.896198 -0.315715 51.000000
3.348948 -0.905196 -0.315209 24.000000
3.348075 -0.915990 -0.315411 30.000000
3.341413 -0.925197 -0.315006 33.000000
3.359636 -0.941342 -0.317233 68.000000
3.334716 -0.945411 -0.314905 31.000000
3.327975 -0.954542 -0.314500 32.000000
3.330764 -0.966408 -0.315107 35.000000
3.323964 -0.975503 -0.314703 38.000000
3.320956 -0.985696 -0.314703 32.000000
3.318869 -0.996166 -0.314804 36.000000
3.311037 -1.004900 -0.314298 50.000000
3.296524 -1.011555 -0.313083 39.000000
3.285803 -1.019309 -0.312273 31.000000
3.273166 -1.026411 -0.311261 21.000000
3.275693 -1.038250 -0.311868 38.000000
3.273439 -1.048598 -0.311969 28.000000
3.252222 -1.052820 -0.310046 19.000000
3.263161 -1.067428 -0.311564 31.000000
3.268373 -1.080241 -0.312476 38.000000
3.282032 -1.095929 -0.314298 53.000000
3.275825 -1.105040 -0.313994 49.000000
3.269594 -1.114123 -0.313690 25.000000
3.278391 -1.128354 -0.315006 28.000000
3.276794 -1.139059 -0.315209 22.000000
3.276100 -1.150095 -0.315512 17.000000
3.266930 -1.158147 -0.314905 15.000000
3.456216 -0.775958 -0.364985 26.000000
3.446069 -0.784792 -0.364080 16.000000
3.432996 -0.792900 -0.362837 28.000000
3.420873 -0.801162 -0.361707 21.000000
3.411633 -0.810046 -0.360916 17.000000
3.392709 -0.816554 -0.358994 30.000000
3.382467 -0.825075 -0.358090 44.000000
3.381849 -0.835925 -0.358316 41.000000
3.377340 -0.845814 -0.358090 43.000000
3.378582 -0.857149 -0.358542 35.000000
3.375936 -0.867510 -0.358542 29.000000
3.373259 -0.877863 -0.358542 31.000000
3.375353 -0.889475 -0.359107 37.000000
3.375489 -0.900595 -0.359446 35.000000
3.372710 -0.910946 -0.359446 42.000000
3.373733 -0.922338 -0.359898 28.000000
3.376632 -0.934274 -0.360577 59.000000
3.375664 -0.945165 -0.360803 45.000000
3.378484 -0.957143 -0.361481 25.000000
3.366935 -0.965039 -0.360464 54.000000
3.368730 -0.976748 -0.361029 36.000000
3.358091 -0.984841 -0.360124 46.000000
3.353148 -0.994573 -0.359898 45.000000
3.346275 -1.003713 -0.359446 44.000000
3.334622 -1.011379 -0.358429 59.000000
3.329604 -1.021021 -0.358203 42.000000
3.315068 -1.027700 -0.356847 49.000000
3.306211 -1.036082 -0.356168 38.000000
3.303017 -1.046221 -0.356168 37.000000
3.293167 -1.054228 -0.355377 39.000000
3.288027 -1.063714 -0.355151 45.000000
3.285692 -1.074106 -0.355264 50.000000
3.285212 -1.085116 -0.355603 36.000000
3.285637 -1.096449 -0.356055 51.000000
3.286965 -1.108111 -0.356620 34.000000
3.279788 -1.116909 -0.356168 48.000000
3.282923 -1.129229 -0.356960 43.000000
3.312292 -1.150711 -0.360916 24.000000
3.327496 -1.167449 -0.363176 14.000000
3.313597 -1.174001 -0.361933 13.000000
3.464479 -0.778455 -0.410407 15.000000
3.452401 -0.786879 -0.409153 16.000000
3.443204 -0.795905 -0.408276 24.000000
3.432052 -0.804430 -0.407148 14.000000
3.412192 -0.810833 -0.404892 25.000000
3.392325 -0.817122 -0.402636 41.000000
3.384019 -0.826115 -0.401884 31.000000
3.378579 -0.835780 -0.401508 36.000000
3.377924 -0.846623 -0.401759 37.000000
3.378196 -0.857714 -0.402135 32.000000
3.380353 -0.869308 -0.402761 34.000000
3.385351 -0.881672 -0.403764 46.000000
3.385509 -0.892812 -0.404140 27.000000
3.385630 -0.903961 -0.404516 25.000000
3.385714 -0.915120 -0.404892 35.000000
3.388633 -0.927072 -0.405644 42.000000
3.393422 -0.939579 -0.406647 53.000000
3.398167 -0.952124 -0.407649 28.000000
3.393321 -0.962004 -0.407399 29.000000
3.384631 -0.970771 -0.406647 31.000000
3.374013 -0.978941 -0.405644 22.000000
3.365282 -0.987614 -0.404892 24.000000
3.364138 -0.998498 -0.405143 34.000000
3.359159 -1.008244 -0.404892 25.000000
3.355100 -1.018257 -0.404767 28.000000
3.347217 -1.027092 -0.404140 35.000000
3.338365 -1.035595 -0.403388 31.000000
3.326651 -1.043163 -0.402260 29.000000
3.309247 -1.048873 -0.400380 31.000000
3.297509 -1.056299 -0.399252 23.000000
3.289533 -1.064885 -0.398625 25.000000
3.285308 -1.074664 -0.398500 34.000000
3.293300 -1.088470 -0.400004 40.000000
3.295592 -1.100452 -0.400756 22.000000
3.301603 -1.113726 -0.402009 29.000000
3.308501 -1.127366 -0.403388 40.000000
3.287201 -1.131382 -0.401007 17.000000
3.291212 -1.144066 -0.402009 18.000000
3.276452 -1.150218 -0.400505 8.000000
3.439562 -0.782053 -0.451088 13.000000
3.435216 -0.792156 -0.450813 22.000000
3.421196 -0.799984 -0.449163 16.000000
3.416798 -0.810019 -0.448888 35.000000
3.406593 -0.818645 -0.447789 34.000000
3.399253 -0.827920 -0.447102 37.000000
3.399582 -0.839057 -0.447514 41.000000
3.394109 -0.848762 -0.447102 33.000000
3.397250 -0.860631 -0.447926 38.000000
3.405147 -0.873759 -0.449438 40.000000
3.408203 -0.885697 -0.450263 32.000000
3.408343 -0.896906 -0.450675 27.000000
3.413232 -0.909399 -0.451775 21.000000
