ply
format ascii 1.0
element vertex 1161
property float x
property float y
property float z
property float intensity
end_header
4.212494 -1.191573 0.558636 6.000000
4.227995 -1.224019 0.561490 5.000000
4.240420 -1.241724 0.563511 11.000000
4.261345 -1.262051 0.566603 21.000000
4.251746 -1.273412 0.565890 28.000000
4.254472 -1.288463 0.566722 14.000000
4.282781 -1.311384 0.570766 7.000000
4.229744 -1.196822 0.506587 19.000000
4.215538 -1.206782 0.505413 32.000000
4.240466 -1.228010 0.508616 47.000000
4.243359 -1.242970 0.509364 43.000000
4.233805 -1.254288 0.508723 43.000000
4.220413 -1.264417 0.507655 41.000000
4.207950 -1.274764 0.506694 31.000000
4.170745 -1.277473 0.502957 31.000000
4.200049 -1.300559 0.506694 16.000000
4.196988 -1.313736 0.506801 7.000000
4.172083 -1.320006 0.504452 6.000000
3.704409 -1.466629 0.462378 9.000000
3.726694 -1.501971 0.466009 7.000000
3.734962 -1.518642 0.467504 9.000000
3.735805 -1.532358 0.468145 11.000000
3.733842 -1.544953 0.468465 8.000000
3.751106 -1.565594 0.471028 9.000000
3.750867 -1.579024 0.471562 6.000000
3.763393 -1.597909 0.473591 8.000000
3.958220 -0.761075 0.419241 12.000000
3.911899 -0.764635 0.414967 39.000000
3.907582 -0.776245 0.414777 48.000000
3.914941 -0.790197 0.415727 40.000000
3.907622 -0.801205 0.415252 43.000000
3.902221 -0.812582 0.414967 66.000000
3.904580 -0.825578 0.415442 50.000000
3.896189 -0.836302 0.414872 53.000000
3.893605 -0.848251 0.414872 50.000000
3.891956 -0.860407 0.414967 53.000000
3.885412 -0.871473 0.414587 63.000000
3.885633 -0.884051 0.414872 43.000000
3.883872 -0.896191 0.414967 47.000000
3.881104 -0.908103 0.414967 57.000000
3.872488 -0.918629 0.414397 46.000000
3.872555 -0.931202 0.414682 56.000000
3.863877 -0.941666 0.414112 43.000000
3.867735 -0.955185 0.414777 55.000000
3.863821 -0.966805 0.414682 70.000000
3.851186 -0.976211 0.413732 45.000000
3.849137 -0.988269 0.413827 51.000000
3.844161 -0.999573 0.413637 58.000000
3.840113 -1.011109 0.413542 58.000000
3.835069 -1.022373 0.413352 52.000000
3.830953 -1.033875 0.413257 61.000000
3.830644 -1.046409 0.413542 60.000000
3.825496 -1.057627 0.413352 43.000000
3.819358 -1.068555 0.413067 55.000000
3.816061 -1.080267 0.413067 48.000000
3.812729 -1.091969 0.413067 77.000000
3.811274 -1.104215 0.413257 49.000000
3.812645 -1.117301 0.413732 73.000000
3.807290 -1.128428 0.413542 56.000000
3.806671 -1.140960 0.413827 62.000000
3.806011 -1.153498 0.414112 63.000000
3.801502 -1.164878 0.414017 52.000000
3.797911 -1.176535 0.414017 55.000000
3.795233 -1.188479 0.414112 51.000000
3.785875 -1.198316 0.413542 45.000000
3.784076 -1.210532 0.413732 45.000000
3.776556 -1.220912 0.413352 52.000000
3.773739 -1.232801 0.413447 53.000000
3.773721 -1.245620 0.413827 50.000000
3.769881 -1.257192 0.413827 57.000000
3.770724 -1.270339 0.414302 48.000000
3.772464 -1.283824 0.414872 52.000000
3.774156 -1.297332 0.415442 61.000000
3.775801 -1.310862 0.416012 48.000000
3.771762 -1.322440 0.416012 51.000000
3.768625 -1.334337 0.416107 59.000000
3.766389 -1.346563 0.416297 56.000000
3.760367 -1.357436 0.416107 64.000000
3.754314 -1.368285 0.415917 60.000000
3.748230 -1.379110 0.415727 59.000000
3.742115 -1.389910 0.415537 66.000000
3.737833 -1.401384 0.415537 45.000000
3.737240 -1.414253 0.415917 58.000000
3.733814 -1.426067 0.416012 49.000000
3.735924 -1.440020 0.416677 69.000000
3.734272 -1.452557 0.416961 43.000000
3.733505 -1.465460 0.417341 57.000000
3.731769 -1.478006 0.417626 57.000000
3.729066 -1.490187 0.417816 63.000000
3.723553 -1.501248 0.417721 49.000000
3.718930 -1.512665 0.417721 53.000000
3.712429 -1.523312 0.417531 58.000000
3.704979 -1.533553 0.417246 55.000000
3.697500 -1.543763 0.416961 47.000000
3.691829 -1.554713 0.416867 49.000000
3.685209 -1.565254 0.416677 34.000000
3.930093 -0.767669 0.366202 25.000000
3.915989 -0.777393 0.365213 42.000000
3.915539 -0.789798 0.365378 44.000000
3.912121 -0.801607 0.365295 43.000000
3.909643 -0.813605 0.365295 53.000000
3.910054 -0.826214 0.365543 48.000000
3.906527 -0.837997 0.365460 53.000000
3.906858 -0.850615 0.365708 65.000000
3.904230 -0.862597 0.365708 72.000000
3.899621 -0.874134 0.365543 55.000000
3.894005 -0.885431 0.365295 44.000000
3.893213 -0.897822 0.365460 65.000000
3.888499 -0.909308 0.365295 64.000000
3.884722 -0.921003 0.365213 72.000000
3.882846 -0.933150 0.365295 56.000000
3.882870 -0.945766 0.365543 73.000000
3.879951 -0.957674 0.365543 50.000000
3.877961 -0.969815 0.365625 73.000000
3.873035 -0.981218 0.365460 72.000000
3.868076 -0.992600 0.365295 71.000000
3.863083 -1.003961 0.365130 72.000000
3.856130 -1.014793 0.364800 81.000000
3.852036 -1.026362 0.364718 63.000000
3.846944 -1.037656 0.364553 61.000000
3.846627 -1.050241 0.364800 81.000000
3.845308 -1.062568 0.364965 72.000000
3.846828 -1.075703 0.365378 77.000000
3.845428 -1.088042 0.365543 50.000000
3.843030 -1.100109 0.365625 55.000000
3.842509 -1.112726 0.365872 49.000000
3.835251 -1.123389 0.365543 62.000000
3.827009 -1.133734 0.365130 54.000000
3.828286 -1.146900 0.365543 55.000000
3.819980 -1.157195 0.365130 61.000000
3.818318 -1.169493 0.365295 67.000000
3.816616 -1.181792 0.365460 47.000000
3.812972 -1.193495 0.365460 54.000000
3.810243 -1.205488 0.365543 55.000000
3.812222 -1.218994 0.366037 47.000000
3.805619 -1.229764 0.365790 58.000000
3.801828 -1.241434 0.365790 45.000000
3.799895 -1.253717 0.365955 41.000000
3.793194 -1.264423 0.365708 43.000000
3.787408 -1.275418 0.365543 47.000000
3.783477 -1.287032 0.365543 62.000000
3.778569 -1.298309 0.365460 61.000000
3.778334 -1.311203 0.365790 40.000000
3.774293 -1.322788 0.365790 39.000000
3.769278 -1.334029 0.365708 66.000000
3.768921 -1.346929 0.366037 45.000000
3.765708 -1.358824 0.366120 71.000000
3.761522 -1.370370 0.366120 47.000000
3.757300 -1.381904 0.366120 42.000000
3.752108 -1.393078 0.366037 54.000000
3.750616 -1.405632 0.366285 44.000000
3.746286 -1.417132 0.366285 49.000000
3.744714 -1.429685 0.366532 40.000000
3.743100 -1.442243 0.366779 46.000000
3.744230 -1.455887 0.367274 45.000000
3.744385 -1.469188 0.367687 49.000000
3.738933 -1.480302 0.367604 51.000000
3.734374 -1.491765 0.367604 51.000000
3.733477 -1.504706 0.367934 58.000000
3.728843 -1.516153 0.367934 61.000000
3.725096 -1.527964 0.368016 52.000000
3.722232 -1.540148 0.368181 53.000000
3.716570 -1.551176 0.368099 46.000000
3.714549 -1.563731 0.368346 44.000000
3.703313 -1.572393 0.367769 24.000000
3.654499 -1.564912 0.363811 8.000000
3.925427 -0.768692 0.318278 26.000000
3.923050 -0.780731 0.318278 37.000000
3.914770 -0.791579 0.317854 37.000000
3.910368 -0.803185 0.317713 37.000000
3.909839 -0.815584 0.317854 55.000000
3.906343 -0.827369 0.317783 58.000000
3.906712 -0.839978 0.317995 61.000000
3.908989 -0.853022 0.318349 57.000000
3.906354 -0.865010 0.318349 53.000000
3.904655 -0.877209 0.318419 69.000000
3.900000 -0.888742 0.318278 62.000000
3.891423 -0.899356 0.317854 70.000000
3.887675 -0.911064 0.317783 89.000000
3.882920 -0.922526 0.317642 64.000000
3.878132 -0.933968 0.317501 79.000000
3.880094 -0.947042 0.317854 78.000000
3.879107 -0.959421 0.317995 70.000000
3.877113 -0.971559 0.318066 63.000000
3.877015 -0.984185 0.318278 68.000000
3.873011 -0.995827 0.318207 51.000000
3.867041 -1.006951 0.317995 66.000000
3.860075 -1.017794 0.317713 82.000000
3.853080 -1.028604 0.317430 88.000000
3.847016 -1.039640 0.317218 77.000000
3.845733 -1.051963 0.317360 70.000000
3.843449 -1.064023 0.317430 74.000000
3.844009 -1.076885 0.317713 65.000000
3.842607 -1.089216 0.317854 82.000000
3.839247 -1.101000 0.317854 89.000000
3.836809 -1.113051 0.317925 80.000000
3.829547 -1.123695 0.317642 74.000000
3.826082 -1.135438 0.317642 79.000000
3.823536 -1.147458 0.317713 66.000000
3.819043 -1.158893 0.317642 76.000000
3.815470 -1.170605 0.317642 83.000000
3.814718 -1.183190 0.317854 61.000000
3.816782 -1.196677 0.318278 69.000000
3.818799 -1.210188 0.318702 71.000000
3.819818 -1.223418 0.319055 45.000000
3.818894 -1.236052 0.319267 40.000000
3.813188 -1.247143 0.319125 46.000000
3.809344 -1.258835 0.319125 46.000000
3.804518 -1.270201 0.319055 56.000000
3.795876 -1.280274 0.318702 43.000000
3.791930 -1.291914 0.318702 60.000000
3.791722 -1.304839 0.318984 52.000000
3.792413 -1.318101 0.319337 46.000000
3.792116 -1.331050 0.319620 52.000000
3.789895 -1.343344 0.319761 57.000000
3.785756 -1.354965 0.319761 55.000000
3.779705 -1.365896 0.319620 60.000000
3.772685 -1.376460 0.319408 60.000000
3.767508 -1.387684 0.319337 59.000000
3.760428 -1.398194 0.319125 71.000000
3.756121 -1.409724 0.319125 56.000000
3.752711 -1.421594 0.319196 62.000000
3.750196 -1.433812 0.319337 57.000000
3.745779 -1.445311 0.319337 66.000000
3.742257 -1.457158 0.319408 71.000000
3.739626 -1.469361 0.319549 64.000000
3.737882 -1.481929 0.319761 60.000000
3.736097 -1.494501 0.319973 61.000000
3.731494 -1.505956 0.319973 58.000000
3.728705 -1.518149 0.320114 64.000000
3.726798 -1.530717 0.320326 48.000000
3.723006 -1.542525 0.320397 54.000000
3.721938 -1.555477 0.320679 41.000000
3.724503 -1.569986 0.321244 39.000000
3.716914 -1.580236 0.321032 35.000000
3.923967 -0.767180 0.267899 23.000000
3.917678 -0.778437 0.267667 32.000000
3.912336 -0.789859 0.267493 44.000000
3.915762 -0.803062 0.267841 33.000000
3.916211 -0.815683 0.268015 50.000000
3.915644 -0.828107 0.268132 53.000000
3.917965 -0.841165 0.268422 53.000000
3.919268 -0.854031 0.268654 47.000000
3.920528 -0.866914 0.268887 43.000000
3.922720 -0.880031 0.269177 45.000000
3.918055 -0.891618 0.269061 43.000000
3.914329 -0.903410 0.269003 52.000000
3.911538 -0.915415 0.269003 42.000000
3.902884 -0.926028 0.268654 47.000000
3.898083 -0.937530 0.268538 65.000000
3.897128 -0.949958 0.268654 50.000000
3.892257 -0.961431 0.268538 46.000000
3.892195 -0.974095 0.268713 49.000000
3.891123 -0.986522 0.268829 58.000000
3.884210 -0.997462 0.268596 62.000000
3.879200 -1.008871 0.268480 57.000000
3.876086 -1.020767 0.268480 43.000000
3.866184 -1.030853 0.268074 62.000000
3.863003 -1.042709 0.268074 59.000000
3.861712 -1.055083 0.268190 56.000000
3.862306 -1.067990 0.268422 70.000000
3.859972 -1.080103 0.268480 55.000000
3.857601 -1.092212 0.268538 67.000000
3.854232 -1.104042 0.268538 63.000000
3.849868 -1.115584 0.268480 56.000000
3.844511 -1.126828 0.268364 61.000000
3.838165 -1.137766 0.268190 50.000000
3.834656 -1.149536 0.268190 71.000000
3.833977 -1.162164 0.268364 48.000000
3.833257 -1.174799 0.268538 43.000000
3.831542 -1.187145 0.268654 55.000000
3.833598 -1.200685 0.269003 56.000000
3.831800 -1.213043 0.269119 67.000000
3.827109 -1.224489 0.269061 57.000000
3.823334 -1.236225 0.269061 52.000000
3.819524 -1.247949 0.269061 56.000000
3.813781 -1.259035 0.268945 49.000000
3.808954 -1.270414 0.268887 55.000000
3.803146 -1.281456 0.268771 68.000000
3.798252 -1.292796 0.268713 44.000000
3.800876 -1.306715 0.269119 37.000000
3.791191 -1.316405 0.268771 55.000000
3.786192 -1.327699 0.268713 55.000000
3.782101 -1.339309 0.268713 53.000000
3.777974 -1.350906 0.268713 52.000000
3.775690 -1.363168 0.268829 54.000000
3.778055 -1.377140 0.269235 47.000000
3.773813 -1.388724 0.269235 53.000000
3.773278 -1.401686 0.269468 48.000000
3.776437 -1.416061 0.269932 51.000000
3.772075 -1.427640 0.269932 52.000000
3.768610 -1.439562 0.269990 54.000000
3.763244 -1.450758 0.269932 43.000000
3.752263 -1.459762 0.269526 60.000000
3.747767 -1.471267 0.269526 46.000000
3.738595 -1.480920 0.269235 48.000000
3.733107 -1.492012 0.269177 64.000000
3.733141 -1.505325 0.269468 50.000000
3.733129 -1.518653 0.269758 47.000000
3.736764 -1.533510 0.270281 46.000000
3.742188 -1.549169 0.270920 52.000000
3.741102 -1.562181 0.271152 51.000000
3.744572 -1.577140 0.271675 44.000000
3.729609 -1.584326 0.271036 26.000000
3.677015 -1.575313 0.268015 9.000000
3.909323 -0.766249 0.219833 14.000000
3.926548 -0.782136 0.220758 39.000000
3.926089 -0.794574 0.220851 38.000000
3.929503 -0.807821 0.221128 48.000000
3.924073 -0.819261 0.220989 48.000000
3.924473 -0.831917 0.221128 54.000000
3.918972 -0.843323 0.220989 46.000000
3.918318 -0.855768 0.221082 39.000000
3.915675 -0.867786 0.221082 68.000000
3.912994 -0.879795 0.221082 55.000000
3.911250 -0.892017 0.221128 54.000000
3.911415 -0.904687 0.221267 39.000000
3.908621 -0.916683 0.221267 53.000000
3.905790 -0.928670 0.221267 64.000000
3.901952 -0.940415 0.221220 56.000000
3.899048 -0.952381 0.221220 71.000000
3.899987 -0.965298 0.221405 39.000000
3.891193 -0.975802 0.221128 65.000000
3.887213 -0.987490 0.221082 65.000000
3.882230 -0.998914 0.220989 60.000000
3.877213 -1.010316 0.220897 43.000000
3.873130 -1.021952 0.220851 56.000000
3.868046 -1.033315 0.220758 58.000000
3.864858 -1.045177 0.220758 66.000000
3.863560 -1.057556 0.220851 66.000000
3.860297 -1.069404 0.220851 48.000000
3.857960 -1.081512 0.220897 55.000000
3.857507 -1.094160 0.221035 60.000000
3.852211 -1.105439 0.220943 72.000000
3.849761 -1.117530 0.220989 58.000000
3.846315 -1.129336 0.220989 65.000000
3.843790 -1.141415 0.221035 59.000000
3.844097 -1.154350 0.221220 58.000000
3.842449 -1.166718 0.221313 58.000000
3.840762 -1.179087 0.221405 75.000000
3.842851 -1.192640 0.221683 49.000000
3.839174 -1.204424 0.221683 65.000000
3.832604 -1.215292 0.221544 63.000000
3.825052 -1.225826 0.221359 62.000000
3.819373 -1.236940 0.221267 54.000000
3.815560 -1.248652 0.221267 62.000000
3.814556 -1.261292 0.221405 43.000000
3.810669 -1.272989 0.221405 46.000000
3.810532 -1.285950 0.221590 48.000000
3.808460 -1.298279 0.221683 58.000000
3.804459 -1.309957 0.221683 56.000000
3.797591 -1.320639 0.221544 55.000000
3.788809 -1.330630 0.221313 54.000000
3.780942 -1.340913 0.221128 57.000000
3.779632 -1.353516 0.221267 60.000000
3.778280 -1.366124 0.221405 56.000000
3.775010 -1.378051 0.221452 64.000000
3.770764 -1.389626 0.221452 38.000000
3.770228 -1.402580 0.221637 44.000000
3.771519 -1.416246 0.221914 47.000000
3.770894 -1.429225 0.222099 57.000000
3.769290 -1.441857 0.222238 51.000000
3.765781 -1.453774 0.222284 51.000000
3.763165 -1.466045 0.222376 67.000000
3.762368 -1.479045 0.222561 51.000000
3.755027 -1.489476 0.222422 57.000000
3.751367 -1.501360 0.222469 53.000000
3.749523 -1.513984 0.222607 50.000000
3.745786 -1.525856 0.222654 64.000000
3.747555 -1.539997 0.222977 52.000000
3.740967 -1.550723 0.222885 67.000000
3.737114 -1.562577 0.222931 48.000000
3.736905 -1.575975 0.223162 37.000000
3.726536 -1.585088 0.222885 52.000000
3.784089 -1.623275 0.226029 6.000000
3.948368 -0.785251 0.172004 39.000000
3.943001 -0.796767 0.171903 34.000000
3.949349 -0.810669 0.172208 28.000000
3.936081 -0.820537 0.171835 50.000000
3.927679 -0.831367 0.171632 38.000000
3.922178 -0.842783 0.171531 36.000000
3.920551 -0.855025 0.171564 31.000000
3.914006 -0.866185 0.171429 44.000000
3.912305 -0.878408 0.171463 48.000000
3.909592 -0.890406 0.171463 72.000000
3.908789 -0.902847 0.171531 38.000000
3.907947 -0.915291 0.171598 49.000000
3.908038 -0.927969 0.171700 39.000000
3.901286 -0.939018 0.171564 41.000000
3.900328 -0.951457 0.171632 67.000000
3.896421 -0.963178 0.171598 41.000000
3.893447 -0.975128 0.171598 49.000000
3.893344 -0.987806 0.171700 51.000000
3.892231 -1.000243 0.171768 34.000000
3.885275 -1.011173 0.171632 55.000000
3.885054 -1.023852 0.171734 49.000000
3.879963 -1.035251 0.171666 46.000000
3.877733 -1.047410 0.171700 43.000000
3.872574 -1.058775 0.171632 46.000000
3.868344 -1.070384 0.171598 39.000000
3.867929 -1.083055 0.171700 43.000000
3.868434 -1.096007 0.171835 42.000000
3.864093 -1.107595 0.171801 60.000000
3.860677 -1.119444 0.171801 50.000000
3.856265 -1.131002 0.171768 53.000000
3.853735 -1.143112 0.171801 61.000000
3.849253 -1.154642 0.171768 64.000000
3.843779 -1.165866 0.171700 50.000000
3.840185 -1.177653 0.171700 47.000000
3.837508 -1.189725 0.171734 49.000000
3.835747 -1.202091 0.171801 65.000000
3.832041 -1.213853 0.171801 52.000000
3.829251 -1.225909 0.171835 35.000000
3.825472 -1.237651 0.171835 56.000000
3.823557 -1.250003 0.171903 49.000000
3.820653 -1.262041 0.171937 57.000000
3.820555 -1.275023 0.172072 54.000000
3.816625 -1.286738 0.172072 50.000000
3.813606 -1.298763 0.172106 49.000000
3.812438 -1.311433 0.172208 53.000000
3.808397 -1.323123 0.172208 51.000000
3.806206 -1.335463 0.172275 59.000000
3.804917 -1.348135 0.172377 33.000000
3.801704 -1.360139 0.172411 54.000000
3.800333 -1.372815 0.172512 57.000000
3.794226 -1.383783 0.172445 45.000000
3.789024 -1.395071 0.172411 45.000000
3.786600 -1.407386 0.172478 40.000000
3.784136 -1.419699 0.172546 49.000000
3.781632 -1.432010 0.172614 55.000000
3.776287 -1.443248 0.172580 46.000000
3.773706 -1.455546 0.172648 37.000000
3.771086 -1.467842 0.172715 56.000000
3.769355 -1.480501 0.172817 49.000000
3.764796 -1.492058 0.172817 50.000000
3.760200 -1.503601 0.172817 51.000000
3.755569 -1.515131 0.172817 46.000000
3.753680 -1.527776 0.172918 53.000000
3.751749 -1.540424 0.173020 54.000000
3.747005 -1.551927 0.173020 41.000000
3.744993 -1.564571 0.173122 42.000000
3.741096 -1.576441 0.173155 41.000000
3.739922 -1.589476 0.173291 50.000000
3.738701 -1.602517 0.173426 33.000000
3.731933 -1.613187 0.173359 40.000000
3.991755 -0.768233 0.123828 20.000000
3.979568 -0.778559 0.123611 26.000000
3.973238 -0.789986 0.123525 28.000000
3.961975 -0.800393 0.123330 62.000000
3.957542 -0.812143 0.123287 45.000000
3.948180 -0.822854 0.123135 55.000000
3.936834 -0.833103 0.122941 59.000000
3.925462 -0.843290 0.122746 55.000000
3.917972 -0.854266 0.122638 46.000000
3.911427 -0.865419 0.122551 65.000000
3.911680 -0.878071 0.122616 62.000000
3.911893 -0.890733 0.122681 60.000000
3.913039 -0.903629 0.122767 51.000000
3.913168 -0.916313 0.122832 65.000000
3.912284 -0.928775 0.122876 61.000000
3.906500 -0.940072 0.122811 54.000000
3.903598 -0.952053 0.122811 54.000000
3.898717 -0.963546 0.122767 55.000000
3.891863 -0.974532 0.122681 50.000000
3.888855 -0.986467 0.122681 66.000000
3.887747 -0.998890 0.122724 55.000000
3.884664 -1.010813 0.122724 56.000000
3.888313 -1.024508 0.122876 56.000000
3.884185 -1.036174 0.122854 34.000000
3.881953 -1.048346 0.122876 54.000000
3.883541 -1.061568 0.122984 47.000000
3.882193 -1.074010 0.123027 38.000000
3.877917 -1.085646 0.123005 50.000000
3.874568 -1.097538 0.123005 66.000000
3.868299 -1.108595 0.122941 46.000000
3.864880 -1.120457 0.122941 69.000000
3.858546 -1.131466 0.122876 58.000000
3.854098 -1.143015 0.122854 69.000000
3.848657 -1.154260 0.122811 51.000000
3.850839 -1.167801 0.122941 65.000000
3.848194 -1.179902 0.122962 62.000000
3.846466 -1.192294 0.123005 76.000000
3.842790 -1.204090 0.123005 69.000000
3.835265 -1.214667 0.122919 65.000000
3.835330 -1.227646 0.123005 54.000000
3.837253 -1.241251 0.123135 74.000000
3.830576 -1.252087 0.123070 55.000000
3.829565 -1.264773 0.123135 58.000000
3.826615 -1.276832 0.123157 53.000000
3.818890 -1.287290 0.123070 58.000000
3.817762 -1.299966 0.123135 64.000000
3.815647 -1.312322 0.123179 43.000000
3.808769 -1.323039 0.123114 52.000000
3.811297 -1.337032 0.123265 42.000000
3.809062 -1.349386 0.123308 44.000000
3.808670 -1.362412 0.123395 48.000000
3.802591 -1.373411 0.123352 54.000000
3.798360 -1.385071 0.123352 45.000000
3.794093 -1.396718 0.123352 51.000000
3.788852 -1.408003 0.123330 61.000000
3.784515 -1.419621 0.123330 48.000000
3.779207 -1.430871 0.123308 70.000000
3.771063 -1.441032 0.123222 52.000000
3.769423 -1.453673 0.123287 46.000000
3.766809 -1.465956 0.123330 53.000000
3.762294 -1.477505 0.123330 51.000000
3.757743 -1.489041 0.123330 57.000000
3.752229 -1.500191 0.123308 65.000000
3.752245 -1.513565 0.123417 44.000000
3.749436 -1.525823 0.123460 52.000000
3.750287 -1.539595 0.123590 50.000000
3.749241 -1.552622 0.123676 40.000000
3.749073 -1.566043 0.123785 56.000000
3.749780 -1.579865 0.123914 64.000000
3.746756 -1.592143 0.123958 59.000000
3.740934 -1.603237 0.123936 49.000000
3.735080 -1.614310 0.123914 36.000000
3.789690 -1.651709 0.125321 6.000000
4.018891 -0.774404 0.073895 13.000000
3.969394 -0.777499 0.073451 42.000000
3.965029 -0.789283 0.073432 46.000000
3.959648 -0.800849 0.073404 53.000000
3.954234 -0.812389 0.073377 54.000000
3.945850 -0.823291 0.073321 58.000000
3.946240 -0.836015 0.073349 52.000000
3.940724 -0.847486 0.073321 47.000000
3.935174 -0.858932 0.073293 51.000000
3.931544 -0.870785 0.073284 47.000000
3.926903 -0.882404 0.073266 54.000000
3.926127 -0.894892 0.073284 47.000000
3.922389 -0.906708 0.073275 52.000000
3.917642 -0.918281 0.073256 54.000000
3.917725 -0.930989 0.073284 39.000000
3.914850 -0.943004 0.073284 57.000000
3.915824 -0.955960 0.073321 50.000000
3.915785 -0.968689 0.073349 50.000000
3.910855 -0.980212 0.073330 40.000000
3.903952 -0.991221 0.073293 49.000000
3.900893 -1.003193 0.073293 48.000000
3.899732 -1.015661 0.073312 35.000000
3.896598 -1.027620 0.073312 39.000000
3.891495 -1.039054 0.073293 43.000000
3.888288 -1.050988 0.073293 53.000000
3.887939 -1.063704 0.073321 48.000000
3.885621 -1.075894 0.073330 54.000000
3.881339 -1.087540 0.073321 68.000000
3.877984 -1.099442 0.073321 65.000000
3.871710 -1.110507 0.073293 43.000000
3.871165 -1.123217 0.073321 41.000000
3.865782 -1.134524 0.073302 54.000000
3.863242 -1.146664 0.073312 44.000000
3.858748 -1.158223 0.073302 50.000000
3.856134 -1.170347 0.073312 60.000000
3.852525 -1.182172 0.073312 47.000000
3.851745 -1.194875 0.073339 46.000000
3.849015 -1.206985 0.073349 57.000000
3.851013 -1.220601 0.073404 52.000000
3.850107 -1.233326 0.073432 52.000000
3.849159 -1.246056 0.073460 58.000000
3.846268 -1.258170 0.073469 57.000000
3.841441 -1.269651 0.073460 43.000000
3.835631 -1.280796 0.073441 51.000000
3.832631 -1.292878 0.073451 44.000000
3.827699 -1.304307 0.073441 36.000000
3.824625 -1.316370 0.073451 48.000000
3.824347 -1.329411 0.073488 50.000000
3.824024 -1.342463 0.073525 51.000000
3.826485 -1.356528 0.073589 38.000000
3.827954 -1.370284 0.073645 36.000000
3.819970 -1.380662 0.073608 47.000000
3.816656 -1.392717 0.073617 55.000000
3.810488 -1.403729 0.073599 46.000000
3.803352 -1.414367 0.073571 54.000000
3.798059 -1.425677 0.073562 42.000000
3.791797 -1.436614 0.073543 49.000000
3.789240 -1.448955 0.073562 40.000000
3.786642 -1.461293 0.073580 42.000000
3.784937 -1.473993 0.073608 51.000000
3.783189 -1.486695 0.073636 47.000000
3.781398 -1.499401 0.073663 47.000000
3.778637 -1.511738 0.073682 66.000000
3.774909 -1.523698 0.073691 55.000000
3.767438 -1.534140 0.073663 41.000000
3.764563 -1.546452 0.073682 51.000000
3.759801 -1.557994 0.073682 47.000000
3.755004 -1.569521 0.073682 42.000000
3.750171 -1.581034 0.073682 36.000000
3.744382 -1.592141 0.073673 37.000000
3.745913 -1.606380 0.073737 24.000000
3.959937 -0.799981 0.022835 36.000000
3.962363 -0.813130 0.022819 33.000000
3.953975 -0.824060 0.022839 41.000000
3.947515 -0.835360 0.022852 55.000000
3.940044 -0.846418 0.022868 59.000000
3.933521 -0.857651 0.022882 45.000000
3.927942 -0.869068 0.022892 60.000000
3.927209 -0.881552 0.022885 52.000000
3.928386 -0.894483 0.022872 53.000000
3.928546 -0.907205 0.022862 46.000000
3.923797 -0.918798 0.022868 58.000000
3.919987 -0.930601 0.022872 55.000000
3.918086 -0.942857 0.022868 68.000000
3.912260 -0.954163 0.022878 40.000000
3.912227 -0.966880 0.022868 51.000000
3.904391 -0.977665 0.022885 48.000000
3.898465 -0.988902 0.022895 56.000000
3.898319 -1.001603 0.022885 62.000000
3.897164 -1.014062 0.022878 59.000000
3.895968 -1.026522 0.022872 44.000000
3.897632 -1.039757 0.022855 61.000000
3.897320 -1.052492 0.022845 42.000000
3.896967 -1.065234 0.022835 57.000000
3.892717 -1.076918 0.022839 51.000000
3.888431 -1.088586 0.022842 36.000000
3.878338 -1.098605 0.022865 52.000000
3.872065 -1.109673 0.022875 54.000000
3.867682 -1.121269 0.022878 55.000000
3.863264 -1.132848 0.022882 55.000000
3.864564 -1.146115 0.022865 61.000000
3.865819 -1.159401 0.022849 62.000000
3.863201 -1.171546 0.022845 60.000000
3.859589 -1.183392 0.022845 50.000000
3.855940 -1.195228 0.022845 60.000000
3.854163 -1.207650 0.022839 59.000000
3.855207 -1.220977 0.022822 61.000000
3.851444 -1.232798 0.022822 74.000000
3.855256 -1.247069 0.022795 63.000000
3.852362 -1.259201 0.022792 54.000000
3.851330 -1.271954 0.022782 65.000000
3.846460 -1.283447 0.022786 75.000000
3.839662 -1.294285 0.022795 63.000000
3.832833 -1.305092 0.022805 42.000000
3.829756 -1.317170 0.022802 54.000000
3.828532 -1.329897 0.022792 59.000000
3.826321 -1.342298 0.022786 63.000000
3.822185 -1.354031 0.022786 42.000000
3.818012 -1.365751 0.022786 55.000000
3.815686 -1.378137 0.022779 51.000000
3.808621 -1.388810 0.022789 67.000000
3.805281 -1.400833 0.022786 46.000000
3.798153 -1.411456 0.022795 43.000000
3.796614 -1.424155 0.022786 38.000000
3.790356 -1.435089 0.022792 58.000000
3.789672 -1.448137 0.022779 48.000000
3.784279 -1.459398 0.022782 46.000000
3.787240 -1.473900 0.022756 54.000000
3.788285 -1.487704 0.022736 75.000000
3.786493 -1.500423 0.022726 58.000000
3.782800 -1.512404 0.022723 56.000000
3.780925 -1.525124 0.022713 66.000000
3.773449 -1.535586 0.022723 49.000000
3.770571 -1.547915 0.022716 44.000000
3.764880 -1.559093 0.022719 71.000000
3.759156 -1.570251 0.022723 46.000000
3.753399 -1.581389 0.022726 37.000000
3.752212 -1.594460 0.022713 36.000000
3.767526 -1.614624 0.022640 17.000000
3.944907 -0.796438 -0.026794 47.000000
3.947343 -0.809542 -0.026872 52.000000
3.945819 -0.821853 -0.026888 47.000000
3.941322 -0.833540 -0.026857 41.000000
3.942657 -0.846468 -0.026919 46.000000
3.941019 -0.858773 -0.026935 44.000000
3.936413 -0.870428 -0.026904 42.000000
3.940553 -0.884034 -0.027014 31.000000
3.934897 -0.895453 -0.026966 42.000000
3.935055 -0.908196 -0.027014 58.000000
3.933223 -0.920492 -0.027029 43.000000
3.926490 -0.931631 -0.026966 36.000000
3.925557 -0.944141 -0.026998 46.000000
3.927499 -0.957364 -0.027076 50.000000
3.926485 -0.969889 -0.027108 57.000000
3.926400 -0.982659 -0.027155 54.000000
3.923367 -0.994700 -0.027155 42.000000
3.921266 -1.006981 -0.027171 39.000000
3.921061 -1.019762 -0.027218 39.000000
3.915013 -1.031023 -0.027171 52.000000
3.907967 -1.041998 -0.027108 36.000000
3.902821 -1.053461 -0.027076 33.000000
3.896677 -1.064639 -0.027029 48.000000
3.890502 -1.075789 -0.026982 48.000000
3.891034 -1.088798 -0.027045 59.000000
3.883827 -1.099641 -0.026982 81.000000
3.878513 -1.111000 -0.026951 53.000000
3.871245 -1.121780 -0.026888 47.000000
3.870664 -1.134496 -0.026935 59.000000
3.867165 -1.146366 -0.026935 67.000000
3.872249 -1.160809 -0.027076 45.000000
3.871540 -1.173554 -0.027124 45.000000
3.871746 -1.186599 -0.027186 56.000000
3.870952 -1.199360 -0.027233 42.000000
3.872025 -1.212725 -0.027312 52.000000
3.865427 -1.223693 -0.027265 44.000000
3.860702 -1.235241 -0.027249 47.000000
3.852137 -1.245541 -0.027171 53.000000
3.844496 -1.256111 -0.027108 64.000000
3.837776 -1.266959 -0.027061 37.000000
3.838614 -1.280309 -0.027139 77.000000
3.832772 -1.291441 -0.027108 49.000000
3.835418 -1.305450 -0.027218 55.000000
3.837068 -1.319162 -0.027312 62.000000
3.835836 -1.331912 -0.027359 47.000000
3.834563 -1.344666 -0.027406 43.000000
3.831362 -1.356758 -0.027422 52.000000
3.826240 -1.368170 -0.027406 62.000000
3.824845 -1.380921 -0.027453 48.000000
3.821530 -1.392991 -0.027469 41.000000
3.817239 -1.404709 -0.027469 48.000000
3.813848 -1.416762 -0.027485 46.000000
3.812292 -1.429509 -0.027532 53.000000
3.809759 -1.441906 -0.027563 63.000000
3.808120 -1.454659 -0.027610 51.000000
3.808303 -1.468134 -0.027689 50.000000
3.807508 -1.481261 -0.027752 43.000000
3.806669 -1.494397 -0.027815 41.000000
3.803925 -1.506805 -0.027846 42.000000
3.800213 -1.518840 -0.027862 54.000000
3.795535 -1.530491 -0.027862 52.000000
3.793601 -1.543259 -0.027909 34.000000
3.785148 -1.553372 -0.027846 59.000000
3.782212 -1.565742 -0.027877 56.000000
3.779236 -1.578109 -0.027909 44.000000
3.776220 -1.590473 -0.027940 49.000000
3.774083 -1.603224 -0.027987 51.000000
3.770066 -1.615189 -0.028003 33.000000
3.951581 -0.798296 -0.075286 40.000000
3.955968 -0.811820 -0.075480 50.000000
3.950523 -0.823342 -0.075397 34.000000
3.952868 -0.836491 -0.075536 45.000000
3.956148 -0.849873 -0.075702 44.000000
3.956452 -0.862644 -0.075785 61.000000
3.951834 -0.874347 -0.075730 66.000000
3.954986 -0.887779 -0.075896 48.000000
3.949320 -0.899243 -0.075813 43.000000
3.943620 -0.910682 -0.075730 44.000000
3.940808 -0.922776 -0.075730 58.000000
3.935040 -0.934170 -0.075646 64.000000
3.930212 -0.945771 -0.075591 41.000000
3.927292 -0.957824 -0.075591 55.000000
3.923364 -0.969629 -0.075563 38.000000
3.921340 -0.981904 -0.075591 61.000000
3.920248 -0.994421 -0.075646 52.000000
3.920083 -1.007189 -0.075730 36.000000
3.914072 -1.018456 -0.075646 38.000000
3.908996 -1.029951 -0.075591 55.000000
3.904851 -1.041681 -0.075563 45.000000
3.900672 -1.053396 -0.075536 48.000000
3.896458 -1.065095 -0.075508 34.000000
3.897989 -1.078375 -0.075646 37.000000
3.894663 -1.090329 -0.075646 52.000000
3.892261 -1.102545 -0.075674 51.000000
3.893665 -1.115856 -0.075813 49.000000
3.890224 -1.127797 -0.075813 51.000000
3.886745 -1.139726 -0.075813 47.000000
3.882272 -1.151361 -0.075785 52.000000
3.876806 -1.162693 -0.075730 53.000000
3.873221 -1.174581 -0.075730 50.000000
3.866731 -1.185580 -0.075646 43.000000
3.860211 -1.196551 -0.075563 48.000000
3.856522 -1.208388 -0.075563 41.000000
3.852797 -1.220214 -0.075563 53.000000
3.852844 -1.233246 -0.075674 59.000000
3.850944 -1.245676 -0.075730 59.000000
3.849955 -1.258415 -0.075813 69.000000
3.849873 -1.271474 -0.075924 57.000000
3.847851 -1.283911 -0.075979 55.000000
3.842947 -1.295391 -0.075952 54.000000
3.838954 -1.307175 -0.075952 70.000000
3.835871 -1.319271 -0.075979 44.000000
3.833695 -1.331689 -0.076035 51.000000
3.830534 -1.343775 -0.076063 49.000000
3.825451 -1.355187 -0.076035 56.000000
3.822217 -1.367253 -0.076063 46.000000
3.822706 -1.380670 -0.076201 42.000000
3.821270 -1.393418 -0.076285 47.000000
3.821667 -1.406860 -0.076423 38.000000
3.821082 -1.419970 -0.076534 48.000000
3.817643 -1.432037 -0.076562 44.000000
3.817907 -1.445511 -0.076701 37.000000
3.815322 -1.457930 -0.076756 41.000000
3.809898 -1.469269 -0.076729 44.000000
3.805372 -1.480951 -0.076729 39.000000
3.800811 -1.492619 -0.076729 56.000000
3.796214 -1.504272 -0.076729 62.000000
3.792509 -1.516283 -0.076756 61.000000
3.786912 -1.527537 -0.076729 43.000000
3.780356 -1.538395 -0.076673 45.000000
3.771919 -1.548468 -0.076562 65.000000
3.769922 -1.561180 -0.076645 65.000000
3.766960 -1.573508 -0.076701 54.000000
3.763957 -1.585833 -0.076756 39.000000
3.758154 -1.596983 -0.076729 44.000000
3.745885 -1.605357 -0.076507 24.000000
3.964725 -0.800441 -0.126342 19.000000
3.973017 -0.814810 -0.126786 31.000000
3.966586 -0.826180 -0.126624 18.000000
3.971853 -0.840000 -0.126947 36.000000
3.967304 -0.851762 -0.126866 34.000000
3.964672 -0.863930 -0.126866 28.000000
3.964929 -0.876737 -0.126987 34.000000
3.963196 -0.889115 -0.127028 44.000000
3.959475 -0.901048 -0.126987 40.000000
3.950851 -0.911843 -0.126745 37.000000
3.948034 -0.923960 -0.126745 30.000000
3.945181 -0.936068 -0.126745 34.000000
3.944234 -0.948634 -0.126826 28.000000
3.933539 -0.958837 -0.126504 37.000000
3.931549 -0.971140 -0.126544 31.000000
3.927582 -0.982955 -0.126504 34.000000
3.924547 -0.995000 -0.126504 19.000000
3.924380 -1.007781 -0.126624 41.000000
3.928038 -1.021577 -0.126907 29.000000
3.927784 -1.034387 -0.127028 44.000000
3.930385 -1.047978 -0.127269 42.000000
3.934868 -1.062115 -0.127592 43.000000
3.942194 -1.077080 -0.128035 30.000000
3.938871 -1.089169 -0.128035 41.000000
3.938397 -1.102056 -0.128156 39.000000
3.937881 -1.114951 -0.128277 30.000000
3.931561 -1.126201 -0.128156 41.000000
3.934805 -1.140205 -0.128438 39.000000
3.934165 -1.153115 -0.128559 32.000000
3.929651 -1.164895 -0.128519 50.000000
3.929887 -1.178094 -0.128680 42.000000
3.929122 -1.191015 -0.128801 43.000000
3.933092 -1.205406 -0.129123 43.000000
3.926512 -1.216580 -0.129003 45.000000
3.924669 -1.229218 -0.129083 32.000000
3.921831 -1.241555 -0.129123 43.000000
3.898971 -1.247489 -0.128317 39.000000
3.894175 -1.259138 -0.128277 49.000000
3.902641 -1.275114 -0.128801 39.000000
3.904403 -1.288961 -0.129043 32.000000
3.908013 -1.303464 -0.129365 38.000000
3.906836 -1.316405 -0.129486 31.000000
3.886699 -1.322910 -0.128801 47.000000
3.893016 -1.338402 -0.129244 32.000000
3.877565 -1.346405 -0.128761 37.000000
3.864930 -1.355319 -0.128398 46.000000
3.852277 -1.364167 -0.128035 38.000000
3.840547 -1.373287 -0.127713 34.000000
3.827858 -1.382009 -0.127350 32.000000
3.820784 -1.392719 -0.127229 34.000000
3.817431 -1.404780 -0.127269 45.000000
3.817786 -1.418225 -0.127471 36.000000
3.817159 -1.431335 -0.127632 45.000000
3.817422 -1.444808 -0.127834 37.000000
3.818572 -1.458652 -0.128076 38.000000
3.814079 -1.470361 -0.128076 37.000000
3.813274 -1.483505 -0.128237 40.000000
3.809635 -1.495562 -0.128277 57.000000
3.803171 -1.506506 -0.128196 28.000000
3.800387 -1.518909 -0.128277 48.000000
3.794782 -1.530188 -0.128237 46.000000
3.786368 -1.540316 -0.128076 46.000000
3.784398 -1.553064 -0.128196 28.000000
3.778692 -1.564285 -0.128156 25.000000
3.774797 -1.576255 -0.128196 44.000000
3.769023 -1.587441 -0.128156 32.000000
3.757698 -1.596261 -0.127874 27.000000
4.062201 -1.071781 -0.183170 22.000000
4.060823 -1.084754 -0.183275 23.000000
4.088327 -1.105540 -0.184950 30.000000
4.108998 -1.124662 -0.186258 53.000000
4.094941 -1.134333 -0.185682 45.000000
4.089519 -1.146353 -0.185578 45.000000
4.095590 -1.161616 -0.186101 61.000000
4.078568 -1.170323 -0.185368 38.000000
4.086467 -1.186168 -0.185996 60.000000
4.085684 -1.199543 -0.186153 60.000000
4.070496 -1.208664 -0.185525 31.000000
4.061030 -1.219425 -0.185211 22.000000
4.065870 -1.234487 -0.185682 27.000000
4.075430 -1.251054 -0.186415 42.000000
4.077295 -1.265326 -0.186729 31.000000
4.080065 -1.279919 -0.187095 51.000000
4.082783 -1.294542 -0.187462 53.000000
4.086401 -1.309497 -0.187880 52.000000
4.081414 -1.321721 -0.187828 100.000000
4.089679 -1.338270 -0.188508 69.000000
4.095037 -1.353943 -0.189032 37.000000
4.093705 -1.367449 -0.189189 53.000000
4.098008 -1.382873 -0.189660 49.000000
4.104144 -1.398980 -0.190235 39.000000
4.094167 -1.409616 -0.189921 59.000000
4.106802 -1.428069 -0.190864 29.000000
4.126902 -1.449259 -0.192224 18.000000
4.167865 -1.097637 -0.242265 20.000000
4.151943 -1.107075 -0.241423 31.000000
4.149491 -1.120068 -0.241488 26.000000
4.142184 -1.131741 -0.241229 29.000000
4.124266 -1.140453 -0.240259 52.000000
4.114021 -1.151218 -0.239806 44.000000
4.099908 -1.160843 -0.239094 64.000000
4.095368 -1.173141 -0.239029 54.000000
4.089833 -1.185144 -0.238900 64.000000
4.086178 -1.197686 -0.238900 53.000000
4.079614 -1.209365 -0.238706 46.000000
4.077796 -1.222449 -0.238835 52.000000
4.074981 -1.235243 -0.238900 56.000000
4.068310 -1.246862 -0.238706 75.000000
4.064466 -1.259337 -0.238706 57.000000
4.057726 -1.270906 -0.238512 46.000000
4.050954 -1.282445 -0.238317 51.000000
4.047951 -1.295171 -0.238382 44.000000
4.051554 -1.310041 -0.238900 41.000000
4.051310 -1.323705 -0.239159 32.000000
4.070920 -1.343951 -0.240776 79.000000
4.076243 -1.359592 -0.241423 56.000000
4.087183 -1.377191 -0.242459 47.000000
4.096163 -1.394227 -0.243365 43.000000
4.093754 -1.407436 -0.243494 44.000000
4.092245 -1.420971 -0.243688 46.000000
4.087866 -1.433519 -0.243688 29.000000
4.073102 -1.442389 -0.242976 11.000000
4.174920 -1.087800 -0.293820 25.000000
4.159993 -1.097554 -0.292902 31.000000
4.147936 -1.107998 -0.292213 32.000000
4.136816 -1.118638 -0.291601 36.000000
4.120862 -1.127906 -0.290605 43.000000
4.106812 -1.137618 -0.289764 43.000000
4.100422 -1.149406 -0.289534 41.000000
4.091120 -1.160349 -0.289075 48.000000
4.086583 -1.172621 -0.288998 54.000000
4.085839 -1.185986 -0.289228 47.000000
4.084095 -1.199077 -0.289381 55.000000
4.078485 -1.211034 -0.289228 44.000000
4.076660 -1.224113 -0.289381 43.000000
4.073840 -1.236904 -0.289457 45.000000
4.068120 -1.248812 -0.289304 44.000000
4.067126 -1.262173 -0.289534 45.000000
4.062283 -1.274346 -0.289457 36.000000
4.055502 -1.285900 -0.289228 22.000000
4.059135 -1.300768 -0.289840 45.000000
4.059869 -1.314750 -0.290223 38.000000
4.059607 -1.328439 -0.290529 108.000000
4.064980 -1.344014 -0.291294 80.000000
4.063674 -1.357426 -0.291524 68.000000
4.067050 -1.372435 -0.292136 50.000000
4.070370 -1.387478 -0.292749 42.000000
4.080237 -1.404824 -0.293897 25.000000
4.074966 -1.417008 -0.293820 41.000000
4.080008 -1.432805 -0.294586 29.000000
4.087811 -1.449644 -0.295581 15.000000
4.170852 -1.086300 -0.346311 13.000000
4.147274 -1.093755 -0.344448 34.000000
4.135238 -1.104160 -0.343649 44.000000
4.123178 -1.114502 -0.342851 57.000000
4.119739 -1.127146 -0.342851 49.000000
4.111462 -1.138451 -0.342407 49.000000
4.106031 -1.150521 -0.342230 49.000000
4.096733 -1.161482 -0.341698 46.000000
4.094107 -1.174320 -0.341786 39.000000
4.096225 -1.188541 -0.342319 44.000000
4.098294 -1.202786 -0.342851 39.000000
4.094584 -1.215354 -0.342851 39.000000
4.096560 -1.229629 -0.343383 53.000000
4.092769 -1.242191 -0.343383 44.000000
4.091795 -1.255619 -0.343649 36.000000
4.099339 -1.271709 -0.344714 74.000000
4.088766 -1.282192 -0.344093 47.000000
4.085762 -1.295031 -0.344182 88.000000
4.087461 -1.309384 -0.344714 50.000000
4.081530 -1.321304 -0.344537 39.000000
4.074616 -1.332891 -0.344271 41.000000
4.072399 -1.346011 -0.344448 51.000000
4.067306 -1.358183 -0.344359 40.000000
4.066895 -1.371928 -0.344714 53.000000
4.068324 -1.386327 -0.345246 46.000000
4.074411 -1.402369 -0.346222 37.000000
4.080439 -1.418461 -0.347198 31.000000
4.079827 -1.432293 -0.347553 32.000000
4.080107 -1.446467 -0.347997 16.000000
4.152949 -1.094925 -0.399230 44.000000
4.138034 -1.104585 -0.398015 54.000000
4.135586 -1.117534 -0.398116 42.000000
4.131179 -1.129955 -0.398015 41.000000
4.118104 -1.139972 -0.397003 50.000000
4.111713 -1.151796 -0.396699 45.000000
4.110075 -1.164948 -0.396901 63.000000
4.108394 -1.178100 -0.397104 53.000000
4.108582 -1.191806 -0.397509 47.000000
4.113499 -1.206924 -0.398420 59.000000
4.117408 -1.221800 -0.399230 41.000000
4.120311 -1.236426 -0.399938 43.000000
4.122210 -1.250793 -0.400546 37.000000
4.123109 -1.264892 -0.401052 44.000000
4.145818 -1.285780 -0.403886 136.000000
4.113372 -1.289572 -0.400849 49.000000
4.103705 -1.300384 -0.400242 33.000000
4.102539 -1.313877 -0.400546 25.000000
4.082397 -1.321254 -0.398825 59.000000
4.078324 -1.333773 -0.398825 49.000000
4.068544 -1.344407 -0.398217 65.000000
4.065344 -1.357198 -0.398318 43.000000
4.064932 -1.370934 -0.398723 45.000000
4.066358 -1.385322 -0.399331 51.000000
4.064911 -1.398762 -0.399634 59.000000
4.064360 -1.412531 -0.400039 52.000000
4.073151 -1.429603 -0.401457 31.000000
4.065932 -1.441096 -0.401153 14.000000
4.157415 -1.095657 -0.451113 28.000000
4.151154 -1.107638 -0.450774 29.000000
4.147736 -1.120368 -0.450774 42.000000
4.137570 -1.131253 -0.449983 26.000000
4.126420 -1.141821 -0.449079 43.000000
4.121940 -1.154208 -0.448966 41.000000
4.122203 -1.167932 -0.449418 54.000000
4.122421 -1.181669 -0.449870 41.000000
4.120686 -1.194864 -0.450096 66.000000
4.127488 -1.210577 -0.451339 49.000000
4.134232 -1.226344 -0.452583 29.000000
4.137112 -1.241021 -0.453374 37.000000
4.139940 -1.255727 -0.454165 39.000000
4.157916 -1.275124 -0.456765 18.000000
4.145444 -1.285226 -0.455748 38.000000
4.143377 -1.298532 -0.455974 59.000000
4.130849 -1.308536 -0.454956 38.000000
4.127762 -1.321507 -0.455069 53.000000
4.118016 -1.332329 -0.454391 45.000000
4.109187 -1.343412 -0.453826 41.000000
4.099386 -1.354142 -0.453148 54.000000
4.092385 -1.365769 -0.452809 46.000000
4.087234 -1.378000 -0.452696 59.000000
4.082987 -1.390533 -0.452696 45.000000
4.076823 -1.402406 -0.452470 36.000000
4.075316 -1.415886 -0.452809 37.000000
4.073766 -1.429369 -0.453148 47.000000
4.072171 -1.442856 -0.453487 10.000000
4.162624 -1.097473 -0.505660 19.000000
4.159237 -1.110238 -0.505660 37.000000
4.152938 -1.122218 -0.505284 31.000000
4.153304 -1.136000 -0.505785 38.000000
4.144062 -1.147150 -0.505033 33.000000
4.142434 -1.160393 -0.505284 57.000000
4.137899 -1.172826 -0.505158 53.000000
4.133328 -1.185242 -0.505033 54.000000
4.138248 -1.200403 -0.506161 48.000000
4.141210 -1.215047 -0.507039 44.000000
4.143170 -1.229438 -0.507791 37.000000
4.159336 -1.248126 -0.510423 35.000000
4.163083 -1.263183 -0.511425 24.000000
4.161695 -1.304707 -0.512804 27.000000
4.151052 -1.315373 -0.511927 26.000000
4.136602 -1.324776 -0.510548 34.000000
4.124023 -1.334714 -0.509420 34.000000
4.113307 -1.345203 -0.508543 50.000000
4.101624 -1.355328 -0.507540 53.000000
4.095564 -1.367278 -0.507289 48.000000
4.085709 -1.377935 -0.506537 48.000000
4.087098 -1.392382 -0.507289 43.000000
4.090312 -1.407495 -0.508292 39.000000
4.084101 -1.419386 -0.508041 45.000000
4.093770 -1.436834 -0.509921 37.000000
4.123945 -1.461640 -0.514558 14.000000
4.206662 -1.120887 -0.565716 16.000000
4.175470 -1.126305 -0.561730 36.000000
4.166262 -1.137543 -0.560906 35.000000
4.157979 -1.149001 -0.560219 53.000000
4.152526 -1.161218 -0.559944 48.000000
4.145132 -1.172873 -0.559394 43.000000
4.142467 -1.185858 -0.559531 45.000000
4.147372 -1.201041 -0.560768 45.000000
4.152222 -1.216266 -0.562005 43.000000
4.156069 -1.231251 -0.563105 31.000000
4.163658 -1.247408 -0.564754 44.000000
4.174978 -1.264772 -0.566953 25.000000
4.157254 -1.315313 -0.566678 43.000000
4.147539 -1.326250 -0.565854 47.000000
4.140623 -1.338054 -0.565441 52.000000
4.131790 -1.349213 -0.564754 40.000000
4.120107 -1.359400 -0.563655 58.000000
4.107460 -1.369214 -0.562418 45.000000
4.097608 -1.379912 -0.561593 47.000000
4.090542 -1.391519 -0.561181 70.000000
4.089064 -1.405028 -0.561593 39.000000
4.085670 -1.417891 -0.561730 42.000000
4.098126 -1.436318 -0.564204 25.000000
4.223913 -1.142164 -0.621629 13.000000
4.180329 -1.144165 -0.615363 27.000000
4.159645 -1.152238 -0.612677 39.000000
4.157043 -1.165261 -0.612826 47.000000
4.158206 -1.179357 -0.613572 43.000000
4.160271 -1.193743 -0.614467 42.000000
4.167985 -1.209806 -0.616258 38.000000
4.175640 -1.225927 -0.618048 36.000000
4.177547 -1.240419 -0.618943 47.000000
4.204029 -1.262321 -0.623717 27.000000
4.156835 -1.318000 -0.619391 23.000000
4.143355 -1.327731 -0.617899 32.000000
4.143025 -1.341654 -0.618496 46.000000
4.130430 -1.351593 -0.617153 28.000000
4.120631 -1.362398 -0.616258 31.000000
4.108928 -1.372529 -0.615064 28.000000
4.103761 -1.384813 -0.614915 41.000000
4.096685 -1.396440 -0.614467 51.000000
4.092381 -1.409002 -0.614467 59.000000
4.079633 -1.418630 -0.613125 30.000000
4.085526 -1.434741 -0.614766 7.000000
4.237137 -1.129800 -0.676984 31.000000
4.205067 -1.135075 -0.672151 69.000000
4.198709 -1.147190 -0.671668 36.000000
4.183754 -1.156909 -0.669735 41.000000
4.174483 -1.168143 -0.668768 33.000000
4.170879 -1.180944 -0.668768 59.000000
4.168186 -1.194007 -0.668929 35.000000
4.173982 -1.209537 -0.670540 51.000000
4.174040 -1.223447 -0.671185 69.000000
4.178782 -1.238773 -0.672634 46.000000
4.196336 -1.342663 -0.680367 37.000000
4.176233 -1.350367 -0.677628 52.000000
4.160814 -1.359494 -0.675695 56.000000
4.144440 -1.368230 -0.673601 67.000000
4.131797 -1.378127 -0.672151 72.000000
4.125679 -1.390166 -0.671829 71.000000
4.123263 -1.403453 -0.672151 64.000000
4.127337 -1.418986 -0.673601 54.000000
4.128559 -1.433584 -0.674567 55.000000
4.112965 -1.442324 -0.672634 32.000000
4.252740 -1.135963 -0.734047 20.000000
4.221661 -1.141556 -0.729031 35.000000
4.217189 -1.154243 -0.728858 37.000000
4.203186 -1.164286 -0.726956 39.000000
4.192955 -1.175317 -0.725745 56.000000
4.188382 -1.187907 -0.725572 64.000000
4.190399 -1.202379 -0.726610 61.000000
4.194257 -1.217424 -0.727994 67.000000
4.199009 -1.232781 -0.729550 39.000000
4.208426 -1.249579 -0.731972 35.000000
4.153419 -1.330954 -0.726956 23.000000
4.194298 -1.358243 -0.735258 61.000000
4.184494 -1.369268 -0.734220 64.000000
4.171856 -1.379319 -0.732664 50.000000
4.157328 -1.388682 -0.730761 59.000000
4.151181 -1.400801 -0.730415 58.000000
4.136609 -1.410037 -0.728512 45.000000
4.135057 -1.423682 -0.729031 54.000000
4.133461 -1.437331 -0.729550 38.000000
4.145761 -1.455876 -0.732664 25.000000
4.229647 -1.129378 -0.782516 41.000000
4.227110 -1.142605 -0.782700 52.000000
4.215054 -1.153233 -0.781040 60.000000
4.207707 -1.165110 -0.780302 71.000000
4.203166 -1.177748 -0.780118 81.000000
4.198588 -1.190370 -0.779933 67.000000
4.195861 -1.203516 -0.780118 76.000000
4.196868 -1.217753 -0.781040 69.000000
4.193112 -1.230623 -0.781040 90.000000
4.205334 -1.248238 -0.784176 58.000000
4.270201 -1.281766 -0.797642 16.000000
4.190663 -1.342454 -0.786759 28.000000
4.192135 -1.357122 -0.787865 78.000000
4.183280 -1.368448 -0.786943 102.000000
4.171597 -1.378808 -0.785467 78.000000
4.158958 -1.388797 -0.783807 84.000000
4.152815 -1.400921 -0.783438 72.000000
4.148498 -1.413656 -0.783438 77.000000
4.145071 -1.426696 -0.783623 74.000000
4.148100 -1.441989 -0.785098 57.000000
4.156639 -1.459267 -0.787681 50.000000
4.183638 -1.483181 -0.793953 23.000000
