ply
format ascii 1.0
element vertex 1266
property float x
property float y
property float z
property float intensity
end_header
3.638001 0.191364 0.470632 8.000000
3.640555 0.180301 0.470870 13.000000
3.683739 0.171126 0.475984 48.000000
3.636633 0.157743 0.470275 13.000000
3.636107 0.146545 0.470156 17.000000
3.634556 0.135314 0.469918 29.000000
3.640908 0.124368 0.470632 42.000000
3.640280 0.113166 0.470513 36.000000
3.647557 0.102194 0.471346 26.000000
3.650831 0.091078 0.471702 24.000000
3.658042 0.080032 0.472535 26.000000
3.663234 0.068904 0.473129 33.000000
3.692219 0.058127 0.476578 17.000000
3.700322 0.046902 0.477530 10.000000
3.694492 0.035491 0.476816 7.000000
3.714441 0.024292 0.479194 21.000000
3.660945 0.192536 0.428207 7.000000
3.658539 0.181157 0.427887 9.000000
3.659078 0.169931 0.427887 6.000000
3.656601 0.158576 0.427567 11.000000
3.649123 0.147037 0.426712 8.000000
3.649557 0.135841 0.426712 13.000000
3.639026 0.124272 0.425538 10.000000
3.635415 0.112984 0.425111 11.000000
3.637732 0.101885 0.425324 10.000000
3.687227 0.069311 0.430557 7.000000
3.692393 0.058076 0.431091 7.000000
3.698519 0.046823 0.431731 8.000000
3.702835 0.216941 0.388563 11.000000
3.695532 0.205136 0.387804 28.000000
3.685208 0.193220 0.386759 34.000000
3.684790 0.181864 0.386664 51.000000
3.684336 0.170512 0.386569 38.000000
3.681858 0.159078 0.386284 45.000000
3.672382 0.147379 0.385334 35.000000
3.676796 0.136260 0.385714 34.000000
3.684161 0.125218 0.386379 43.000000
3.661643 0.113200 0.384194 30.000000
3.662968 0.101994 0.384289 35.000000
3.677196 0.091105 0.385619 33.000000
3.690397 0.080108 0.386854 60.000000
3.687639 0.068729 0.386569 68.000000
3.683851 0.057352 0.386189 73.000000
3.683014 0.046037 0.386094 59.000000
3.712006 0.035019 0.388848 30.000000
3.684223 0.023445 0.386189 35.000000
3.684278 0.012141 0.386189 26.000000
3.684298 0.000838 0.386189 45.000000
3.675323 -0.010443 0.385334 29.000000
3.627409 -0.032580 0.380775 7.000000
3.640919 0.303712 0.337176 23.000000
3.656734 0.293735 0.338413 18.000000
3.672523 0.283665 0.339650 30.000000
3.654493 0.270998 0.338083 38.000000
3.653318 0.259644 0.337918 47.000000
3.661058 0.248907 0.338496 59.000000
3.667772 0.238061 0.338990 64.000000
3.662517 0.226438 0.338496 76.000000
3.665184 0.215318 0.338661 49.000000
3.661847 0.203851 0.338331 61.000000
3.656484 0.192302 0.337836 37.000000
3.658052 0.181132 0.337918 66.000000
3.658590 0.169909 0.337918 70.000000
3.662081 0.158813 0.338166 54.000000
3.659564 0.147457 0.337918 48.000000
3.657011 0.136118 0.337671 32.000000
3.652432 0.124728 0.337259 48.000000
3.666743 0.113954 0.338413 57.000000
3.655121 0.102371 0.337424 46.000000
3.649440 0.091008 0.336929 46.000000
3.655680 0.079941 0.337424 55.000000
3.661886 0.068837 0.337918 82.000000
3.649126 0.057400 0.336846 41.000000
3.656261 0.046292 0.337424 57.000000
3.647417 0.034989 0.336681 43.000000
3.665445 0.023914 0.338166 122.000000
3.653542 0.012629 0.337176 35.000000
3.654561 0.001420 0.337259 48.000000
3.654548 -0.009792 0.337259 31.000000
3.657490 -0.021022 0.337506 26.000000
3.657408 -0.032242 0.337506 30.000000
3.656296 -0.043451 0.337424 59.000000
3.653156 -0.054623 0.337176 58.000000
3.652971 -0.065831 0.337176 60.000000
3.650759 -0.076995 0.337011 46.000000
3.646520 -0.088099 0.336681 42.000000
3.631290 -0.098877 0.335445 16.000000
3.595109 -0.108927 0.332476 17.000000
3.493398 0.332772 0.283529 28.000000
3.539099 0.326188 0.286708 33.000000
3.570883 0.318082 0.288897 49.000000
3.589731 0.308669 0.290168 62.000000
3.599607 0.298399 0.290804 62.000000
3.590562 0.286557 0.290098 56.000000
3.613305 0.277226 0.291651 64.000000
3.607175 0.265624 0.291157 99.000000
3.608968 0.254627 0.291228 81.000000
3.560966 0.240247 0.287767 55.000000
3.604490 0.232091 0.290804 87.000000
3.573326 0.219068 0.288544 53.000000
3.608833 0.210145 0.291016 79.000000
3.576594 0.197249 0.288685 55.000000
3.559252 0.185336 0.287414 52.000000
3.565782 0.174710 0.287838 49.000000
3.578258 0.164323 0.288685 49.000000
3.556821 0.152397 0.287131 43.000000
3.582189 0.142484 0.288897 47.000000
3.563670 0.130792 0.287555 44.000000
3.521186 0.118402 0.284518 38.000000
3.516548 0.107445 0.284165 30.000000
3.550763 0.097599 0.286566 43.000000
3.610878 0.088185 0.290804 78.000000
3.516391 0.075053 0.284094 23.000000
3.482695 0.063634 0.281693 32.000000
3.493845 0.053119 0.282470 28.000000
3.467061 0.042064 0.280563 24.000000
3.499093 0.031727 0.282823 33.000000
3.529098 0.021182 0.284942 52.000000
3.454334 0.010110 0.279645 21.000000
3.427416 -0.000493 0.277738 24.000000
3.445353 -0.011060 0.279009 35.000000
3.421364 -0.021488 0.277314 39.000000
3.412304 -0.031903 0.276679 19.000000
3.415183 -0.042408 0.276890 26.000000
3.382123 -0.052387 0.274560 26.000000
3.375962 -0.062654 0.274136 29.000000
3.385727 -0.073223 0.274842 32.000000
3.378506 -0.083440 0.274348 30.000000
3.357294 -0.093231 0.272865 29.000000
3.339046 -0.102983 0.271593 24.000000
3.351675 -0.113662 0.272512 27.000000
3.323398 -0.122921 0.270534 36.000000
3.323006 -0.133117 0.270534 28.000000
3.302650 -0.142458 0.269121 26.000000
3.299208 -0.152453 0.268910 27.000000
3.292747 -0.162281 0.268486 38.000000
3.298210 -0.172694 0.268910 32.000000
3.292685 -0.182537 0.268556 26.000000
3.288126 -0.192406 0.268274 32.000000
3.284534 -0.202310 0.268062 16.000000
3.286884 -0.212578 0.268274 32.000000
3.279249 -0.222192 0.267780 28.000000
3.265617 -0.231340 0.266861 24.000000
3.258923 -0.240918 0.266438 37.000000
3.263141 -0.251297 0.266791 42.000000
3.262355 -0.261307 0.266791 25.000000
3.251597 -0.270491 0.266085 26.000000
3.245783 -0.280038 0.265731 27.000000
3.305055 0.542957 0.230143 18.000000
3.309662 0.533291 0.230317 22.000000
3.310297 0.522979 0.230259 19.000000
3.304980 0.511752 0.229852 32.000000
3.314430 0.502807 0.230317 30.000000
3.307070 0.491317 0.229794 25.000000
3.305598 0.480738 0.229620 50.000000
3.306069 0.470453 0.229562 19.000000
3.309475 0.460583 0.229678 35.000000
3.299001 0.448814 0.228981 31.000000
3.305311 0.439348 0.229272 27.000000
3.304663 0.428949 0.229155 29.000000
3.310916 0.419435 0.229446 28.000000
3.310205 0.409031 0.229330 27.000000
3.313427 0.399112 0.229446 33.000000
3.312653 0.388712 0.229330 31.000000
3.315814 0.378773 0.229446 32.000000
3.313983 0.368268 0.229272 36.000000
3.310135 0.357564 0.228981 31.000000
3.310223 0.347303 0.228923 38.000000
3.308294 0.336843 0.228749 28.000000
3.311299 0.326887 0.228865 24.000000
3.310298 0.316537 0.228749 22.000000
3.300319 0.305369 0.228110 28.000000
3.298257 0.294976 0.227936 34.000000
3.300142 0.284941 0.227994 29.000000
3.299010 0.274650 0.227878 33.000000
3.304813 0.264926 0.228168 24.000000
3.302624 0.254556 0.227994 35.000000
3.301398 0.244275 0.227878 47.000000
3.300140 0.234004 0.227761 43.000000
3.300843 0.223879 0.227761 36.000000
3.303507 0.213879 0.227878 38.000000
3.310126 0.204111 0.228226 24.000000
3.297780 0.193198 0.227471 40.000000
3.297361 0.183024 0.227413 41.000000
3.297907 0.172907 0.227413 50.000000
3.307396 0.163230 0.227936 24.000000
3.297909 0.152622 0.227355 44.000000
3.293374 0.142289 0.227064 40.000000
3.293795 0.132184 0.227064 38.000000
3.297178 0.122189 0.227239 31.000000
3.294544 0.111971 0.227064 27.000000
3.291879 0.101771 0.226890 30.000000
3.289182 0.091588 0.226716 41.000000
3.286453 0.081423 0.226542 34.000000
3.284692 0.071297 0.226425 35.000000
3.283897 0.061201 0.226367 41.000000
3.290058 0.051218 0.226716 37.000000
3.291198 0.041136 0.226774 24.000000
3.290311 0.031030 0.226716 37.000000
3.294384 0.020960 0.226948 40.000000
3.294432 0.010853 0.226948 40.000000
3.296447 0.000746 0.227064 40.000000
3.292440 -0.009356 0.226832 34.000000
3.286406 -0.019421 0.226483 32.000000
3.291322 -0.029549 0.226774 38.000000
3.288222 -0.039610 0.226600 45.000000
3.285090 -0.049652 0.226425 37.000000
3.289913 -0.059822 0.226716 36.000000
3.289714 -0.069915 0.226716 50.000000
3.287488 -0.079958 0.226600 46.000000
3.288225 -0.090071 0.226658 56.000000
3.282944 -0.100006 0.226367 57.000000
3.286613 -0.110212 0.226600 32.000000
3.288254 -0.120368 0.226716 45.000000
3.283880 -0.130297 0.226483 54.000000
3.284462 -0.140414 0.226542 36.000000
3.286010 -0.150581 0.226658 25.000000
3.286530 -0.160711 0.226716 48.000000
3.289012 -0.170949 0.226890 36.000000
3.286479 -0.180929 0.226774 37.000000
3.275942 -0.190430 0.226193 42.000000
3.276339 -0.200541 0.226251 52.000000
3.271723 -0.210335 0.226019 42.000000
3.261102 -0.219699 0.225438 45.000000
3.261408 -0.229773 0.225496 42.000000
3.250732 -0.239045 0.224915 41.000000
3.255955 -0.249475 0.225264 36.000000
3.263136 -0.260098 0.225728 39.000000
3.260333 -0.269943 0.225612 34.000000
3.250538 -0.279175 0.225089 21.000000
3.247677 -0.288969 0.224973 20.000000
3.177189 -0.292516 0.220907 6.000000
3.287641 0.538234 0.189642 24.000000
3.289277 0.528145 0.189642 26.000000
3.289895 0.517895 0.189596 38.000000
3.288507 0.507342 0.189457 33.000000
3.291035 0.497400 0.189503 41.000000
3.286617 0.486421 0.189226 39.000000
3.285128 0.475905 0.189087 43.000000
3.281628 0.465121 0.188856 39.000000
3.284029 0.455189 0.188902 35.000000
3.284420 0.444977 0.188856 47.000000
3.280819 0.434241 0.188625 52.000000
3.279163 0.423789 0.188486 46.000000
3.281439 0.413852 0.188532 36.000000
3.276745 0.403049 0.188255 33.000000
3.276974 0.392875 0.188209 39.000000
3.276180 0.382587 0.188116 44.000000
3.274361 0.372194 0.187978 41.000000
3.273501 0.361927 0.187885 39.000000
3.273603 0.351775 0.187839 38.000000
3.268706 0.341106 0.187562 33.000000
3.269737 0.331076 0.187562 45.000000
3.273720 0.321337 0.187700 41.000000
3.269718 0.310817 0.187469 46.000000
3.270657 0.300784 0.187469 55.000000
3.273554 0.290926 0.187562 58.000000
3.269455 0.280453 0.187330 51.000000
3.273286 0.270669 0.187469 46.000000
3.273105 0.260546 0.187423 54.000000
3.274885 0.250580 0.187469 53.000000
3.274642 0.240458 0.187423 53.000000
3.274369 0.230340 0.187377 56.000000
3.277053 0.220428 0.187469 41.000000
3.276717 0.210309 0.187423 44.000000
3.276350 0.200193 0.187377 35.000000
3.278943 0.190257 0.187469 38.000000
3.275522 0.179976 0.187284 44.000000
3.276058 0.169926 0.187284 39.000000
3.271575 0.159629 0.187053 50.000000
3.269056 0.149454 0.186914 49.000000
3.268502 0.139381 0.186868 33.000000
3.264921 0.129193 0.186683 55.000000
3.263306 0.119102 0.186591 45.000000
3.260660 0.108989 0.186452 36.000000
3.261978 0.099015 0.186498 37.000000
3.261268 0.088980 0.186452 53.000000
3.261526 0.078974 0.186452 36.000000
3.260754 0.068946 0.186406 43.000000
3.262947 0.058978 0.186498 47.000000
3.266109 0.049013 0.186637 42.000000
3.265246 0.038981 0.186591 43.000000
3.268347 0.028990 0.186729 34.000000
3.265424 0.018945 0.186591 41.000000
3.261471 0.008914 0.186406 36.000000
3.259485 -0.001092 0.186313 39.000000
3.253472 -0.011074 0.186036 45.000000
3.247430 -0.021019 0.185758 49.000000
3.250346 -0.031009 0.185897 53.000000
3.248238 -0.040956 0.185805 33.000000
3.250095 -0.050952 0.185897 35.000000
3.252919 -0.060978 0.186036 41.000000
3.252717 -0.070958 0.186036 50.000000
3.252485 -0.080936 0.186036 39.000000
3.254218 -0.090970 0.186128 46.000000
3.248931 -0.100800 0.185897 53.000000
3.250603 -0.110834 0.185990 44.000000
3.253243 -0.120917 0.186128 38.000000
3.247866 -0.130698 0.185897 41.000000
3.250444 -0.140790 0.186036 55.000000
3.253988 -0.150946 0.186221 48.000000
3.249519 -0.160732 0.186036 44.000000
3.251005 -0.170805 0.186128 42.000000
3.248471 -0.180668 0.186036 46.000000
3.240921 -0.190226 0.185712 37.000000
3.240322 -0.200168 0.185712 32.000000
3.238696 -0.210044 0.185666 24.000000
3.238036 -0.219979 0.185666 28.000000
3.240335 -0.230123 0.185805 38.000000
3.244595 -0.240431 0.186036 43.000000
3.252806 -0.251073 0.186452 27.000000
3.255008 -0.261290 0.186591 31.000000
3.250209 -0.270944 0.186406 26.000000
3.255334 -0.281428 0.186683 31.000000
3.249480 -0.290971 0.186452 20.000000
3.274614 0.547697 0.148104 19.000000
3.281210 0.538457 0.148274 34.000000
3.278899 0.527753 0.148138 32.000000
3.274580 0.516757 0.147935 34.000000
3.276150 0.506708 0.147935 29.000000
3.269783 0.495458 0.147664 49.000000
3.268322 0.484984 0.147563 51.000000
3.266827 0.474524 0.147461 51.000000
3.259362 0.463235 0.147156 39.000000
3.259778 0.453096 0.147123 48.000000
3.264124 0.443496 0.147224 46.000000
3.265469 0.433480 0.147224 52.000000
3.265792 0.423331 0.147190 58.000000
3.266084 0.413184 0.147156 43.000000
3.268329 0.403285 0.147190 39.000000
3.270543 0.393375 0.147224 40.000000
3.271734 0.383339 0.147224 41.000000
3.266937 0.372621 0.147021 41.000000
3.264091 0.362156 0.146886 42.000000
3.261212 0.351712 0.146750 37.000000
3.259294 0.341393 0.146649 43.000000
3.259332 0.331291 0.146615 39.000000
3.260333 0.321290 0.146615 34.000000
3.253344 0.310527 0.146344 30.000000
3.262243 0.301279 0.146615 53.000000
3.259170 0.290914 0.146479 42.000000
3.255068 0.280485 0.146310 45.000000
3.255914 0.270498 0.146310 41.000000
3.250751 0.260030 0.146107 67.000000
3.253526 0.250209 0.146175 39.000000
3.249295 0.239859 0.146005 41.000000
3.251012 0.229959 0.146039 48.000000
3.251702 0.219984 0.146039 53.000000
3.257349 0.210328 0.146209 39.000000
3.254986 0.200150 0.146107 59.000000
3.256583 0.190221 0.146141 45.000000
3.258149 0.180285 0.146175 37.000000
3.256691 0.170184 0.146107 48.000000
3.253205 0.159996 0.145972 49.000000
3.254678 0.150060 0.146005 49.000000
3.252128 0.139946 0.145904 57.000000
3.249546 0.129848 0.145802 39.000000
3.246933 0.119768 0.145701 38.000000
3.244288 0.109705 0.145599 64.000000
3.241613 0.099659 0.145498 57.000000
3.239905 0.089659 0.145430 48.000000
3.236168 0.079621 0.145295 43.000000
3.236397 0.069692 0.145295 43.000000
3.237595 0.059781 0.145328 58.000000
3.238763 0.049863 0.145362 43.000000
3.236902 0.039902 0.145295 55.000000
3.235010 0.029953 0.145227 36.000000
3.236086 0.020034 0.145261 58.000000
3.234133 0.010099 0.145193 49.000000
3.231151 0.000177 0.145091 53.000000
3.232136 -0.009739 0.145125 48.000000
3.231091 -0.019649 0.145091 45.000000
3.235013 -0.029598 0.145227 51.000000
3.236906 -0.039548 0.145295 47.000000
3.234771 -0.049447 0.145227 47.000000
3.235603 -0.059390 0.145261 39.000000
3.236405 -0.069338 0.145295 53.000000
3.234179 -0.079217 0.145227 47.000000
3.232922 -0.089112 0.145193 49.000000
3.226639 -0.098845 0.144990 45.000000
3.230316 -0.108879 0.145125 54.000000
3.228968 -0.118752 0.145091 62.000000
3.228589 -0.128658 0.145091 45.000000
3.228179 -0.138563 0.145091 41.000000
3.231732 -0.148650 0.145227 49.000000
3.233257 -0.158662 0.145295 52.000000
3.234751 -0.168686 0.145362 54.000000
3.233221 -0.178554 0.145328 37.000000
3.228667 -0.188239 0.145193 45.000000
3.228074 -0.198143 0.145193 40.000000
3.231440 -0.208304 0.145328 40.000000
3.226798 -0.217947 0.145193 51.000000
3.226114 -0.227845 0.145193 44.000000
3.228390 -0.237963 0.145295 56.000000
3.225652 -0.247713 0.145227 37.000000
3.232846 -0.258246 0.145498 39.000000
3.229051 -0.267914 0.145396 31.000000
3.220248 -0.277133 0.145125 27.000000
3.229337 -0.287900 0.145464 40.000000
3.259923 0.545125 0.107381 26.000000
3.259607 0.534797 0.107338 21.000000
3.256297 0.523998 0.107230 30.000000
3.254927 0.513537 0.107165 31.000000
3.253523 0.503089 0.107100 32.000000
3.252086 0.492655 0.107035 51.000000
3.250616 0.482234 0.106970 45.000000
3.247133 0.471539 0.106862 38.000000
3.244605 0.461011 0.106775 46.000000
3.244024 0.450778 0.106732 34.000000
3.238457 0.439879 0.106580 36.000000
3.235827 0.429414 0.106494 31.000000
3.236138 0.419356 0.106472 39.000000
3.236418 0.409300 0.106451 38.000000
3.231705 0.398632 0.106321 30.000000
3.232913 0.388716 0.106321 34.000000
3.241041 0.379612 0.106472 62.000000
3.236230 0.368985 0.106342 48.000000
3.233373 0.358612 0.106256 28.000000
3.231476 0.348368 0.106191 27.000000
3.229547 0.338139 0.106126 46.000000
3.230569 0.328230 0.106126 46.000000
3.232555 0.318415 0.106148 39.000000
3.226550 0.307829 0.105996 44.000000
3.229471 0.298113 0.106039 48.000000
3.225391 0.287758 0.105931 48.000000
3.224267 0.277689 0.105888 27.000000
3.224107 0.267713 0.105866 43.000000
3.224914 0.257820 0.105866 34.000000
3.228679 0.248156 0.105931 37.000000
3.232417 0.238471 0.105996 44.000000
3.233133 0.228553 0.105996 50.000000
3.236811 0.218836 0.106061 52.000000
3.230484 0.208452 0.105910 37.000000
3.224123 0.198108 0.105758 39.000000
3.219726 0.187922 0.105650 40.000000
3.220287 0.178044 0.105650 45.000000
3.221817 0.168215 0.105671 42.000000
3.219322 0.158182 0.105607 34.000000
3.218793 0.148258 0.105585 29.000000
3.223228 0.138556 0.105671 40.000000
3.223638 0.128666 0.105671 35.000000
3.227015 0.118887 0.105736 34.000000
3.226365 0.108952 0.105715 44.000000
3.222687 0.098929 0.105628 38.000000
3.222976 0.089042 0.105628 43.000000
3.219236 0.079054 0.105542 36.000000
3.216465 0.069111 0.105477 38.000000
3.212663 0.059168 0.105390 28.000000
3.210830 0.049280 0.105347 25.000000
3.214965 0.039479 0.105433 40.000000
3.217070 0.029635 0.105477 29.000000
3.214147 0.019745 0.105412 37.000000
3.214192 0.009885 0.105412 35.000000
3.217207 0.000025 0.105477 30.000000
3.216192 -0.009843 0.105455 44.000000
3.217147 -0.019716 0.105477 34.000000
3.221070 -0.029621 0.105563 35.000000
3.222963 -0.039527 0.105607 42.000000
3.222827 -0.049415 0.105607 57.000000
3.225659 -0.059356 0.105671 29.000000
3.219464 -0.069125 0.105542 38.000000
3.214240 -0.078881 0.105433 32.000000
3.207986 -0.088579 0.105304 43.000000
3.199705 -0.098178 0.105130 44.000000
3.198390 -0.107961 0.105109 35.000000
3.195046 -0.117663 0.105044 26.000000
3.193671 -0.127426 0.105022 33.000000
3.192266 -0.137180 0.105001 39.000000
3.193828 -0.147065 0.105044 42.000000
3.197356 -0.157057 0.105130 41.000000
3.197857 -0.166918 0.105152 37.000000
3.199327 -0.176837 0.105195 39.000000
3.201763 -0.186826 0.105260 41.000000
3.198181 -0.196465 0.105195 46.000000
3.198561 -0.206340 0.105217 29.000000
3.194921 -0.215951 0.105152 28.000000
3.196238 -0.225892 0.105195 30.000000
3.202509 -0.236209 0.105347 41.000000
3.210741 -0.246719 0.105542 23.000000
3.205983 -0.256251 0.105455 28.000000
3.207174 -0.266250 0.105498 32.000000
3.203354 -0.275832 0.105433 25.000000
3.202493 -0.285659 0.105433 29.000000
3.214543 -0.296672 0.105715 15.000000
3.178783 -0.303223 0.104957 7.000000
3.218246 0.537702 0.066217 38.000000
3.234683 0.530250 0.066356 23.000000
3.224447 0.518421 0.066245 43.000000
3.225034 0.508370 0.066235 45.000000
3.222625 0.497863 0.066198 43.000000
3.221172 0.487526 0.066171 50.000000
3.223641 0.477787 0.066180 39.000000
3.221134 0.467321 0.066143 40.000000
3.217602 0.456735 0.066097 69.000000
3.211065 0.445762 0.066023 49.000000
3.210435 0.435640 0.066004 44.000000
3.209774 0.425526 0.065986 47.000000
3.208089 0.415292 0.065958 51.000000
3.210340 0.405573 0.065967 45.000000
3.207600 0.395233 0.065930 64.000000
3.204826 0.384914 0.065893 50.000000
3.209964 0.375544 0.065930 44.000000
3.208121 0.365355 0.065902 60.000000
3.204257 0.354961 0.065856 47.000000
3.204337 0.345022 0.065847 63.000000
3.206374 0.335293 0.065856 45.000000
3.206393 0.325354 0.065847 46.000000
3.207376 0.315515 0.065847 36.000000
3.206338 0.305484 0.065828 67.000000
3.205269 0.295463 0.065810 51.000000
3.207156 0.285716 0.065819 50.000000
3.207022 0.275790 0.065810 58.000000
3.205859 0.265785 0.065791 42.000000
3.205663 0.255869 0.065782 40.000000
3.208427 0.246185 0.065801 56.000000
3.209167 0.236341 0.065801 64.000000
3.213867 0.226775 0.065838 47.000000
3.219536 0.217250 0.065884 65.000000
3.220188 0.207372 0.065884 59.000000
3.217814 0.197308 0.065856 41.000000
3.217406 0.187377 0.065847 47.000000
3.212974 0.177231 0.065801 43.000000
3.210506 0.167217 0.065773 48.000000
3.203014 0.156976 0.065699 58.000000
3.194491 0.146736 0.065616 64.000000
3.188931 0.136679 0.065560 69.000000
3.194332 0.127093 0.065606 52.000000
3.197704 0.117402 0.065634 55.000000
3.204046 0.107792 0.065690 44.000000
3.207360 0.098053 0.065717 62.000000
3.208646 0.088240 0.065727 47.000000
3.210900 0.078444 0.065745 50.000000
3.208127 0.068529 0.065717 62.000000
3.203323 0.058595 0.065671 43.000000
3.202488 0.048752 0.065662 45.000000
3.196623 0.038855 0.065606 35.000000
3.199727 0.029075 0.065634 54.000000
3.196801 0.019240 0.065606 49.000000
3.196845 0.009432 0.065606 50.000000
3.198859 -0.000376 0.065625 42.000000
3.199843 -0.010193 0.065634 44.000000
3.196796 -0.019991 0.065606 49.000000
3.197720 -0.029808 0.065616 44.000000
3.197614 -0.039618 0.065616 61.000000
3.198477 -0.049444 0.065625 60.000000
3.198310 -0.059256 0.065625 41.000000
3.192115 -0.068938 0.065569 57.000000
3.187890 -0.078632 0.065532 56.000000
3.188633 -0.088440 0.065542 58.000000
3.183350 -0.098067 0.065495 63.000000
3.180035 -0.107731 0.065468 58.000000
3.182688 -0.117598 0.065495 48.000000
3.182312 -0.127362 0.065495 48.000000
3.183904 -0.137211 0.065514 38.000000
3.188463 -0.147210 0.065560 48.000000
3.185000 -0.156843 0.065532 45.000000
3.188498 -0.166823 0.065569 49.000000
3.187971 -0.176605 0.065569 40.000000
3.184420 -0.186209 0.065542 56.000000
3.180840 -0.195793 0.065514 48.000000
3.178228 -0.205421 0.065495 55.000000
3.176585 -0.215103 0.065486 64.000000
3.176908 -0.224919 0.065495 50.000000
3.173211 -0.234443 0.065468 39.000000
3.181450 -0.244869 0.065551 52.000000
3.177693 -0.254389 0.065523 35.000000
3.173908 -0.263887 0.065495 26.000000
3.179061 -0.274140 0.065551 25.000000
3.175217 -0.283625 0.065523 56.000000
3.176324 -0.293549 0.065542 33.000000
3.188349 -0.304530 0.065662 23.000000
3.179438 -0.313524 0.065588 34.000000
3.179456 -0.323378 0.065597 30.000000
3.280806 -0.354051 0.066559 6.000000
3.195190 0.554453 0.025478 21.000000
3.198847 0.544984 0.025472 18.000000
3.207408 0.536324 0.025448 31.000000
3.212985 0.527131 0.025435 49.000000
3.212613 0.516953 0.025442 35.000000
3.206282 0.505844 0.025468 41.000000
3.205842 0.495699 0.025475 28.000000
3.195484 0.484060 0.025515 37.000000
3.190030 0.473224 0.025538 34.000000
3.188498 0.463003 0.025548 45.000000
3.185944 0.452654 0.025561 43.000000
3.182365 0.442188 0.025578 35.000000
3.184698 0.432557 0.025574 39.000000
3.184027 0.422521 0.025581 32.000000
3.182334 0.412364 0.025591 40.000000
3.179616 0.402095 0.025604 34.000000
3.174880 0.391602 0.025624 38.000000
3.175073 0.381740 0.025627 30.000000
3.172257 0.371531 0.025641 40.000000
3.178350 0.362365 0.025624 28.000000
3.178452 0.352501 0.025627 40.000000
3.177530 0.342533 0.025634 30.000000
3.188511 0.333828 0.025601 37.000000
3.186536 0.323740 0.025611 40.000000
3.186519 0.313864 0.025614 39.000000
3.183485 0.303705 0.025627 30.000000
3.184402 0.293937 0.025627 39.000000
3.184293 0.284076 0.025631 37.000000
3.175187 0.273444 0.025664 28.000000
3.179997 0.264034 0.025651 47.000000
3.176805 0.253956 0.025664 45.000000
3.173581 0.243901 0.025677 38.000000
3.176309 0.234311 0.025671 42.000000
3.180005 0.224778 0.025661 32.000000
3.177687 0.214817 0.025671 40.000000
3.180327 0.205197 0.025664 51.000000
3.178945 0.195315 0.025671 40.000000
3.180528 0.185620 0.025667 37.000000
3.179085 0.175751 0.025674 37.000000
3.173618 0.165681 0.025694 30.000000
3.169117 0.155697 0.025710 42.000000
3.168581 0.145927 0.025714 45.000000
3.171012 0.136292 0.025707 49.000000
3.176411 0.126764 0.025690 38.000000
3.182781 0.117241 0.025671 41.000000
3.187123 0.107613 0.025657 38.000000
3.187438 0.097834 0.025657 34.000000
3.184725 0.087971 0.025667 40.000000
3.187979 0.078275 0.025657 30.000000
3.180206 0.068319 0.025684 42.000000
3.175401 0.058468 0.025700 42.000000
3.172566 0.048679 0.025710 41.000000
3.169701 0.038907 0.025720 40.000000
3.173805 0.029221 0.025707 40.000000
3.175880 0.019496 0.025700 44.000000
3.173925 0.009746 0.025707 47.000000
3.173940 0.000009 0.025707 35.000000
3.176925 -0.009737 0.025697 35.000000
3.172880 -0.019461 0.025710 44.000000
3.172805 -0.029195 0.025710 41.000000
3.174701 -0.038952 0.025704 48.000000
3.174566 -0.048692 0.025704 42.000000
3.172402 -0.058395 0.025710 41.000000
3.170208 -0.068086 0.025717 36.000000
3.166986 -0.077739 0.025727 36.000000
3.170730 -0.087564 0.025714 49.000000
3.168448 -0.097230 0.025720 42.000000
3.167135 -0.106917 0.025724 27.000000
3.167792 -0.116670 0.025720 42.000000
3.172415 -0.126585 0.025704 40.000000
3.172012 -0.136317 0.025704 33.000000
3.172577 -0.146094 0.025700 23.000000
3.170117 -0.155729 0.025707 37.000000
3.170623 -0.165506 0.025704 43.000000
3.168103 -0.175123 0.025710 35.000000
3.163558 -0.184610 0.025724 38.000000
3.157986 -0.194010 0.025740 31.000000
3.158374 -0.203762 0.025737 44.000000
3.154741 -0.213250 0.025747 35.000000
3.158062 -0.223208 0.025734 32.000000
3.156364 -0.232822 0.025737 46.000000
3.152644 -0.242276 0.025747 44.000000
3.153880 -0.252106 0.025740 32.000000
3.151098 -0.261616 0.025747 30.000000
3.149284 -0.271196 0.025750 29.000000
3.151426 -0.281122 0.025740 51.000000
3.146565 -0.290423 0.025753 36.000000
3.152628 -0.300738 0.025730 23.000000
3.160647 -0.311287 0.025700 33.000000
3.171617 -0.322191 0.025661 11.000000
3.179564 -0.332854 0.025631 7.000000
3.169384 0.560711 -0.014134 31.000000
3.173059 0.551326 -0.014165 47.000000
3.171778 0.541085 -0.014118 46.000000
3.172437 0.531187 -0.014102 43.000000
3.172079 0.521127 -0.014071 68.000000
3.166752 0.510280 -0.013961 63.000000
3.180155 0.502433 -0.014149 29.000000
3.168836 0.490687 -0.013945 54.000000
3.164395 0.480064 -0.013851 52.000000
3.165853 0.470353 -0.013851 52.000000
3.165302 0.460351 -0.013819 49.000000
3.163730 0.450215 -0.013772 67.000000
3.166086 0.440645 -0.013788 38.000000
3.164451 0.430525 -0.013741 48.000000
3.164766 0.420683 -0.013725 52.000000
3.164058 0.410715 -0.013694 54.000000
3.157368 0.400001 -0.013568 52.000000
3.156595 0.390068 -0.013537 55.000000
3.155792 0.380143 -0.013505 60.000000
3.159922 0.370808 -0.013552 56.000000
3.161045 0.361112 -0.013552 50.000000
3.162138 0.351412 -0.013552 58.000000
3.162207 0.341602 -0.013537 56.000000
3.164235 0.332003 -0.013552 55.000000
3.161260 0.321889 -0.013490 44.000000
3.163227 0.312287 -0.013505 60.000000
3.161185 0.302296 -0.013458 48.000000
3.162097 0.292596 -0.013458 43.000000
3.160988 0.282716 -0.013427 47.000000
3.162837 0.273102 -0.013442 67.000000
3.161667 0.263232 -0.013411 43.000000
3.159469 0.253292 -0.013364 54.000000
3.159235 0.243520 -0.013348 57.000000
3.157973 0.233680 -0.013317 50.000000
3.155683 0.223778 -0.013270 60.000000
3.156354 0.214096 -0.013270 60.000000
3.156996 0.204411 -0.013270 55.000000
3.154614 0.194540 -0.013223 55.000000
3.150205 0.184569 -0.013144 64.000000
3.147762 0.174738 -0.013097 37.000000
3.149282 0.165132 -0.013113 44.000000
3.148775 0.155420 -0.013097 59.000000
3.150236 0.145805 -0.013113 57.000000
3.148670 0.136054 -0.013081 50.000000
3.146076 0.126273 -0.013034 38.000000
3.153443 0.116879 -0.013144 58.000000
3.152787 0.107170 -0.013128 55.000000
3.148104 0.097343 -0.013050 40.000000
3.144390 0.087573 -0.012987 44.000000
3.141645 0.077852 -0.012940 46.000000
3.144868 0.068278 -0.012987 56.000000
3.150061 0.058722 -0.013065 38.000000
3.149227 0.049042 -0.013050 38.000000
3.153362 0.039430 -0.013113 49.000000
3.157467 0.029792 -0.013175 54.000000
3.160543 0.020124 -0.013223 56.000000
3.157591 0.010418 -0.013175 65.000000
3.156608 0.000731 -0.013160 51.000000
3.155595 -0.008951 -0.013144 72.000000
3.151553 -0.018608 -0.013081 60.000000
3.150482 -0.028268 -0.013065 61.000000
3.148381 -0.037909 -0.013034 58.000000
3.148250 -0.047568 -0.013034 53.000000
3.150088 -0.057263 -0.013065 48.000000
3.147898 -0.066884 -0.013034 56.000000
3.144680 -0.076468 -0.012987 48.000000
3.148428 -0.086225 -0.013050 44.000000
3.150148 -0.095945 -0.013081 71.000000
3.150838 -0.105643 -0.013097 48.000000
3.153496 -0.115419 -0.013144 59.000000
3.156125 -0.125213 -0.013191 50.000000
3.155726 -0.134895 -0.013191 50.000000
3.155297 -0.144576 -0.013191 40.000000
3.151843 -0.154109 -0.013144 52.000000
3.150357 -0.163726 -0.013128 45.000000
3.146844 -0.173225 -0.013081 49.000000
3.140309 -0.182530 -0.012987 43.000000
3.141730 -0.192286 -0.013018 55.000000
3.142123 -0.201988 -0.013034 45.000000
3.142486 -0.211694 -0.013050 53.000000
3.139827 -0.221193 -0.013018 42.000000
3.138137 -0.230751 -0.013003 55.000000
3.136417 -0.240302 -0.012987 67.000000
3.137658 -0.250082 -0.013018 51.000000
3.135880 -0.259624 -0.013003 40.000000
3.134073 -0.269158 -0.012987 42.000000
3.131240 -0.278595 -0.012956 36.000000
3.141323 -0.289210 -0.013128 31.000000
3.148384 -0.299604 -0.013254 23.000000
3.138832 0.544652 -0.051812 21.000000
3.137532 0.534515 -0.051728 25.000000
3.146058 0.526043 -0.051923 15.000000
3.137794 0.514767 -0.051645 27.000000
3.138372 0.504979 -0.051617 28.000000
3.138919 0.495192 -0.051590 33.000000
3.142399 0.485866 -0.051645 26.000000
3.137945 0.475322 -0.051479 35.000000
3.139388 0.465693 -0.051479 36.000000
3.147727 0.457067 -0.051673 41.000000
3.140207 0.446139 -0.051423 34.000000
3.138591 0.436089 -0.051340 43.000000
3.136943 0.426053 -0.051257 34.000000
3.136253 0.416164 -0.051201 36.000000
3.138507 0.406669 -0.051229 44.000000
3.132798 0.396158 -0.051035 37.000000
3.133007 0.386422 -0.051007 37.000000
3.134177 0.376808 -0.051007 46.000000
3.137304 0.367424 -0.051062 34.000000
3.139410 0.357911 -0.051090 44.000000
3.135526 0.347725 -0.050952 41.000000
3.137572 0.338211 -0.050979 45.000000
3.140583 0.328792 -0.051035 44.000000
3.141577 0.319156 -0.051035 34.000000
3.139557 0.309221 -0.050952 45.000000
3.137506 0.299301 -0.050868 39.000000
3.140399 0.289859 -0.050924 33.000000
3.142270 0.280312 -0.050952 40.000000
3.137140 0.270153 -0.050785 39.000000
3.136958 0.260445 -0.050757 37.000000
3.137742 0.250819 -0.050757 39.000000
3.140490 0.241346 -0.050813 38.000000
3.137228 0.231414 -0.050702 52.000000
3.137923 0.221788 -0.050702 42.000000
3.135597 0.211957 -0.050619 52.000000
3.139225 0.202530 -0.050702 40.000000
3.140829 0.192960 -0.050730 47.000000
3.133423 0.182854 -0.050508 54.000000
3.143950 0.173795 -0.050785 27.000000
3.137481 0.163782 -0.050591 47.000000
3.135972 0.154056 -0.050535 36.000000
3.135431 0.144388 -0.050508 37.000000
3.130866 0.134552 -0.050369 46.000000
3.128268 0.124825 -0.050286 34.000000
3.130634 0.115301 -0.050341 35.000000
3.126976 0.105560 -0.050230 36.000000
3.128285 0.095997 -0.050258 56.000000
3.126566 0.086343 -0.050202 44.000000
3.125817 0.076726 -0.050175 53.000000
3.128036 0.067179 -0.050230 43.000000
3.129227 0.057601 -0.050258 45.000000
3.130389 0.048016 -0.050286 41.000000
3.132520 0.038437 -0.050341 43.000000
3.131624 0.028817 -0.050313 40.000000
3.132697 0.019216 -0.050341 35.000000
3.130742 0.009598 -0.050286 44.000000
3.128758 -0.000008 -0.050230 40.000000
3.123745 -0.009594 -0.050091 34.000000
3.124701 -0.019183 -0.050119 36.000000
3.123627 -0.028760 -0.050091 33.000000
3.126523 -0.038379 -0.050175 31.000000
3.123392 -0.047926 -0.050091 38.000000
3.129227 -0.057616 -0.050258 31.000000
3.121041 -0.067048 -0.050036 48.000000
3.123818 -0.076695 -0.050119 57.000000
3.121570 -0.086224 -0.050064 50.000000
3.120291 -0.095770 -0.050036 51.000000
3.117985 -0.105276 -0.049980 49.000000
3.121643 -0.114987 -0.050091 41.000000
3.120276 -0.124524 -0.050064 38.000000
3.123875 -0.134267 -0.050175 38.000000
3.125445 -0.143941 -0.050230 40.000000
3.124989 -0.153529 -0.050230 48.000000
3.125502 -0.163167 -0.050258 47.000000
3.122990 -0.172646 -0.050202 42.000000
3.118454 -0.181995 -0.050091 40.000000
3.119876 -0.191683 -0.050147 37.000000
3.119273 -0.201254 -0.050147 39.000000
3.120636 -0.210957 -0.050202 32.000000
3.115986 -0.220249 -0.050091 33.000000
3.115295 -0.229808 -0.050091 33.000000
3.112582 -0.239212 -0.050036 37.000000
3.110837 -0.248681 -0.050008 40.000000
3.105078 -0.257812 -0.049869 36.000000
3.100289 -0.266995 -0.049758 24.000000
3.096468 -0.276240 -0.049675 33.000000
3.095606 -0.285739 -0.049675 21.000000
3.106656 -0.296369 -0.050008 20.000000
3.134583 -0.308730 -0.050813 8.000000
3.117399 0.531815 -0.090752 26.000000
3.121972 0.522743 -0.090873 44.000000
3.130463 0.514295 -0.091155 66.000000
3.121175 0.502942 -0.090712 41.000000
3.120729 0.493052 -0.090631 38.000000
3.119265 0.483017 -0.090510 46.000000
3.119745 0.473295 -0.090470 64.000000
3.121182 0.463722 -0.090470 54.000000
3.123579 0.454288 -0.090510 53.000000
3.121990 0.444281 -0.090389 48.000000
3.120369 0.434288 -0.090268 55.000000
3.120697 0.424578 -0.090228 42.000000
3.123966 0.415265 -0.090309 45.000000
3.123243 0.405422 -0.090228 50.000000
3.124472 0.395838 -0.090228 51.000000
3.124680 0.386128 -0.090188 59.000000
3.126842 0.376659 -0.090228 42.000000
3.124014 0.366599 -0.090067 60.000000
3.122145 0.356673 -0.089946 38.000000
3.121239 0.346872 -0.089865 54.000000
3.120301 0.337080 -0.089785 49.000000
3.120327 0.327402 -0.089744 37.000000
3.120323 0.317726 -0.089704 47.000000
3.113328 0.307367 -0.089382 46.000000
3.119230 0.298289 -0.089583 56.000000
3.116150 0.288350 -0.089422 52.000000
3.115030 0.278611 -0.089341 47.000000
3.110893 0.268624 -0.089140 57.000000
3.108715 0.258830 -0.089019 46.000000
3.109494 0.249291 -0.089019 57.000000
3.119210 0.240440 -0.089382 39.000000
3.116944 0.230649 -0.089261 53.000000
3.119631 0.221226 -0.089341 50.000000
3.122288 0.211789 -0.089422 48.000000
3.127909 0.202531 -0.089623 30.000000
3.122532 0.192566 -0.089382 56.000000
3.117123 0.182635 -0.089140 46.000000
3.109687 0.172629 -0.088817 40.000000
3.106211 0.162879 -0.088656 46.000000
3.107694 0.153398 -0.088696 32.000000
3.104157 0.143678 -0.088535 51.000000
3.104584 0.134154 -0.088535 36.000000
3.106977 0.124709 -0.088616 54.000000
3.108344 0.115213 -0.088656 52.000000
3.111678 0.105778 -0.088777 46.000000
3.110990 0.096200 -0.088737 46.000000
3.109273 0.086600 -0.088656 55.000000
3.111521 0.077109 -0.088737 56.000000
3.106749 0.067455 -0.088535 52.000000
3.102945 0.057850 -0.088374 49.000000
3.103108 0.048330 -0.088374 57.000000
3.105240 0.038834 -0.088455 54.000000
3.104345 0.029298 -0.088414 49.000000
3.103421 0.019767 -0.088374 41.000000
3.102468 0.010243 -0.088334 45.000000
3.102485 0.000725 -0.088334 52.000000
3.105470 -0.008803 -0.088455 48.000000
3.104429 -0.018324 -0.088414 61.000000
3.104358 -0.027848 -0.088414 61.000000
3.107256 -0.037408 -0.088535 50.000000
3.104129 -0.046896 -0.088414 49.000000
3.103971 -0.056419 -0.088414 44.000000
3.106780 -0.066005 -0.088535 45.000000
3.108561 -0.075585 -0.088616 52.000000
3.109313 -0.085149 -0.088656 56.000000
3.109037 -0.094688 -0.088656 49.000000
3.102740 -0.104024 -0.088414 39.000000
3.105402 -0.113653 -0.088535 41.000000
3.103042 -0.123100 -0.088455 50.000000
3.098656 -0.132449 -0.088293 46.000000
3.095241 -0.141817 -0.088172 38.000000
3.093793 -0.151263 -0.088132 38.000000
3.094312 -0.160806 -0.088172 45.000000
3.096798 -0.170464 -0.088293 53.000000
3.098255 -0.180080 -0.088374 57.000000
3.099683 -0.189707 -0.088455 55.000000
3.104072 -0.199537 -0.088656 43.000000
3.101451 -0.208924 -0.088575 37.000000
3.102789 -0.218579 -0.088656 41.000000
3.102104 -0.228097 -0.088656 44.000000
3.102386 -0.237690 -0.088696 40.000000
3.097658 -0.246889 -0.088535 46.000000
3.093899 -0.256143 -0.088414 43.000000
3.084139 -0.264864 -0.088051 53.000000
3.080326 -0.274058 -0.087931 35.000000
3.077480 -0.283324 -0.087850 37.000000
3.060682 -0.291248 -0.087205 24.000000
3.052813 -0.299952 -0.086923 10.000000
3.111999 0.529043 -0.128427 31.000000
3.109667 0.518834 -0.128217 28.000000
3.112230 0.509453 -0.128270 21.000000
3.101946 0.497999 -0.127642 34.000000
3.101487 0.488169 -0.127537 60.000000
3.100009 0.478193 -0.127380 54.000000
3.097512 0.468082 -0.127171 47.000000
3.095970 0.458137 -0.127014 42.000000
3.095385 0.448350 -0.126909 47.000000
3.094768 0.438570 -0.126804 47.000000
3.096099 0.429073 -0.126804 48.000000
3.093443 0.419035 -0.126595 42.000000
3.096694 0.409805 -0.126700 47.000000
3.098927 0.400431 -0.126752 50.000000
3.100141 0.390922 -0.126752 49.000000
3.100335 0.381287 -0.126700 52.000000
3.100498 0.371654 -0.126647 44.000000
3.093689 0.361210 -0.126229 38.000000
3.095775 0.351831 -0.126281 43.000000
3.097832 0.342441 -0.126333 44.000000
3.091918 0.332186 -0.125967 53.000000
3.091929 0.322595 -0.125915 40.000000
3.093898 0.313208 -0.125967 44.000000
3.092857 0.303519 -0.125862 45.000000
3.096756 0.294314 -0.126019 46.000000
3.095655 0.284628 -0.125915 38.000000
3.090546 0.274597 -0.125601 58.000000
3.090379 0.265028 -0.125548 48.000000
3.088192 0.255298 -0.125391 48.000000
3.087965 0.245742 -0.125339 35.000000
3.087709 0.236191 -0.125287 37.000000
3.082443 0.226276 -0.124973 44.000000
3.080135 0.216607 -0.124816 61.000000
3.078792 0.207021 -0.124711 50.000000
3.077419 0.197446 -0.124606 51.000000
3.078011 0.188004 -0.124606 49.000000
3.075583 0.178385 -0.124449 52.000000
3.075118 0.168893 -0.124397 52.000000
3.077616 0.159562 -0.124502 65.000000
3.081084 0.150267 -0.124659 44.000000
3.083525 0.140905 -0.124763 50.000000
3.084941 0.131487 -0.124816 47.000000
3.086327 0.122062 -0.124868 53.000000
3.087685 0.112630 -0.124920 42.000000
3.087018 0.103123 -0.124868 53.000000
3.084326 0.093559 -0.124711 37.000000
3.084598 0.084096 -0.124711 39.000000
3.087837 0.074706 -0.124868 52.000000
3.084058 0.065147 -0.124659 48.000000
3.081248 0.055629 -0.124502 56.000000
3.076411 0.046099 -0.124240 48.000000
3.076538 0.036661 -0.124240 46.000000
3.078633 0.027240 -0.124345 39.000000
3.075707 0.017777 -0.124188 52.000000
3.075747 0.008340 -0.124188 33.000000
3.078753 -0.001096 -0.124345 63.000000
3.075740 -0.010532 -0.124188 45.000000
3.074694 -0.019962 -0.124135 53.000000
3.072622 -0.029377 -0.124031 49.000000
3.071518 -0.038791 -0.123978 50.000000
3.075379 -0.048276 -0.124188 33.000000
3.070224 -0.057619 -0.123926 52.000000
3.073028 -0.067102 -0.124083 40.000000
3.077800 -0.076652 -0.124345 39.000000
3.107497 -0.086921 -0.125915 24.000000
3.078269 -0.095566 -0.124397 55.000000
3.080956 -0.105111 -0.124554 56.000000
3.080619 -0.114563 -0.124554 63.000000
3.082249 -0.124093 -0.124659 50.000000
3.081853 -0.133548 -0.124659 46.000000
3.077439 -0.142819 -0.124449 53.000000
3.071002 -0.151966 -0.124135 64.000000
3.068527 -0.161283 -0.124031 46.000000
3.071008 -0.170862 -0.124188 49.000000
3.067479 -0.180108 -0.124031 49.000000
3.066912 -0.189518 -0.124031 48.000000
3.073292 -0.199376 -0.124397 54.000000
3.075655 -0.209006 -0.124554 43.000000
3.079980 -0.218793 -0.124816 31.000000
3.079294 -0.228241 -0.124816 40.000000
3.072606 -0.237228 -0.124502 36.000000
3.068877 -0.246415 -0.124345 34.000000
3.065121 -0.255581 -0.124188 37.000000
3.060342 -0.264641 -0.123978 21.000000
3.051559 -0.273319 -0.123559 37.000000
3.045734 -0.282221 -0.123298 37.000000
3.043859 -0.291469 -0.123245 39.000000
3.054877 -0.301981 -0.123874 25.000000
3.098644 -0.315892 -0.126229 5.000000
3.093091 0.537442 -0.166364 28.000000
3.082921 0.525937 -0.165587 34.000000
3.083536 0.516312 -0.165523 39.000000
3.086090 0.507011 -0.165587 43.000000
3.084675 0.497065 -0.165393 43.000000
3.086185 0.487599 -0.165393 51.000000
3.082736 0.477365 -0.165070 44.000000
3.083200 0.467756 -0.165005 42.000000
3.082646 0.458001 -0.164876 48.000000
3.081074 0.448111 -0.164681 35.000000
3.080458 0.438376 -0.164552 49.000000
3.080800 0.428785 -0.164487 49.000000
3.079135 0.418928 -0.164293 44.000000
3.080405 0.409480 -0.164293 39.000000
3.079668 0.399771 -0.164164 37.000000
3.079890 0.390195 -0.164099 52.000000
3.083054 0.380989 -0.164228 52.000000
3.084208 0.371528 -0.164228 44.000000
3.088306 0.362413 -0.164423 32.000000
3.087421 0.352710 -0.164293 64.000000
3.085513 0.342906 -0.164099 47.000000
3.079605 0.332689 -0.163646 44.000000
3.075649 0.322719 -0.163323 62.000000
3.075632 0.313181 -0.163258 30.000000
3.070620 0.303156 -0.162870 53.000000
3.067562 0.293354 -0.162611 52.000000
3.068448 0.283942 -0.162611 36.000000
3.068310 0.274438 -0.162546 63.000000
3.070132 0.265109 -0.162611 46.000000
3.070931 0.255689 -0.162611 48.000000
3.071701 0.246266 -0.162611 46.000000
3.073437 0.236918 -0.162676 49.000000
3.072159 0.227340 -0.162546 60.000000
3.074833 0.218055 -0.162676 55.000000
3.071505 0.208351 -0.162417 46.000000
3.074121 0.199055 -0.162546 48.000000
3.073721 0.189562 -0.162481 52.000000
3.075284 0.180189 -0.162546 49.000000
3.074827 0.170698 -0.162481 69.000000
3.074339 0.161212 -0.162417 57.000000
3.073823 0.151730 -0.162352 37.000000
3.076267 0.142391 -0.162481 56.000000
3.073699 0.132824 -0.162287 43.000000
3.073095 0.123353 -0.162223 58.000000
3.069470 0.113777 -0.161964 54.000000
3.071799 0.104427 -0.162093 44.000000
3.072105 0.095002 -0.162093 36.000000
3.070387 0.085522 -0.161964 52.000000
3.071633 0.076126 -0.162028 69.000000
3.067861 0.066616 -0.161770 52.000000
3.067054 0.057185 -0.161705 59.000000
3.067214 0.047775 -0.161705 50.000000
3.066349 0.038352 -0.161640 53.000000
3.070443 0.028982 -0.161899 41.000000
3.070518 0.019562 -0.161899 75.000000
3.071561 0.010145 -0.161964 53.000000
3.073574 0.000721 -0.162093 54.000000
3.073561 -0.008708 -0.162093 48.000000
3.070527 -0.018120 -0.161899 53.000000
3.068461 -0.027522 -0.161770 56.000000
3.065368 -0.036899 -0.161576 39.000000
3.064243 -0.046288 -0.161511 43.000000
3.057102 -0.055561 -0.161058 45.000000
3.055920 -0.064918 -0.160993 62.000000
3.050718 -0.074172 -0.160670 40.000000
3.049479 -0.083503 -0.160605 53.000000
3.046216 -0.092767 -0.160411 45.000000
3.045917 -0.102112 -0.160411 43.000000
3.045590 -0.111457 -0.160411 56.000000
3.050219 -0.120998 -0.160734 54.000000
3.052824 -0.130484 -0.160928 49.000000
3.053406 -0.139895 -0.160993 54.000000
3.053960 -0.149311 -0.161058 44.000000
3.055480 -0.158783 -0.161187 46.000000
3.052986 -0.168047 -0.161058 53.000000
3.051460 -0.177354 -0.160993 48.000000
3.050901 -0.186715 -0.160993 57.000000
3.061268 -0.196780 -0.161705 30.000000
3.063637 -0.206372 -0.161899 54.000000
3.061994 -0.215700 -0.161834 42.000000
3.063308 -0.225240 -0.161964 47.000000
3.064593 -0.234790 -0.162093 67.000000
3.057890 -0.243714 -0.161705 42.000000
3.053150 -0.252765 -0.161446 48.000000
3.047389 -0.261703 -0.161123 38.000000
3.050547 -0.271405 -0.161381 26.000000
3.045725 -0.280396 -0.161123 32.000000
3.045844 -0.289834 -0.161187 36.000000
3.048913 -0.299568 -0.161446 35.000000
3.023160 -0.306402 -0.159828 11.000000
3.056397 0.529223 -0.200742 41.000000
3.048177 0.518169 -0.199976 35.000000
3.054669 0.509637 -0.200359 48.000000
3.051299 0.499456 -0.199976 34.000000
3.049864 0.489617 -0.199747 38.000000
3.055291 0.480880 -0.200053 43.000000
3.044927 0.469676 -0.199134 54.000000
3.045368 0.460182 -0.199058 39.000000
3.044793 0.450545 -0.198905 33.000000
3.047148 0.441344 -0.198981 30.000000
3.049475 0.432134 -0.199058 42.000000
3.051774 0.422914 -0.199134 41.000000
3.049105 0.413012 -0.198828 40.000000
3.047392 0.403262 -0.198598 40.000000
3.049604 0.394039 -0.198675 48.000000
3.048820 0.384431 -0.198522 44.000000
3.051965 0.375320 -0.198675 44.000000
3.049142 0.365478 -0.198369 41.000000
3.042326 0.355194 -0.197756 28.000000
3.048355 0.346423 -0.198139 38.000000
3.047421 0.336850 -0.197986 52.000000
3.046458 0.327285 -0.197833 47.000000
3.046456 0.317833 -0.197756 33.000000
3.034522 0.307175 -0.196761 41.000000
3.034457 0.297766 -0.196685 54.000000
3.031386 0.288076 -0.196379 39.000000
3.032256 0.278775 -0.196379 34.000000
3.036076 0.269736 -0.196608 47.000000
3.035896 0.260335 -0.196532 39.000000
3.036680 0.251020 -0.196532 35.000000
3.042406 0.242100 -0.196914 36.000000
3.045123 0.232917 -0.197067 49.000000
3.046817 0.223647 -0.197144 62.000000
3.049478 0.214439 -0.197297 40.000000
3.043158 0.204612 -0.196761 48.000000
3.041781 0.195146 -0.196608 42.000000
3.039380 0.185630 -0.196379 47.000000
3.039935 0.176304 -0.196379 42.000000
3.039466 0.166922 -0.196302 52.000000
3.040960 0.157648 -0.196379 44.000000
3.043421 0.148416 -0.196532 61.000000
3.047846 0.139262 -0.196838 45.000000
3.046267 0.129825 -0.196685 40.000000
3.046651 0.120478 -0.196685 57.000000
3.041028 0.110910 -0.196225 36.000000
3.039361 0.101513 -0.196072 47.000000
3.037665 0.092126 -0.195919 42.000000
3.028963 0.082559 -0.195230 47.000000
3.026212 0.073192 -0.195001 53.000000
3.026422 0.063907 -0.195001 47.000000
3.024610 0.054585 -0.194848 48.000000
3.030745 0.045398 -0.195307 53.000000
3.029873 0.036087 -0.195230 51.000000
3.032960 0.026819 -0.195460 42.000000
3.040008 0.017557 -0.195996 47.000000
3.038053 0.008224 -0.195843 39.000000
3.040058 -0.001097 -0.195996 45.000000
3.040040 -0.010424 -0.195996 48.000000
3.035009 -0.019720 -0.195613 52.000000
3.031943 -0.029003 -0.195384 43.000000
3.029846 -0.038281 -0.195230 41.000000
3.030711 -0.047591 -0.195307 52.000000
3.034538 -0.056962 -0.195613 50.000000
3.034349 -0.066272 -0.195613 40.000000
3.032138 -0.075532 -0.195460 41.000000
3.033885 -0.084889 -0.195613 51.000000
3.034607 -0.094227 -0.195690 48.000000
3.032311 -0.103470 -0.195537 34.000000
3.030983 -0.112735 -0.195460 37.000000
3.030623 -0.122034 -0.195460 52.000000
3.029238 -0.131288 -0.195384 52.000000
3.032805 -0.140765 -0.195690 41.000000
3.033355 -0.150117 -0.195766 39.000000
3.032880 -0.159423 -0.195766 39.000000
3.031381 -0.168672 -0.195690 41.000000
3.026868 -0.177739 -0.195384 36.000000
3.027303 -0.187085 -0.195460 50.000000
3.029700 -0.196565 -0.195690 50.000000
3.030078 -0.205926 -0.195766 37.000000
3.028437 -0.215151 -0.195690 34.000000
3.029752 -0.224588 -0.195843 33.000000
3.027060 -0.233729 -0.195690 29.000000
3.029310 -0.243253 -0.195919 42.000000
3.020601 -0.251886 -0.195307 28.000000
3.021800 -0.261323 -0.195460 27.000000
3.020984 -0.270592 -0.195460 29.000000
3.017161 -0.279585 -0.195230 26.000000
3.013312 -0.288556 -0.195001 27.000000
3.020351 -0.298581 -0.195613 36.000000
2.972798 -0.303110 -0.192016 9.000000
3.031636 0.525687 -0.236475 40.000000
3.026361 0.515214 -0.235854 51.000000
3.023998 0.505271 -0.235499 40.000000
3.019636 0.495025 -0.234967 40.000000
3.015240 0.484811 -0.234435 34.000000
3.023601 0.476643 -0.235056 37.000000
3.023080 0.467060 -0.234878 47.000000
3.027453 0.458230 -0.235144 35.000000
3.031801 0.449378 -0.235411 29.000000
3.039080 0.440931 -0.235943 34.000000
3.040418 0.431606 -0.235943 38.000000
3.046661 0.422960 -0.236386 34.000000
3.043009 0.412942 -0.235943 40.000000
3.039325 0.402950 -0.235499 42.000000
3.038571 0.393368 -0.235322 38.000000
3.039763 0.384044 -0.235322 41.000000
3.037961 0.374351 -0.235056 48.000000
3.040085 0.365148 -0.235144 34.000000
3.033276 0.354894 -0.234435 36.000000
3.030392 0.345136 -0.234080 35.000000
3.026486 0.335290 -0.233636 40.000000
3.027501 0.326003 -0.233636 39.000000
3.022543 0.316093 -0.233104 38.000000
3.014579 0.305914 -0.232305 46.000000
3.009556 0.296080 -0.231773 37.000000
3.011442 0.286940 -0.231862 47.000000
3.011316 0.277608 -0.231773 37.000000
3.015130 0.268633 -0.232039 46.000000
3.014948 0.259296 -0.231950 45.000000
3.014736 0.249963 -0.231862 42.000000
3.019461 0.241029 -0.232217 51.000000
3.027138 0.232297 -0.232838 38.000000
3.023863 0.222717 -0.232483 45.000000
3.025526 0.213509 -0.232571 43.000000
3.024179 0.204091 -0.232394 35.000000
3.020814 0.194557 -0.232039 38.000000
3.018415 0.185106 -0.231773 35.000000
3.020957 0.175960 -0.231950 53.000000
3.017504 0.166472 -0.231596 37.000000
3.019990 0.157317 -0.231773 56.000000
3.020459 0.148051 -0.231773 56.000000
3.021894 0.138829 -0.231862 52.000000
3.023301 0.129600 -0.231950 41.000000
3.021694 0.120245 -0.231773 48.000000
3.018067 0.110829 -0.231418 46.000000
3.019388 0.101602 -0.231507 38.000000
3.016699 0.092247 -0.231241 40.000000
3.013981 0.082910 -0.230974 41.000000
3.020195 0.073808 -0.231507 36.000000
3.021404 0.064563 -0.231596 43.000000
3.023579 0.055330 -0.231773 50.000000
3.024730 0.046068 -0.231862 43.000000
3.020874 0.036740 -0.231507 41.000000
3.020972 0.027472 -0.231507 42.000000
3.024030 0.018221 -0.231773 41.000000
3.020088 0.008932 -0.231418 42.000000
3.018109 -0.000333 -0.231241 35.000000
3.024070 -0.009612 -0.231773 50.000000
3.025023 -0.018896 -0.231862 38.000000
3.028934 -0.028214 -0.232217 44.000000
3.024849 -0.037457 -0.231862 31.000000
3.032688 -0.046861 -0.232571 32.000000
3.033526 -0.056183 -0.232660 38.000000
3.025372 -0.065317 -0.231950 47.000000
3.034119 -0.074820 -0.232749 31.000000
3.013962 -0.083574 -0.230974 52.000000
