ply
format ascii 1.0
element vertex 1277
property float x
property float y
property float z
property float intensity
end_header
3.150443 -0.038117 0.952892 38.000000
3.147432 -0.047739 0.952050 46.000000
3.142472 -0.057309 0.950647 37.000000
3.148999 -0.067091 0.952611 57.000000
3.151657 -0.076821 0.953453 49.000000
3.151406 -0.086489 0.953453 46.000000
3.156882 -0.096331 0.955137 51.000000
3.157531 -0.106047 0.955418 46.000000
3.162946 -0.115943 0.957102 40.000000
3.160657 -0.125571 0.956541 39.000000
3.155462 -0.135063 0.955137 42.000000
3.152157 -0.144613 0.954295 38.000000
3.149781 -0.154190 0.953734 57.000000
3.148335 -0.163803 0.953453 37.000000
3.150692 -0.173618 0.954295 41.000000
3.145354 -0.183007 0.952892 50.000000
3.147651 -0.192831 0.953734 45.000000
3.146087 -0.202425 0.953453 41.000000
3.141621 -0.211819 0.952331 32.000000
3.141914 -0.221524 0.952611 52.000000
3.132604 -0.230531 0.950085 37.000000
3.129011 -0.239922 0.949243 25.000000
3.135914 -0.250128 0.951489 40.000000
3.136089 -0.259827 0.951769 32.000000
3.133364 -0.269283 0.951208 48.000000
3.133480 -0.278980 0.951489 40.000000
3.134520 -0.288767 0.952050 49.000000
3.135531 -0.298564 0.952611 30.000000
3.140332 -0.308743 0.954295 43.000000
3.133640 -0.317797 0.952611 52.000000
3.144106 -0.328603 0.955979 30.000000
3.177262 0.502542 0.932915 31.000000
3.181643 0.493234 0.933725 31.000000
3.188854 0.484338 0.935343 39.000000
3.188420 0.474269 0.934804 31.000000
3.184142 0.463653 0.933185 53.000000
3.181736 0.453339 0.932106 33.000000
3.182159 0.443443 0.931836 43.000000
3.181596 0.433418 0.931297 32.000000
3.171456 0.422132 0.928060 48.000000
3.164142 0.411284 0.925632 62.000000
3.166345 0.401696 0.925902 42.000000
3.168517 0.392098 0.926171 49.000000
3.171618 0.382606 0.926711 62.000000
3.172776 0.372874 0.926711 53.000000
3.176775 0.363466 0.927520 48.000000
3.180747 0.354037 0.928329 44.000000
3.185647 0.344691 0.929408 33.000000
3.186690 0.334916 0.929408 46.000000
3.180997 0.324455 0.927520 44.000000
3.180060 0.314505 0.926981 38.000000
3.176218 0.304288 0.925632 52.000000
3.175219 0.294365 0.925092 42.000000
3.172271 0.284279 0.924013 45.000000
3.171209 0.274379 0.923474 49.000000
3.168197 0.264329 0.922395 44.000000
3.168994 0.254608 0.922395 47.000000
3.169760 0.244884 0.922395 51.000000
3.165695 0.234803 0.921046 60.000000
3.164479 0.224953 0.920506 60.000000
3.166115 0.215309 0.920776 42.000000
3.167722 0.205657 0.921046 46.000000
3.168338 0.195937 0.921046 56.000000
3.168924 0.186216 0.921046 56.000000
3.171403 0.176600 0.921585 54.000000
3.173853 0.166970 0.922125 41.000000
3.168580 0.156947 0.920506 62.000000
3.165199 0.147047 0.919427 59.000000
3.163711 0.137252 0.918888 59.000000
3.164117 0.127546 0.918888 68.000000
3.168343 0.117980 0.919967 57.000000
3.169652 0.108292 0.920237 58.000000
3.176707 0.098776 0.922125 37.000000
3.174107 0.088949 0.921316 67.000000
3.159693 0.040057 0.916999 68.000000
3.156027 0.020644 0.915920 59.000000
3.159928 0.010974 0.916999 56.000000
3.157058 0.001279 0.916190 53.000000
3.162824 -0.008423 0.917809 46.000000
3.162784 -0.018126 0.917809 62.000000
3.162713 -0.027830 0.917809 62.000000
3.168390 -0.037602 0.919427 63.000000
3.161520 -0.047221 0.917539 70.000000
3.157509 -0.056850 0.916460 48.000000
3.159245 -0.066578 0.916999 67.000000
3.150749 -0.124451 0.915111 56.000000
3.152277 -0.134199 0.915651 69.000000
3.150888 -0.143825 0.915381 62.000000
3.152356 -0.153585 0.915920 55.000000
3.155716 -0.163456 0.916999 51.000000
3.157123 -0.173242 0.917539 71.000000
3.158499 -0.183039 0.918079 44.000000
3.160806 -0.192904 0.918888 41.000000
3.159238 -0.202539 0.918618 58.000000
3.162445 -0.212489 0.919697 60.000000
3.156976 -0.221852 0.918348 72.000000
3.154359 -0.231396 0.917809 56.000000
3.159917 -0.270828 0.920237 53.000000
3.157153 -0.280351 0.919697 40.000000
3.162990 -0.290653 0.921585 44.000000
3.160166 -0.300173 0.921046 47.000000
3.162106 -0.310149 0.921855 26.000000
3.160181 -0.319752 0.921585 40.000000
3.160143 -0.329546 0.921855 29.000000
3.179223 -0.341401 0.927520 11.000000
3.178741 0.502055 0.893656 40.000000
3.185039 0.493041 0.894950 28.000000
3.188446 0.483557 0.895467 36.000000
3.188959 0.473631 0.895208 42.000000
3.190398 0.463845 0.895208 46.000000
3.184155 0.452964 0.893139 52.000000
3.187443 0.443460 0.893656 40.000000
3.182089 0.432765 0.891846 59.000000
3.179572 0.422490 0.890811 52.000000
3.178937 0.412484 0.890294 58.000000
3.173480 0.401877 0.888483 48.000000
3.177574 0.392496 0.889259 52.000000
3.184071 0.353686 0.889777 61.000000
3.184181 0.343812 0.889518 60.000000
3.186181 0.334143 0.889777 69.000000
3.184308 0.324071 0.889001 68.000000
3.180481 0.313825 0.887708 58.000000
3.181429 0.304066 0.887708 63.000000
3.179461 0.294036 0.886932 50.000000
3.176500 0.283934 0.885897 66.000000
3.175432 0.274021 0.885380 68.000000
3.174332 0.264117 0.884862 62.000000
3.174165 0.254299 0.884604 62.000000
3.173967 0.244485 0.884345 60.000000
3.168922 0.234317 0.882793 62.000000
3.170215 0.185567 0.882276 62.000000
3.167876 0.175679 0.881500 61.000000
3.167435 0.165908 0.881241 65.000000
3.166000 0.156094 0.880724 76.000000
3.163569 0.146245 0.879948 76.000000
3.166898 0.136665 0.880724 72.000000
3.172128 0.127143 0.882017 84.000000
3.179260 0.117663 0.883828 74.000000
3.179606 0.107909 0.883828 78.000000
3.183785 0.098274 0.884862 69.000000
3.185037 0.088533 0.885121 58.000000
3.183362 0.078713 0.884604 66.000000
3.178293 0.039568 0.883052 71.000000
3.179365 0.029826 0.883310 60.000000
3.175578 0.020046 0.882276 66.000000
3.175624 0.010303 0.882276 53.000000
3.174675 0.000560 0.882017 64.000000
3.172730 -0.009175 0.881500 64.000000
3.166891 -0.018876 0.879948 67.000000
3.166818 -0.028592 0.879948 63.000000
3.164784 -0.038285 0.879431 60.000000
3.157891 -0.047894 0.877620 57.000000
3.156763 -0.057565 0.877361 68.000000
3.154640 -0.067209 0.876844 61.000000
3.153453 -0.076864 0.876586 58.000000
3.157065 -0.086643 0.877620 64.000000
3.159681 -0.096415 0.878396 75.000000
3.164197 -0.106269 0.879689 63.000000
3.172545 -0.116291 0.882017 88.000000
3.168312 -0.125872 0.880983 78.000000
3.168876 -0.135633 0.881241 55.000000
3.161690 -0.145046 0.879431 57.000000
3.156406 -0.154511 0.878137 57.000000
3.153023 -0.164045 0.877361 46.000000
3.146718 -0.173401 0.875810 57.000000
3.145207 -0.182998 0.875551 65.000000
3.146559 -0.192764 0.876068 48.000000
3.148845 -0.202602 0.876844 40.000000
3.148208 -0.212261 0.876844 55.000000
3.150433 -0.222121 0.877620 51.000000
3.150700 -0.231856 0.877879 57.000000
3.153827 -0.241815 0.878913 46.000000
3.154033 -0.251567 0.879172 54.000000
3.157097 -0.261559 0.880207 41.000000
3.155317 -0.271162 0.879948 58.000000
3.156395 -0.281011 0.880465 57.000000
3.159366 -0.291047 0.881500 42.000000
3.155573 -0.300465 0.880724 38.000000
3.154636 -0.310144 0.880724 36.000000
3.154631 -0.319918 0.880983 38.000000
3.152674 -0.329495 0.880724 24.000000
3.169897 -0.341123 0.885638 6.000000
3.171945 0.501702 0.852504 31.000000
3.177299 0.492561 0.853494 36.000000
3.177837 0.482666 0.853247 30.000000
3.179303 0.472914 0.853247 29.000000
3.183615 0.463577 0.853989 39.000000
3.185022 0.453807 0.853989 47.000000
3.186400 0.444034 0.853989 41.000000
3.192547 0.434909 0.855227 26.000000
3.190025 0.424602 0.854237 40.000000
3.191312 0.414813 0.854237 34.000000
3.191609 0.404898 0.853989 38.000000
3.190913 0.394867 0.853494 36.000000
3.193071 0.385191 0.853742 43.000000
3.196162 0.375619 0.854237 49.000000
3.196337 0.365702 0.853989 49.000000
3.196481 0.355787 0.853742 38.000000
3.195631 0.345770 0.853247 50.000000
3.192822 0.335560 0.852257 47.000000
3.193837 0.325763 0.852257 42.000000
3.192893 0.315772 0.851762 42.000000
3.190953 0.305698 0.851019 61.000000
3.191876 0.295907 0.851019 47.000000
3.195664 0.286372 0.851762 32.000000
3.193632 0.276316 0.851019 39.000000
3.196396 0.266678 0.851514 44.000000
3.195267 0.256715 0.851019 41.000000
3.193141 0.246688 0.850276 41.000000
3.188086 0.236461 0.848791 46.000000
3.188796 0.226679 0.848791 40.000000
3.188510 0.216829 0.848544 64.000000
3.190127 0.207109 0.848791 59.000000
3.186879 0.197082 0.847801 42.000000
3.185534 0.187190 0.847306 56.000000
3.187061 0.177470 0.847554 66.000000
3.183721 0.167488 0.846564 50.000000
3.181316 0.157576 0.845821 74.000000
3.181785 0.147816 0.845821 68.000000
3.179319 0.137928 0.845079 68.000000
3.185536 0.128406 0.846564 56.000000
3.188820 0.118740 0.847306 75.000000
3.188201 0.108924 0.847059 63.000000
3.192393 0.099262 0.848049 59.000000
3.195589 0.089549 0.848791 55.000000
3.192943 0.079672 0.848049 69.000000
3.190773 0.040447 0.847306 67.000000
3.190882 0.030658 0.847306 75.000000
3.189024 0.020856 0.846811 68.000000
3.187135 0.011065 0.846316 68.000000
3.184247 0.001287 0.845574 73.000000
3.180361 -0.008472 0.844584 104.000000
3.181288 -0.018235 0.844831 94.000000
3.179280 -0.027977 0.844336 91.000000
3.176273 -0.037696 0.843594 116.000000
3.177111 -0.047455 0.843841 154.000000
3.176950 -0.057202 0.843841 138.000000
3.182572 -0.067072 0.845326 140.000000
3.189131 -0.077000 0.847059 175.000000
3.172455 -0.115564 0.843099 248.000000
3.180798 -0.125641 0.845326 157.000000
3.186206 -0.135647 0.846811 94.000000
3.181903 -0.145245 0.845821 102.000000
3.175636 -0.154722 0.844336 60.000000
3.171276 -0.164263 0.843346 57.000000
3.171725 -0.174045 0.843594 79.000000
3.173110 -0.183887 0.844089 60.000000
3.166729 -0.193267 0.842604 46.000000
3.169988 -0.203230 0.843594 50.000000
3.171283 -0.213084 0.844089 64.000000
3.173514 -0.223017 0.844831 67.000000
3.176680 -0.233036 0.845821 47.000000
3.172732 -0.281736 0.845821 66.000000
3.171853 -0.291469 0.845821 38.000000
3.162263 -0.300373 0.843594 34.000000
3.169040 -0.310831 0.845574 37.000000
3.169036 -0.320649 0.845821 36.000000
3.187310 -0.332382 0.850771 12.000000
3.191092 -0.342677 0.852009 8.000000
3.200425 0.505488 0.819804 35.000000
3.202921 0.495816 0.820040 45.000000
3.202506 0.485695 0.819568 45.000000
3.209748 0.476726 0.820985 39.000000
3.203503 0.465755 0.819096 52.000000
3.204917 0.455925 0.819096 32.000000
3.201488 0.445419 0.817915 44.000000
3.193212 0.434282 0.815553 43.000000
3.198382 0.424997 0.816498 55.000000
3.198707 0.415057 0.816262 55.000000
3.198038 0.404996 0.815789 54.000000
3.205051 0.395900 0.817206 50.000000
3.197114 0.355140 0.814136 53.000000
3.192392 0.344702 0.812719 63.000000
3.190535 0.334601 0.812011 55.000000
3.187680 0.324416 0.811066 57.000000
3.188660 0.314635 0.811066 67.000000
3.187676 0.304665 0.810594 68.000000
3.189563 0.294974 0.810830 60.000000
3.194324 0.285534 0.811775 61.000000
3.191313 0.275397 0.810830 74.000000
3.189238 0.265362 0.810122 50.000000
3.192943 0.255811 0.810830 65.000000
3.187900 0.245564 0.809413 61.000000
3.190576 0.235926 0.809885 84.000000
3.199640 0.187300 0.811302 72.000000
3.201170 0.177537 0.811539 79.000000
3.201699 0.167715 0.811539 81.000000
3.199287 0.157747 0.810830 57.000000
3.196844 0.147796 0.810122 72.000000
3.197283 0.137987 0.810122 95.000000
3.191865 0.127942 0.808705 62.000000
3.189330 0.118040 0.807996 47.000000
3.186763 0.108154 0.807288 52.000000
3.188051 0.098407 0.807524 73.000000
3.187367 0.088599 0.807288 78.000000
3.184710 0.078747 0.806579 86.000000
3.189323 0.039709 0.807524 81.000000
3.188458 0.029915 0.807288 65.000000
3.183676 0.020100 0.806107 76.000000
3.179836 0.010319 0.805162 106.000000
3.176938 0.000561 0.804454 126.000000
3.184698 -0.009205 0.806343 150.000000
3.188541 -0.018997 0.807288 213.000000
3.188468 -0.028779 0.807288 197.000000
3.189337 -0.038573 0.807524 166.000000
3.191146 -0.048386 0.807996 154.000000
3.190983 -0.058176 0.807996 164.000000
3.192733 -0.068006 0.808468 155.000000
3.190566 -0.077754 0.807996 165.000000
3.185456 -0.087411 0.806815 211.000000
3.182259 -0.097096 0.806107 292.000000
3.182917 -0.106891 0.806343 273.000000
3.183545 -0.116690 0.806579 259.000000
3.187056 -0.126610 0.807524 211.000000
3.182769 -0.136222 0.806579 118.000000
3.181366 -0.145942 0.806343 96.000000
3.180903 -0.155701 0.806343 79.000000
3.179440 -0.165409 0.806107 75.000000
3.179888 -0.175216 0.806343 99.000000
3.181275 -0.185083 0.806815 59.000000
3.179723 -0.194783 0.806579 82.000000
3.180080 -0.204600 0.806815 104.000000
3.183315 -0.214615 0.807760 48.000000
3.181673 -0.224312 0.807524 68.000000
3.180969 -0.234073 0.807524 64.000000
3.182174 -0.243978 0.807996 48.000000
3.178505 -0.253509 0.807288 47.000000
3.177712 -0.263260 0.807288 53.000000
3.177857 -0.273090 0.807524 43.000000
3.178940 -0.283010 0.807996 47.000000
3.176122 -0.292584 0.807524 49.000000
3.175209 -0.302327 0.807524 38.000000
3.164596 -0.311120 0.805162 33.000000
3.160726 -0.320534 0.804454 20.000000
3.232717 0.520901 0.787891 20.000000
3.212162 0.507486 0.782721 61.000000
3.213704 0.497629 0.782721 42.000000
3.215216 0.487767 0.782721 35.000000
3.219589 0.478330 0.783396 41.000000
3.217183 0.467890 0.782497 51.000000
3.219569 0.458155 0.782721 29.000000
3.216134 0.447604 0.781597 44.000000
3.208802 0.436554 0.779574 62.000000
3.207228 0.426322 0.778900 39.000000
3.204656 0.415979 0.778001 54.000000
3.198183 0.405167 0.776203 40.000000
3.199411 0.395353 0.776203 40.000000
3.200609 0.385536 0.776203 49.000000
3.198874 0.375374 0.775528 54.000000
3.202914 0.365890 0.776203 40.000000
3.204990 0.356169 0.776427 35.000000
3.204131 0.346126 0.775978 38.000000
3.206146 0.336395 0.776203 51.000000
3.203286 0.326163 0.775303 38.000000
3.208150 0.316717 0.776203 34.000000
3.207167 0.306687 0.775753 43.000000
3.206152 0.296667 0.775303 41.000000
3.210929 0.287176 0.776203 52.000000
3.211795 0.277324 0.776203 67.000000
3.215544 0.267711 0.776877 36.000000
3.208580 0.257223 0.775079 46.000000
3.199639 0.246630 0.772831 44.000000
3.205239 0.237171 0.773955 35.000000
3.198176 0.226786 0.772157 52.000000
3.198857 0.216973 0.772157 38.000000
3.196590 0.206970 0.771482 50.000000
3.199155 0.197282 0.771932 60.000000
3.201690 0.187580 0.772381 58.000000
3.209061 0.178133 0.773955 69.000000
3.206674 0.168134 0.773280 64.000000
3.206201 0.158248 0.773056 56.000000
3.207645 0.148455 0.773280 56.000000
3.201271 0.138320 0.771707 80.000000
3.197786 0.128342 0.770808 79.000000
3.203033 0.118711 0.771932 66.000000
3.200460 0.108785 0.771257 79.000000
3.200779 0.098965 0.771257 77.000000
3.202042 0.089172 0.771482 94.000000
3.203274 0.079372 0.771707 73.000000
3.197187 0.039972 0.770134 75.000000
3.195346 0.030145 0.769684 95.000000
3.196398 0.020348 0.769909 86.000000
3.192547 0.010529 0.769010 124.000000
3.194514 0.000735 0.769459 148.000000
3.204245 -0.009095 0.771707 198.000000
3.207125 -0.018943 0.772381 220.000000
3.206077 -0.028773 0.772157 221.000000
3.206948 -0.038621 0.772381 196.000000
3.207789 -0.048475 0.772606 203.000000
3.202754 -0.058226 0.771482 418.000000
3.199638 -0.067990 0.770808 869.000000
3.211103 -0.078091 0.773505 1209.000000
3.248837 -0.088988 0.782272 2007.000000
3.269001 -0.099580 0.786992 2483.000000
3.238491 -0.108593 0.780024 2303.000000
3.224510 -0.118027 0.776877 1695.000000
3.197844 -0.126873 0.770808 593.000000
3.203281 -0.136934 0.772157 204.000000
3.205766 -0.146895 0.772831 160.000000
3.203354 -0.156634 0.772381 130.000000
3.201885 -0.166410 0.772157 124.000000
3.202332 -0.176286 0.772381 145.000000
3.195940 -0.185770 0.771033 124.000000
3.190492 -0.195276 0.769909 81.000000
3.194740 -0.205376 0.771033 63.000000
3.197011 -0.215374 0.771707 66.000000
3.196336 -0.225181 0.771707 66.000000
3.199517 -0.235272 0.772606 64.000000
3.197359 -0.274601 0.772831 80.000000
3.189708 -0.283804 0.771257 71.000000
3.183971 -0.293141 0.770134 38.000000
3.176266 -0.302261 0.768560 35.000000
3.179203 -0.312386 0.769459 25.000000
3.172413 -0.321548 0.768111 28.000000
3.184913 -0.342572 0.771482 5.000000
3.225594 0.549551 0.747957 7.000000
3.256170 0.544496 0.754363 21.000000
3.263609 0.535455 0.755644 30.000000
3.227622 0.519373 0.747316 59.000000
3.223410 0.508553 0.746035 56.000000
3.222059 0.498212 0.745394 55.000000
3.213914 0.486858 0.743259 50.000000
3.215393 0.476996 0.743259 50.000000
3.213941 0.466707 0.742618 49.000000
3.214390 0.456706 0.742405 51.000000
3.212873 0.446438 0.741764 45.000000
3.213260 0.436447 0.741550 53.000000
3.211679 0.426201 0.740910 45.000000
3.211033 0.416094 0.740483 65.000000
3.212295 0.406240 0.740483 58.000000
3.212557 0.396263 0.740269 65.000000
3.215236 0.356594 0.739842 55.000000
3.210562 0.336145 0.738347 61.000000
3.209634 0.326095 0.737920 64.000000
3.207703 0.315958 0.737280 69.000000
3.208657 0.306116 0.737280 52.000000
3.208609 0.296180 0.737066 49.000000
3.213394 0.286683 0.737920 67.000000
3.212312 0.276655 0.737493 57.000000
3.214119 0.266880 0.737707 45.000000
3.213949 0.256940 0.737493 60.000000
3.207904 0.246552 0.735998 61.000000
3.207671 0.236636 0.735785 58.000000
3.202147 0.186890 0.733863 65.000000
3.206606 0.177282 0.734717 65.000000
3.211037 0.167649 0.735571 70.000000
3.213488 0.157893 0.735998 72.000000
3.211030 0.147898 0.735358 68.000000
3.210493 0.138003 0.735144 72.000000
3.206020 0.127957 0.734076 76.000000
3.205421 0.118084 0.733863 96.000000
3.206745 0.108282 0.734076 81.000000
3.209991 0.098535 0.734717 80.000000
3.213208 0.088768 0.735358 80.000000
3.212489 0.078885 0.735144 73.000000
3.204423 0.039346 0.733222 81.000000
3.203552 0.029506 0.733009 90.000000
3.203628 0.019677 0.733009 96.000000
3.205627 0.009855 0.733436 109.000000
3.206619 0.000021 0.733649 107.000000
3.208558 -0.009822 0.734076 118.000000
3.213397 -0.019694 0.735144 162.000000
3.215275 -0.029570 0.735571 203.000000
3.213215 -0.039411 0.735144 190.000000
3.211126 -0.049239 0.734717 172.000000
3.210959 -0.059091 0.734717 210.000000
3.209786 -0.068921 0.734504 184.000000
3.209560 -0.078768 0.734504 234.000000
3.195631 -0.088242 0.731514 371.000000
3.189487 -0.097868 0.730233 435.000000
3.202841 -0.108109 0.733222 319.000000
3.203470 -0.117970 0.733436 190.000000
3.201141 -0.127721 0.733009 169.000000
3.201710 -0.137583 0.733222 151.000000
3.203225 -0.147494 0.733649 140.000000
3.204709 -0.157416 0.734076 136.000000
3.207137 -0.167399 0.734717 138.000000
3.208560 -0.177344 0.735144 131.000000
3.206050 -0.187074 0.734717 137.000000
3.191809 -0.196076 0.731727 75.000000
3.195092 -0.206117 0.732582 68.000000
3.199319 -0.216246 0.733649 44.000000
3.194742 -0.225787 0.732795 49.000000
3.199880 -0.236016 0.734076 51.000000
3.204012 -0.246204 0.735144 52.000000
3.205189 -0.256188 0.735571 62.000000
3.206335 -0.266181 0.735998 46.000000
3.205503 -0.276017 0.735998 54.000000
3.200749 -0.285504 0.735144 38.000000
3.192075 -0.294607 0.733436 28.000000
3.196992 -0.304953 0.734717 48.000000
3.193125 -0.314474 0.734076 53.000000
3.195060 -0.324564 0.734717 35.000000
3.189192 -0.333858 0.733649 45.000000
3.187181 -0.343536 0.733436 25.000000
3.183199 -0.352991 0.732795 16.000000
3.245777 0.533805 0.709936 19.000000
3.237730 0.522286 0.707920 30.000000
3.240284 0.512503 0.708121 35.000000
3.238938 0.502110 0.707516 50.000000
3.236589 0.491582 0.706710 43.000000
3.236145 0.481362 0.706307 30.000000
3.230821 0.470445 0.704896 45.000000
3.229340 0.460116 0.704291 33.000000
3.230737 0.450207 0.704291 45.000000
3.226280 0.439500 0.703081 48.000000
3.225671 0.429342 0.702678 53.000000
3.226002 0.419317 0.702477 47.000000
3.222415 0.408802 0.701469 32.000000
3.222682 0.398794 0.701267 52.000000
3.225835 0.389140 0.701670 51.000000
3.224095 0.378898 0.701066 38.000000
3.224269 0.368894 0.700864 62.000000
3.220518 0.358459 0.699856 48.000000
3.218682 0.348261 0.699251 51.000000
3.220709 0.338487 0.699453 65.000000
3.222707 0.328704 0.699654 50.000000
3.219801 0.318430 0.698848 57.000000
3.223688 0.308830 0.699453 53.000000
3.228522 0.299300 0.700259 45.000000
3.227473 0.289219 0.699856 62.000000
3.230297 0.279484 0.700259 40.000000
3.228211 0.269329 0.699654 49.000000
3.222188 0.258875 0.698243 58.000000
3.221990 0.248913 0.698042 54.000000
3.215901 0.238521 0.696631 63.000000
3.213687 0.228445 0.696026 65.000000
3.217304 0.218784 0.696631 52.000000
3.216006 0.208786 0.696227 71.000000
3.219564 0.199099 0.696832 50.000000
3.221137 0.189278 0.697034 67.000000
3.223659 0.179503 0.697437 54.000000
3.222238 0.169510 0.697034 42.000000
3.223721 0.159672 0.697235 62.000000
3.224196 0.149781 0.697235 63.000000
3.224640 0.139888 0.697235 85.000000
3.223097 0.129916 0.696832 77.000000
3.225438 0.120100 0.697235 83.000000
3.226770 0.110237 0.697437 79.000000
3.230030 0.100428 0.698042 77.000000
3.232281 0.090572 0.698445 88.000000
3.230585 0.080607 0.698042 78.000000
3.225455 0.040883 0.696832 78.000000
3.222627 0.030959 0.696227 88.000000
3.217809 0.021041 0.695219 93.000000
3.221777 0.011181 0.696026 85.000000
3.216898 0.001296 0.695018 95.000000
3.216887 -0.008574 0.695018 117.000000
3.216846 -0.018443 0.695018 127.000000
3.221671 -0.028356 0.696026 163.000000
3.214713 -0.038157 0.694615 128.000000
3.220457 -0.048108 0.695824 158.000000
3.225191 -0.058077 0.696832 176.000000
3.224019 -0.067951 0.696631 176.000000
3.224774 -0.077865 0.696832 186.000000
3.226512 -0.117539 0.697437 224.000000
3.216349 -0.127050 0.695421 167.000000
3.211051 -0.136708 0.694413 127.000000
3.210617 -0.146559 0.694413 117.000000
3.213087 -0.156552 0.695018 118.000000
3.213570 -0.166459 0.695219 114.000000
3.215000 -0.176425 0.695623 106.000000
3.209555 -0.186004 0.694615 89.000000
3.206036 -0.195670 0.694010 85.000000
3.195646 -0.204878 0.691994 58.000000
3.192071 -0.214483 0.691389 67.000000
3.188466 -0.224069 0.690784 57.000000
3.191671 -0.234137 0.691591 69.000000
3.202220 -0.274459 0.694413 65.000000
3.208192 -0.284889 0.695824 43.000000
3.209254 -0.294910 0.696227 43.000000
3.204434 -0.304383 0.695421 64.000000
3.201535 -0.314022 0.695018 41.000000
3.203480 -0.324138 0.695623 37.000000
3.200522 -0.333762 0.695219 54.000000
3.204353 -0.344103 0.696227 35.000000
3.233461 -0.357270 0.702477 9.000000
3.245209 0.522210 0.670851 26.000000
3.245826 0.512098 0.670660 45.000000
3.246412 0.501987 0.670470 50.000000
3.245996 0.491730 0.670089 39.000000
3.244576 0.481336 0.669518 42.000000
3.244095 0.471096 0.669137 39.000000
3.243581 0.460865 0.668756 57.000000
3.244980 0.450911 0.668756 45.000000
3.240511 0.440159 0.667613 53.000000
3.237954 0.429697 0.666851 53.000000
3.235363 0.419255 0.666089 53.000000
3.227869 0.408216 0.664375 54.000000
3.223261 0.397587 0.663232 57.000000
3.216189 0.356700 0.660947 57.000000
3.219220 0.347043 0.661327 68.000000
3.221246 0.337267 0.661518 66.000000
3.223242 0.327483 0.661708 54.000000
3.221301 0.317302 0.661137 62.000000
3.222259 0.307418 0.661137 80.000000
3.224165 0.297622 0.661327 58.000000
3.227996 0.287991 0.661899 52.000000
3.226908 0.277917 0.661518 47.000000
3.230680 0.268261 0.662089 66.000000
3.230510 0.258269 0.661899 66.000000
3.224435 0.247828 0.660566 74.000000
3.227139 0.238080 0.660947 63.000000
3.229431 0.188492 0.660756 49.000000
3.234895 0.178856 0.661708 66.000000
3.237389 0.169034 0.662089 73.000000
3.234951 0.158956 0.661518 61.000000
3.232481 0.148894 0.660947 64.000000
3.231942 0.138933 0.660756 83.000000
3.227449 0.128820 0.659804 75.000000
3.226848 0.118881 0.659613 80.000000
3.227197 0.108980 0.659613 87.000000
3.225554 0.099018 0.659232 90.000000
3.225843 0.089122 0.659232 97.000000
3.223157 0.079151 0.658661 74.000000
3.219959 0.039543 0.657899 75.000000
3.216138 0.029626 0.657137 53.000000
3.220141 0.019784 0.657899 66.000000
3.217241 0.009895 0.657328 60.000000
3.214311 0.000024 0.656756 71.000000
3.216260 -0.009843 0.657137 64.000000
3.210325 -0.019676 0.655994 62.000000
3.212212 -0.029543 0.656375 67.000000
3.213088 -0.039409 0.656566 65.000000
3.210989 -0.049237 0.656185 73.000000
3.212786 -0.059124 0.656566 105.000000
3.213571 -0.069001 0.656756 94.000000
3.214325 -0.078883 0.656947 98.000000
3.217012 -0.088825 0.657518 81.000000
3.224575 -0.098932 0.659042 102.000000
3.225237 -0.108857 0.659232 109.000000
3.221945 -0.118644 0.658661 105.000000
3.224509 -0.128645 0.659232 69.000000
3.227041 -0.138662 0.659804 65.000000
3.227581 -0.148607 0.659994 67.000000
3.225149 -0.158412 0.659613 66.000000
3.222687 -0.168205 0.659232 64.000000
3.224116 -0.178199 0.659613 71.000000
3.227474 -0.188316 0.660375 64.000000
3.235701 -0.198756 0.662089 37.000000
3.222339 -0.207865 0.659613 46.000000
3.222666 -0.217816 0.659804 36.000000
3.216107 -0.227289 0.658661 56.000000
3.212458 -0.236939 0.658090 48.000000
3.208779 -0.246569 0.657518 58.000000
3.205071 -0.256179 0.656947 36.000000
3.201335 -0.265768 0.656375 52.000000
3.203439 -0.275840 0.656947 42.000000
3.199644 -0.285406 0.656375 31.000000
3.206574 -0.295940 0.657899 34.000000
3.197833 -0.305033 0.656375 31.000000
3.186135 -0.313788 0.654280 22.000000
3.160739 -0.321090 0.649519 10.000000
3.116778 -0.326304 0.641138 7.000000
3.228073 0.520729 0.626946 27.000000
3.234514 0.511591 0.627839 36.000000
3.235096 0.501515 0.627660 38.000000
3.234674 0.491292 0.627303 37.000000
3.239086 0.481800 0.627839 40.000000
3.241523 0.472002 0.628017 44.000000
3.241982 0.461916 0.627839 39.000000
3.243383 0.451967 0.627839 50.000000
3.241830 0.441617 0.627303 49.000000
3.246095 0.432058 0.627839 46.000000
3.246430 0.421970 0.627660 30.000000
3.245757 0.411761 0.627303 45.000000
3.246029 0.401680 0.627124 48.000000
3.245292 0.391484 0.626767 43.000000
3.246478 0.381526 0.626767 39.000000
3.247633 0.371564 0.626767 50.000000
3.243868 0.361055 0.625874 54.000000
3.241048 0.350679 0.625159 41.000000
3.236237 0.340117 0.624088 32.000000
3.238244 0.330287 0.624266 47.000000
3.237284 0.320157 0.623909 50.000000
3.235312 0.309942 0.623373 54.000000
3.235269 0.299925 0.623194 44.000000
3.239113 0.290261 0.623730 52.000000
3.244890 0.280745 0.624623 58.000000
3.245736 0.270789 0.624623 42.000000
3.247533 0.260908 0.624802 36.000000
3.245374 0.250717 0.624266 50.000000
3.242203 0.240468 0.623552 72.000000
3.240963 0.230381 0.623194 53.000000
3.239691 0.220303 0.622837 51.000000
3.239370 0.210300 0.622659 38.000000
3.234108 0.199997 0.621587 51.000000
3.233724 0.190016 0.621408 56.000000
3.238221 0.180313 0.622123 56.000000
3.238759 0.170377 0.622123 55.000000
3.237301 0.160343 0.621765 64.000000
3.230898 0.150091 0.620515 63.000000
3.231343 0.140178 0.620515 76.000000
3.231758 0.130264 0.620515 56.000000
3.229192 0.120239 0.619979 47.000000
3.229546 0.110331 0.619979 69.000000
3.231837 0.100484 0.620336 67.000000
3.225245 0.090376 0.619086 52.000000
3.232392 0.080652 0.620336 65.000000
3.222316 0.040843 0.618371 60.000000
3.222427 0.030957 0.618371 62.000000
3.225458 0.021090 0.618907 44.000000
3.218620 0.011171 0.617657 58.000000
3.215688 0.001295 0.617121 50.000000
3.216660 -0.008573 0.617300 52.000000
3.218586 -0.018453 0.617657 54.000000
3.222450 -0.028362 0.618371 48.000000
3.221364 -0.038237 0.618193 50.000000
3.225167 -0.048179 0.618907 69.000000
3.227956 -0.058127 0.619443 63.000000
3.230713 -0.068092 0.619979 57.000000
3.227538 -0.077932 0.619443 58.000000
3.236778 -0.127859 0.621408 55.000000
3.236370 -0.137789 0.621408 52.000000
3.233966 -0.147627 0.621051 60.000000
3.227602 -0.157260 0.619979 38.000000
3.227104 -0.167162 0.619979 66.000000
3.223629 -0.176900 0.619443 53.000000
3.223071 -0.186789 0.619443 60.000000
3.225429 -0.196856 0.619979 66.000000
3.222846 -0.206625 0.619622 58.000000
3.224160 -0.216643 0.619979 57.000000
3.220536 -0.226327 0.619443 52.000000
3.218845 -0.236134 0.619265 60.000000
3.217665 -0.275785 0.619622 58.000000
3.221704 -0.286091 0.620515 32.000000
3.223751 -0.296244 0.621051 45.000000
3.222827 -0.306133 0.621051 50.000000
3.209143 -0.314769 0.618729 23.000000
3.229092 0.519610 0.587284 38.000000
3.224827 0.508777 0.586282 27.000000
3.238065 0.500693 0.588286 61.000000
3.240561 0.490905 0.588453 33.000000
3.245953 0.481541 0.589120 59.000000
3.250341 0.472006 0.589621 54.000000
3.251775 0.462032 0.589621 42.000000
3.253177 0.452053 0.589621 64.000000
3.252594 0.441804 0.589287 54.000000
3.255889 0.432084 0.589621 47.000000
3.253289 0.421585 0.588953 62.000000
3.255545 0.411726 0.589120 53.000000
3.254835 0.401494 0.588787 60.000000
3.256577 0.361195 0.588286 59.000000
3.249907 0.340279 0.586783 41.000000
3.250936 0.330306 0.586783 56.000000
3.245066 0.319652 0.585615 66.000000
3.248976 0.309977 0.586115 73.000000
3.247948 0.299826 0.585782 55.000000
3.244924 0.289508 0.585114 53.000000
3.249726 0.279891 0.585782 53.000000
3.253518 0.270165 0.586282 69.000000
3.250400 0.259867 0.585615 53.000000
3.251182 0.249894 0.585615 52.000000
3.248000 0.239626 0.584947 78.000000
3.229640 0.188505 0.581274 57.000000
3.236109 0.178924 0.582276 46.000000
3.234674 0.168891 0.581942 83.000000
3.237146 0.159064 0.582276 57.000000
3.237619 0.149132 0.582276 59.000000
3.238061 0.139199 0.582276 64.000000
3.238473 0.129264 0.582276 68.000000
3.241811 0.119438 0.582777 58.000000
3.236249 0.109289 0.581775 53.000000
3.242482 0.099544 0.582777 53.000000
3.243758 0.089623 0.582944 58.000000
3.244018 0.079671 0.582944 55.000000
3.234892 0.039731 0.581274 70.000000
3.234999 0.029807 0.581274 72.000000
3.238033 0.019901 0.581775 54.000000
3.232163 0.009946 0.580773 52.000000
3.232178 0.000030 0.580773 47.000000
3.229206 -0.009878 0.580273 58.000000
3.229160 -0.019785 0.580273 43.000000
3.236971 -0.029762 0.581608 49.000000
3.237851 -0.039704 0.581775 56.000000
3.240671 -0.049682 0.582276 48.000000
3.246418 -0.059730 0.583278 47.000000
3.243263 -0.069628 0.582777 48.000000
3.243034 -0.079577 0.582777 34.000000
3.242774 -0.089527 0.582777 55.000000
3.235586 -0.099266 0.581608 49.000000
3.236251 -0.109225 0.581775 62.000000
3.235901 -0.119153 0.581775 63.000000
3.239461 -0.129236 0.582443 50.000000
3.241020 -0.139258 0.582777 55.000000
3.239592 -0.149155 0.582610 63.000000
3.240104 -0.159142 0.582777 51.000000
3.234677 -0.168826 0.581942 45.000000
3.233160 -0.178695 0.581775 58.000000
3.222753 -0.188043 0.580106 62.000000
3.221177 -0.197869 0.579939 43.000000
3.219571 -0.207687 0.579772 47.000000
3.217934 -0.217498 0.579605 40.000000
3.218236 -0.227438 0.579772 50.000000
3.220473 -0.237527 0.580273 42.000000
3.221695 -0.247557 0.580606 48.000000
3.222886 -0.257596 0.580940 55.000000
3.220115 -0.267320 0.580606 40.000000
3.220262 -0.277282 0.580773 32.000000
3.212522 -0.286550 0.579605 34.000000
3.208682 -0.296134 0.579104 33.000000
3.208740 -0.306070 0.579271 38.000000
3.219561 -0.317068 0.581274 12.000000
3.280293 0.528562 0.554603 25.000000
3.276044 0.517571 0.553674 28.000000
3.278593 0.507669 0.553828 40.000000
3.277205 0.497164 0.553364 35.000000
3.266011 0.485221 0.551350 34.000000
3.264551 0.474773 0.550886 39.000000
3.258167 0.463643 0.549647 36.000000
3.258596 0.453508 0.549492 35.000000
3.260951 0.443642 0.549647 60.000000
3.261317 0.433506 0.549492 42.000000
3.260672 0.423244 0.549182 45.000000
3.263916 0.413486 0.549492 48.000000
3.262227 0.403108 0.549027 56.000000
3.264430 0.393216 0.549182 48.000000
3.261696 0.382738 0.548562 49.000000
3.255984 0.371946 0.547478 45.000000
3.257109 0.361955 0.547478 70.000000
3.258204 0.351960 0.547478 56.000000
3.256321 0.341654 0.547014 66.000000
3.257354 0.331662 0.547014 50.000000
3.259340 0.321764 0.547168 69.000000
3.258345 0.311575 0.546859 56.000000
3.262237 0.301850 0.547323 46.000000
3.263147 0.291840 0.547323 47.000000
3.258121 0.281318 0.546394 50.000000
3.258969 0.271321 0.546394 37.000000
3.261755 0.261479 0.546704 53.000000
3.260573 0.251319 0.546394 37.000000
3.266254 0.241679 0.547168 58.000000
3.264024 0.231448 0.546704 54.000000
3.263733 0.221366 0.546549 60.000000
3.267354 0.211543 0.547014 76.000000
3.265030 0.201336 0.546549 57.000000
3.260701 0.191030 0.545775 60.000000
3.260285 0.180970 0.545620 52.000000
3.253919 0.170606 0.544535 67.000000
3.252454 0.160525 0.544226 65.000000
3.249970 0.150409 0.543761 64.000000
3.244494 0.140183 0.542832 65.000000
3.241948 0.130110 0.542367 63.000000
3.244306 0.120236 0.542677 65.000000
3.248609 0.110415 0.543296 76.000000
3.253870 0.100600 0.544071 66.000000
3.254163 0.090617 0.544071 52.000000
3.255414 0.080658 0.544226 58.000000
3.247267 0.040592 0.542832 74.000000
3.248443 0.020673 0.542987 49.000000
3.247504 0.010704 0.542832 57.000000
3.247521 0.000740 0.542832 48.000000
3.243556 -0.009211 0.542212 53.000000
3.241537 -0.019150 0.541902 57.000000
3.244427 -0.029122 0.542367 62.000000
3.244322 -0.039076 0.542367 63.000000
3.249126 -0.049104 0.543142 41.000000
3.245009 -0.059000 0.542522 69.000000
3.240862 -0.068871 0.541902 56.000000
3.241623 -0.078837 0.542057 54.000000
3.247930 -0.128866 0.543296 51.000000
3.254428 -0.139126 0.544381 42.000000
3.252012 -0.149019 0.544071 63.000000
3.253513 -0.159092 0.544381 47.000000
3.248077 -0.168816 0.543606 49.000000
3.247544 -0.178781 0.543606 58.000000
3.243035 -0.188513 0.542987 55.000000
3.242441 -0.198462 0.542987 57.000000
3.240831 -0.208345 0.542832 61.000000
3.239191 -0.218220 0.542677 58.000000
3.234564 -0.227879 0.542057 44.000000
3.236806 -0.238019 0.542522 55.000000
3.235610 -0.277891 0.542832 52.000000
3.229822 -0.287378 0.542057 36.000000
3.236795 -0.298011 0.543296 41.000000
3.244717 -0.308783 0.544690 24.000000
3.251620 -0.319510 0.545929 5.000000
3.268611 0.526567 0.512170 30.000000
3.279009 0.517929 0.513456 40.000000
3.275693 0.507108 0.512741 43.000000
3.274298 0.496610 0.512313 51.000000
3.274827 0.486416 0.512170 46.000000
3.271407 0.475653 0.511455 61.000000
3.266972 0.464776 0.510597 53.000000
3.267402 0.454614 0.510454 50.000000
3.263878 0.443919 0.509739 60.000000
3.268168 0.434295 0.510168 40.000000
3.270467 0.424394 0.510311 52.000000
3.267826 0.413860 0.509739 47.000000
3.271044 0.404076 0.510025 55.000000
3.267888 0.363028 0.508881 64.000000
3.264066 0.352467 0.508166 52.000000
3.266117 0.342555 0.508309 54.000000
3.265183 0.332332 0.508023 65.000000
3.266187 0.322313 0.508023 57.000000
3.267161 0.312291 0.508023 57.000000
3.268103 0.302266 0.508023 53.000000
3.269015 0.292238 0.508023 55.000000
3.264966 0.281780 0.507308 54.000000
3.267788 0.271927 0.507594 57.000000
3.266634 0.261742 0.507308 49.000000
3.263474 0.251413 0.506737 53.000000
3.267192 0.241620 0.507165 55.000000
3.265573 0.191184 0.506451 65.000000
3.266145 0.181165 0.506451 68.000000
3.262731 0.170935 0.505879 68.000000
3.267194 0.161120 0.506451 46.000000
3.266685 0.151050 0.506308 66.000000
3.263178 0.140855 0.505736 47.000000
3.259639 0.130683 0.505164 57.000000
3.260024 0.120682 0.505164 64.000000
3.258401 0.110612 0.504878 57.000000
3.260704 0.100677 0.505164 42.000000
3.255061 0.090505 0.504306 45.000000
3.252355 0.080444 0.503877 52.000000
3.255077 0.040552 0.504163 52.000000
3.250237 0.030517 0.503448 52.000000
3.256254 0.020585 0.504306 49.000000
3.256302 0.010595 0.504306 41.000000
3.256319 0.000605 0.504306 41.000000
3.256305 -0.009386 0.504306 50.000000
3.255271 -0.019370 0.504163 44.000000
3.256186 -0.029366 0.504306 52.000000
3.256081 -0.039355 0.504306 46.000000
3.254956 -0.049330 0.504163 42.000000
3.249841 -0.059228 0.503448 37.000000
3.252613 -0.069260 0.503877 52.000000
3.250406 -0.079191 0.503591 40.000000
3.250148 -0.089163 0.503591 61.000000
3.246891 -0.099044 0.503162 64.000000
3.245582 -0.108972 0.503019 62.000000
3.245233 -0.118929 0.503019 46.000000
3.241886 -0.128768 0.502590 66.000000
3.245431 -0.138881 0.503162 55.000000
3.251910 -0.149152 0.504163 41.000000
3.253415 -0.159224 0.504449 45.000000
3.259830 -0.169562 0.505450 46.000000
3.257318 -0.179454 0.505164 44.000000
3.251811 -0.189161 0.504449 45.000000
3.254179 -0.199317 0.504878 41.000000
3.244663 -0.208731 0.503591 38.000000
3.242033 -0.218552 0.503305 46.000000
3.236411 -0.228151 0.502590 47.000000
3.232734 -0.237863 0.502161 39.000000
3.234950 -0.248005 0.502590 44.000000
3.236146 -0.258085 0.502876 54.000000
3.239285 -0.268338 0.503448 32.000000
3.240419 -0.278443 0.503734 29.000000
3.245465 -0.288908 0.504592 24.000000
3.237664 -0.298231 0.503591 39.000000
3.267278 -0.311059 0.508023 9.000000
3.273076 0.527400 0.472324 31.000000
3.281533 0.518438 0.473241 30.000000
3.277230 0.507458 0.472455 44.000000
3.281712 0.497847 0.472848 42.000000
3.285185 0.488068 0.473110 38.000000
3.285686 0.477844 0.472979 41.000000
3.287137 0.467762 0.472979 44.000000
3.287575 0.457538 0.472848 29.000000
3.283068 0.446649 0.472062 28.000000
3.280493 0.436052 0.471538 37.000000
3.276899 0.425348 0.470883 38.000000
3.276222 0.415044 0.470621 41.000000
3.277479 0.404991 0.470621 35.000000
3.275753 0.394578 0.470227 35.000000
3.279903 0.384873 0.470621 34.000000
3.278113 0.374471 0.470227 41.000000
3.277276 0.364193 0.469965 51.000000
3.277392 0.354031 0.469834 37.000000
3.271561 0.343251 0.468917 58.000000
3.277530 0.333714 0.469572 44.000000
3.276565 0.323462 0.469310 40.000000
3.273595 0.313032 0.468786 51.000000
3.284411 0.303899 0.470096 39.000000
3.285328 0.293821 0.470096 46.000000
3.283251 0.283485 0.469703 47.000000
3.291021 0.273986 0.470621 47.000000
3.282952 0.263176 0.469441 39.000000
3.285721 0.253255 0.469703 51.000000
3.288460 0.243319 0.469965 40.000000
3.277324 0.232389 0.468393 39.000000
3.275054 0.222133 0.468000 64.000000
3.272752 0.211892 0.467607 45.000000
3.272397 0.201789 0.467475 44.000000
3.271022 0.191633 0.467213 64.000000
3.273574 0.181707 0.467475 44.000000
3.272136 0.171559 0.467213 56.000000
3.272647 0.161519 0.467213 53.000000
3.271147 0.151387 0.466951 48.000000
3.270605 0.141308 0.466820 55.000000
3.268052 0.131154 0.466427 61.000000
3.268439 0.121127 0.466427 68.000000
3.268795 0.111099 0.466427 62.000000
3.270111 0.101101 0.466558 56.000000
3.272388 0.091123 0.466820 47.000000
3.272652 0.081083 0.466820 56.000000
3.264479 0.040806 0.465641 69.000000
3.262606 0.030772 0.465379 74.000000
3.263677 0.020768 0.465510 81.000000
3.270664 0.010777 0.466427 81.000000
3.273656 0.000743 0.466820 99.000000
3.270669 -0.009291 0.466427 63.000000
3.267651 -0.019308 0.466034 49.000000
3.266585 -0.029324 0.465903 55.000000
3.267471 -0.039357 0.466034 69.000000
3.272292 -0.049457 0.466689 59.000000
3.266177 -0.059387 0.465903 37.000000
3.263997 -0.069365 0.465641 69.000000
3.260796 -0.079306 0.465248 51.000000
3.247308 -0.128841 0.463675 76.000000
3.246898 -0.138803 0.463675 61.000000
3.244476 -0.148673 0.463413 53.000000
3.243015 -0.158578 0.463282 48.000000
3.247463 -0.168784 0.463937 54.000000
3.247920 -0.178801 0.464068 57.000000
3.247356 -0.188765 0.464068 55.000000
3.251709 -0.199030 0.464724 64.000000
3.249104 -0.208878 0.464461 49.000000
3.253394 -0.219179 0.465117 56.000000
3.258640 -0.229578 0.465903 60.000000
3.260886 -0.239793 0.466296 55.000000
3.261649 -0.280130 0.466820 61.000000
3.262749 -0.290312 0.467082 36.000000
3.259869 -0.300138 0.466820 34.000000
3.265841 -0.310796 0.467738 11.000000
3.309170 0.327151 0.432576 37.000000
3.354634 0.321272 0.437928 29.000000
3.328911 0.308495 0.434717 42.000000
3.348631 0.299971 0.436977 43.000000
3.349535 0.289696 0.436977 41.000000
3.374155 0.281407 0.439831 36.000000
3.353229 0.269298 0.437214 49.000000
3.347110 0.258471 0.436382 46.000000
3.339966 0.247611 0.435430 51.000000
3.306698 0.194183 0.431030 50.000000
3.294390 0.183315 0.429484 63.000000
3.290971 0.172998 0.429009 62.000000
3.339087 0.165273 0.434717 37.000000
3.288003 0.152616 0.428533 58.000000
3.323174 0.144045 0.432695 40.000000
3.291854 0.132559 0.428890 51.000000
3.288276 0.122310 0.428414 53.000000
3.290621 0.112290 0.428652 51.000000
3.277056 0.101757 0.426987 47.000000
3.272390 0.091562 0.426392 62.000000
3.290522 0.081974 0.428533 42.000000
3.272417 0.041343 0.426273 57.000000
3.278486 0.031362 0.426987 52.000000
3.330196 0.021658 0.433171 31.000000
3.269680 0.011211 0.425917 53.000000
3.288565 0.001193 0.428176 56.000000
3.299475 -0.008921 0.429484 40.000000
3.284539 -0.018963 0.427700 44.000000
3.293401 -0.029116 0.428771 44.000000
3.289324 -0.039174 0.428295 45.000000
3.297131 -0.049381 0.429246 37.000000
3.291008 -0.059391 0.428533 46.000000
3.289817 -0.069467 0.428414 26.000000
3.275692 -0.079228 0.426749 50.000000
3.274441 -0.089251 0.426630 41.000000
3.274152 -0.099296 0.426630 50.000000
3.276809 -0.109439 0.426987 43.000000
3.268519 -0.119205 0.426036 44.000000
3.268138 -0.129232 0.426036 39.000000
3.273678 -0.139510 0.426749 38.000000
3.270260 -0.149418 0.426392 61.000000
3.266811 -0.159306 0.426036 44.000000
3.262340 -0.169124 0.425560 48.000000
3.263789 -0.179240 0.425798 39.000000
3.262232 -0.189195 0.425679 50.000000
3.266592 -0.199503 0.426273 58.000000
3.262991 -0.209334 0.425917 53.000000
3.264315 -0.219477 0.426154 50.000000
3.271550 -0.230045 0.427106 22.000000
3.268849 -0.239936 0.426868 45.000000
3.263147 -0.249587 0.426273 36.000000
3.265336 -0.259832 0.426630 32.000000
3.263533 -0.269767 0.426511 36.000000
3.264669 -0.279947 0.426749 32.000000
3.270718 -0.290574 0.427582 24.000000
3.257946 -0.299521 0.426154 40.000000
3.541451 0.328273 0.416461 11.000000
3.587006 0.321394 0.421266 42.000000
3.590947 0.310645 0.421587 50.000000
3.594856 0.299874 0.421907 51.000000
3.597741 0.289003 0.422121 62.000000
3.598611 0.277964 0.422121 62.000000
3.597464 0.266775 0.421907 53.000000
3.602232 0.256019 0.422334 39.000000
3.606969 0.245235 0.422761 37.000000
3.610681 0.234361 0.423082 40.000000
3.616345 0.223589 0.423616 45.000000
3.627932 0.213133 0.424790 55.000000
3.648424 0.203105 0.426926 89.000000
3.648037 0.191859 0.426819 55.000000
3.650594 0.180764 0.427033 75.000000
3.649145 0.169471 0.426819 69.000000
3.667528 0.159049 0.428741 19.000000
3.668993 0.147836 0.428848 12.000000
3.656512 0.136099 0.427460 15.000000
3.651944 0.124712 0.426926 23.000000
3.638396 0.113076 0.425431 40.000000
3.636738 0.101858 0.425217 22.000000
3.620136 0.090280 0.423402 27.000000
3.618407 0.079130 0.423188 24.000000
3.612669 0.067917 0.422548 45.000000
3.611866 0.056818 0.422441 33.000000
3.607052 0.045674 0.421907 21.000000
3.606181 0.034598 0.421800 33.000000
3.597322 0.023477 0.420839 21.000000
3.578486 0.012377 0.418810 12.000000
3.563593 0.001394 0.417208 8.000000
3.585454 -0.009600 0.419558 28.000000
3.581431 -0.020576 0.419131 34.000000
3.601236 -0.031741 0.421266 44.000000
3.635919 -0.043207 0.425004 68.000000
3.611909 -0.054002 0.422441 61.000000
3.553074 -0.064020 0.416141 34.000000
3.592623 -0.075763 0.420412 58.000000
3.549632 -0.085748 0.415820 40.000000
3.521523 -0.095877 0.412830 31.000000
3.519224 -0.106620 0.412617 40.000000
3.521862 -0.117516 0.412937 38.000000
3.517510 -0.128175 0.412510 39.000000
3.547899 -0.140186 0.415820 68.000000
3.509704 -0.149459 0.411762 43.000000
3.496317 -0.159635 0.410374 32.000000
3.522624 -0.171670 0.413257 15.000000
3.591323 0.321167 0.378686 15.000000
3.605184 0.311265 0.379920 23.000000
3.621002 0.301447 0.381345 47.000000
3.605042 0.288979 0.379730 72.000000
3.607896 0.278071 0.379920 66.000000
3.614689 0.267443 0.380490 52.000000
3.612513 0.256140 0.380205 68.000000
3.617254 0.245327 0.380585 77.000000
3.616997 0.234163 0.380490 51.000000
3.623660 0.223435 0.381060 72.000000
3.627310 0.212492 0.381345 76.000000
3.628938 0.201418 0.381440 76.000000
3.629539 0.190284 0.381440 74.000000
3.625134 0.178901 0.380965 117.000000
3.626661 0.167824 0.381060 101.000000
3.626164 0.156654 0.380965 61.000000
3.634585 0.145850 0.381725 54.000000
3.649937 0.135256 0.383150 19.000000
3.646355 0.123921 0.382770 20.000000
3.626818 0.112112 0.380870 7.000000
3.621175 0.100817 0.380300 11.000000
3.597583 0.089107 0.378021 12.000000
3.562011 0.077281 0.374602 13.000000
3.551283 0.066145 0.373557 11.000000
3.554455 0.055297 0.373842 11.000000
3.549631 0.044328 0.373367 8.000000
3.572732 0.022700 0.375551 16.000000
3.610613 0.011875 0.379161 47.000000
3.634523 0.000811 0.381440 88.000000
3.617586 -0.010297 0.379825 32.000000
3.613555 -0.021373 0.379446 47.000000
3.619446 -0.032511 0.380015 107.000000
3.618334 -0.043604 0.379920 90.000000
3.624155 -0.054793 0.380490 46.000000
3.619988 -0.065840 0.380110 94.000000
3.621760 -0.076987 0.380300 59.000000
3.624492 -0.088170 0.380585 63.000000
3.624204 -0.099289 0.380585 60.000000
3.621893 -0.110348 0.380395 50.000000
3.621537 -0.121459 0.380395 38.000000
3.624132 -0.132678 0.380680 54.000000
3.622713 -0.143756 0.380585 35.000000
3.610320 -0.154364 0.379446 27.000000
3.624747 -0.166118 0.380870 42.000000
3.600356 -0.176079 0.378591 15.000000
3.608145 0.300981 0.334455 12.000000
3.647794 0.293018 0.337671 23.000000
3.657619 0.282515 0.338413 25.000000
3.645548 0.270336 0.337341 57.000000
3.644372 0.259009 0.337176 68.000000
3.631229 0.246882 0.336022 42.000000
3.632964 0.235805 0.336104 65.000000
3.630686 0.224474 0.335857 81.000000
3.624393 0.212926 0.335280 69.000000
3.623039 0.201695 0.335115 62.000000
3.614684 0.190108 0.334373 58.000000
3.614255 0.178968 0.334290 68.000000
3.614787 0.167879 0.334290 113.000000
3.614289 0.156745 0.334208 44.000000
3.617741 0.145776 0.334455 42.000000
3.611200 0.134418 0.333878 25.000000
3.627531 0.123881 0.335197 23.000000
3.625902 0.112689 0.335032 43.000000
3.655121 0.102371 0.337424 88.000000
3.630510 0.090538 0.335362 41.000000
3.628778 0.079356 0.335197 46.000000
3.630997 0.068260 0.335362 54.000000
3.624214 0.057011 0.334785 107.000000
3.626365 0.045917 0.334950 96.000000
3.619513 0.034725 0.334373 49.000000
3.613623 0.023582 0.333878 103.000000
3.602716 0.012458 0.332971 43.000000
3.599748 0.001404 0.332723 36.000000
3.603721 -0.009651 0.333053 67.000000
3.600685 -0.020689 0.332806 41.000000
3.610570 -0.031825 0.333630 97.000000
3.614442 -0.042949 0.333960 79.000000
3.625254 -0.054203 0.334867 91.000000
3.624074 -0.065307 0.334785 50.000000
3.626846 -0.076489 0.335032 59.000000
3.637554 -0.087881 0.335939 72.000000
3.633282 -0.098932 0.335609 31.000000
3.637942 -0.110229 0.336022 37.000000
3.645555 -0.121657 0.336681 51.000000
3.648152 -0.132950 0.336929 51.000000
3.625820 -0.143273 0.335115 25.000000
3.593501 -0.153036 0.332476 7.000000
3.655076 0.280444 0.294618 29.000000
3.641993 0.268199 0.293629 34.000000
3.642798 0.257025 0.293629 50.000000
3.639589 0.245578 0.293347 71.000000
3.629375 0.233702 0.292570 45.000000
3.619124 0.221891 0.291793 42.000000
3.616800 0.210612 0.291581 56.000000
3.608465 0.199017 0.290945 48.000000
3.603082 0.187633 0.290522 70.000000
3.593678 0.176086 0.289815 84.000000
3.583241 0.164553 0.289038 37.000000
3.578745 0.153344 0.288685 37.000000
3.564249 0.141764 0.287626 76.000000
3.566660 0.130902 0.287767 56.000000
3.556079 0.119587 0.286990 93.000000
3.574376 0.109231 0.288261 58.000000
3.575691 0.098292 0.288332 64.000000
3.569993 0.087174 0.287908 68.000000
3.578221 0.076394 0.288473 88.000000
3.576444 0.065378 0.288332 91.000000
3.581615 0.054483 0.288685 59.000000
3.581765 0.043495 0.288685 45.000000
3.574899 0.032440 0.288191 48.000000
3.567002 0.021422 0.287626 47.000000
3.553086 0.010433 0.286637 58.000000
3.562079 -0.000466 0.287273 47.000000
3.565053 -0.011403 0.287485 29.000000
3.569989 -0.022370 0.287838 34.000000
3.593843 -0.033538 0.289533 77.000000
3.592726 -0.044552 0.289462 41.000000
3.599554 -0.055680 0.289956 94.000000
3.623302 -0.067159 0.291651 53.000000
3.626071 -0.078338 0.291863 50.000000
3.630799 -0.089584 0.292217 53.000000
3.633499 -0.100805 0.292428 31.000000
3.634169 -0.111982 0.292499 33.000000
3.629821 -0.122997 0.292217 25.000000
3.631937 0.268693 0.247162 34.000000
3.644694 0.258395 0.247859 62.000000
3.629533 0.246133 0.246930 36.000000
3.628279 0.234868 0.246814 39.000000
3.614036 0.222816 0.245943 37.000000
3.604736 0.211144 0.245362 23.000000
3.601380 0.199863 0.245129 32.000000
3.577052 0.187510 0.243677 34.000000
3.563651 0.175847 0.242864 47.000000
3.550213 0.164269 0.242051 56.000000
3.547708 0.153247 0.241876 56.000000
3.561129 0.142881 0.242632 27.000000
3.544590 0.131329 0.241644 37.000000
3.553957 0.120758 0.242167 67.000000
3.563291 0.110130 0.242690 37.000000
3.565608 0.099253 0.242806 41.000000
3.571884 0.088461 0.243154 42.000000
3.574134 0.077545 0.243271 35.000000
3.578348 0.066654 0.243503 32.000000
3.574543 0.055613 0.243271 50.000000
3.566711 0.044548 0.242806 51.000000
3.564834 0.033586 0.242690 37.000000
3.562924 0.022637 0.242573 33.000000
3.553992 0.011677 0.242051 39.000000
3.556008 0.000774 0.242167 51.000000
