ply
format ascii 1.0
element vertex 1280
property float x
property float y
property float z
property float intensity
end_header
3.037634 0.702273 0.484290 47.000000
3.033020 0.691408 0.483289 36.000000
3.041887 0.683621 0.484290 53.000000
3.046868 0.674928 0.484718 45.000000
3.045057 0.664732 0.484147 35.000000
3.053855 0.656846 0.485147 41.000000
3.053919 0.647063 0.484861 41.000000
3.055890 0.637690 0.484861 43.000000
3.061709 0.629110 0.485433 45.000000
3.057805 0.618535 0.484576 37.000000
3.059688 0.609150 0.484576 49.000000
3.058629 0.599189 0.484147 51.000000
3.057538 0.589239 0.483718 42.000000
3.058359 0.579671 0.483575 46.000000
3.058177 0.569922 0.483289 41.000000
3.056991 0.560001 0.482860 56.000000
3.060642 0.550971 0.483146 47.000000
3.060369 0.541233 0.482860 50.000000
3.062015 0.531842 0.482860 40.000000
3.067535 0.523112 0.483432 45.000000
3.068149 0.513535 0.483289 50.000000
3.071664 0.504441 0.483575 41.000000
3.076128 0.495488 0.484004 63.000000
3.079589 0.486358 0.484290 54.000000
3.083022 0.477211 0.484576 37.000000
3.088386 0.468345 0.485147 43.000000
3.085892 0.458285 0.484576 45.000000
3.091201 0.449386 0.485147 35.000000
3.097465 0.440599 0.485862 33.000000
3.092921 0.430274 0.485004 53.000000
3.092265 0.420515 0.484718 54.000000
3.095502 0.411288 0.485004 45.000000
3.093805 0.401406 0.484576 48.000000
3.097968 0.392287 0.485004 41.000000
3.099156 0.382780 0.485004 39.000000
3.093438 0.372440 0.484004 49.000000
3.094566 0.362947 0.484004 45.000000
3.096649 0.353564 0.484147 45.000000
3.094768 0.343733 0.483718 51.000000
3.093840 0.334024 0.483432 41.000000
3.096819 0.324738 0.483718 44.000000
3.097800 0.315235 0.483718 38.000000
3.100723 0.305925 0.484004 46.000000
3.103617 0.296600 0.484290 50.000000
3.103527 0.286985 0.484147 34.000000
3.104393 0.277462 0.484147 46.000000
3.108187 0.268193 0.484576 52.000000
3.110968 0.258821 0.484861 50.000000
3.110761 0.249196 0.484718 42.000000
3.113484 0.239804 0.485004 48.000000
3.114206 0.230251 0.485004 52.000000
3.115885 0.220766 0.485147 51.000000
3.118522 0.211340 0.485433 48.000000
3.117181 0.201643 0.485147 38.000000
3.113833 0.191834 0.484576 48.000000
3.117371 0.182454 0.485004 39.000000
3.121869 0.173110 0.485576 36.000000
3.125350 0.163688 0.486005 28.000000
3.132757 0.154443 0.487006 55.000000
3.135194 0.144923 0.487292 56.000000
3.139579 0.135476 0.487864 29.000000
3.146902 0.126123 0.488865 38.000000
3.144307 0.116357 0.488436 39.000000
3.144649 0.106710 0.488436 29.000000
3.141994 0.096969 0.488007 39.000000
3.139309 0.087245 0.487578 27.000000
3.140551 0.077638 0.487721 25.000000
3.139785 0.067981 0.487578 23.000000
3.036327 0.751417 0.447557 32.000000
3.041507 0.742804 0.447950 29.000000
3.046663 0.734165 0.448343 47.000000
3.047937 0.724586 0.448212 55.000000
3.052076 0.715684 0.448474 49.000000
3.053291 0.706094 0.448343 57.000000
3.056410 0.696943 0.448474 42.000000
3.053697 0.686476 0.447819 69.000000
3.056757 0.677319 0.447950 48.000000
3.055915 0.667304 0.447557 49.000000
3.055102 0.647513 0.446901 54.000000
3.055134 0.637732 0.446639 41.000000
3.056105 0.628157 0.446508 55.000000
3.058017 0.618778 0.446508 60.000000
3.055040 0.608425 0.445853 56.000000
3.054946 0.598669 0.445591 55.000000
3.060663 0.590044 0.446115 69.000000
3.061484 0.580466 0.445984 48.000000
3.068124 0.571979 0.446639 63.000000
3.067914 0.562206 0.446377 55.000000
3.065721 0.552089 0.445853 65.000000
3.069353 0.543026 0.446115 55.000000
3.069052 0.533268 0.445853 47.000000
3.066764 0.523183 0.445329 44.000000
3.096458 0.469766 0.448081 56.000000
3.096904 0.460118 0.447950 68.000000
3.098301 0.450615 0.447950 60.000000
3.099669 0.441107 0.447950 50.000000
3.099044 0.431322 0.447688 36.000000
3.098388 0.421545 0.447426 45.000000
3.100650 0.412168 0.447557 46.000000
3.100916 0.402526 0.447426 50.000000
3.103120 0.393135 0.447557 60.000000
3.100376 0.383127 0.447032 42.000000
3.098584 0.373258 0.446639 48.000000
3.103653 0.364212 0.447163 53.000000
3.104756 0.354688 0.447163 61.000000
3.107859 0.335738 0.447295 51.000000
3.108875 0.326201 0.447295 47.000000
3.111833 0.316862 0.447557 51.000000
3.110818 0.307120 0.447295 38.000000
3.107798 0.297197 0.446770 47.000000
3.108695 0.287661 0.446770 54.000000
3.106601 0.277858 0.446377 51.000000
3.108426 0.268411 0.446508 35.000000
3.110223 0.258955 0.446639 47.000000
3.112979 0.249570 0.446901 46.000000
3.117684 0.240323 0.447426 49.000000
3.119395 0.230830 0.447557 56.000000
3.122067 0.221399 0.447819 60.000000
3.123720 0.211886 0.447950 49.000000
3.126334 0.202430 0.448212 57.000000
3.124961 0.192715 0.447950 49.000000
3.125538 0.183127 0.447950 52.000000
3.130044 0.173757 0.448474 54.000000
3.129573 0.164101 0.448343 47.000000
3.128081 0.154401 0.448081 48.000000
3.130521 0.144895 0.448343 55.000000
3.130951 0.135290 0.448343 55.000000
3.136304 0.125882 0.448998 42.000000
3.131722 0.116077 0.448343 48.000000
3.136027 0.106602 0.448867 44.000000
3.138320 0.097042 0.449129 36.000000
3.146532 0.087633 0.450177 18.000000
3.147777 0.078003 0.450309 7.000000
3.040030 0.772526 0.409981 41.000000
3.041422 0.762954 0.409862 52.000000
3.042785 0.753380 0.409743 55.000000
3.045082 0.744041 0.409743 47.000000
3.048316 0.734929 0.409862 38.000000
3.048624 0.725113 0.409624 44.000000
3.050834 0.715756 0.409624 50.000000
3.051082 0.705945 0.409386 56.000000
3.051297 0.696139 0.409148 71.000000
3.051481 0.686338 0.408910 64.000000
3.053572 0.676973 0.408910 70.000000
3.053695 0.667176 0.408673 73.000000
3.054757 0.657595 0.408554 53.000000
3.053846 0.647601 0.408197 55.000000
3.052903 0.637619 0.407840 64.000000
3.053873 0.628050 0.407721 54.000000
3.054812 0.618480 0.407602 52.000000
3.054748 0.608716 0.407364 52.000000
3.053678 0.598768 0.407008 58.000000
3.057451 0.589773 0.407246 55.000000
3.060221 0.580576 0.407364 46.000000
3.064916 0.571731 0.407721 64.000000
3.069585 0.562864 0.408078 50.000000
3.071297 0.553444 0.408078 52.000000
3.075914 0.544539 0.408435 61.000000
3.083439 0.536123 0.409148 36.000000
3.079197 0.525656 0.408435 52.000000
3.080795 0.516206 0.408435 58.000000
3.078446 0.506106 0.407959 63.000000
3.075083 0.495867 0.407364 64.000000
3.075609 0.486275 0.407246 62.000000
3.076106 0.476685 0.407127 54.000000
3.074609 0.466797 0.406770 55.000000
3.077991 0.457655 0.407008 48.000000
3.082327 0.448640 0.407364 65.000000
3.085655 0.439462 0.407602 52.000000
3.085022 0.429718 0.407364 53.000000
3.089277 0.420655 0.407721 52.000000
3.090554 0.411175 0.407721 47.000000
3.093770 0.401948 0.407959 58.000000
3.093018 0.392204 0.407721 60.000000
3.091251 0.382346 0.407364 40.000000
3.091424 0.372741 0.407246 58.000000
3.097483 0.363836 0.407840 58.000000
3.101544 0.354671 0.408197 72.000000
3.104591 0.345374 0.408435 57.000000
3.108598 0.336169 0.408792 59.000000
3.113564 0.327047 0.409267 58.000000
3.112577 0.317291 0.409029 58.000000
3.113536 0.307740 0.409029 49.000000
3.109523 0.297711 0.408435 67.000000
3.110422 0.288170 0.408435 56.000000
3.113270 0.278804 0.408673 67.000000
3.116088 0.269423 0.408910 65.000000
3.114922 0.259696 0.408673 43.000000
3.119663 0.250458 0.409148 59.000000
3.117446 0.240655 0.408792 50.000000
3.119160 0.231164 0.408910 54.000000
3.116884 0.221381 0.408554 58.000000
3.119529 0.211953 0.408792 59.000000
3.126109 0.202769 0.409505 45.000000
3.126717 0.193177 0.409505 51.000000
3.130268 0.183760 0.409862 53.000000
3.136765 0.174488 0.410575 65.000000
3.131337 0.164549 0.409862 48.000000
3.132819 0.154991 0.409981 44.000000
3.132288 0.145332 0.409862 44.000000
3.126767 0.135462 0.409148 39.000000
3.133121 0.126110 0.409862 51.000000
3.127539 0.116274 0.409148 33.000000
3.108035 0.105994 0.406770 11.000000
3.033125 0.800756 0.371398 34.000000
3.035567 0.791447 0.371398 42.000000
3.039907 0.782626 0.371611 29.000000
3.042294 0.773296 0.371611 52.000000
3.043688 0.763717 0.371505 42.000000
3.046016 0.754375 0.371505 54.000000
3.050248 0.745499 0.371718 45.000000
3.055421 0.736836 0.372039 71.000000
3.054765 0.726769 0.371718 50.000000
3.056980 0.717393 0.371718 58.000000
3.059167 0.708011 0.371718 52.000000
3.060355 0.698401 0.371611 60.000000
3.061513 0.688791 0.371505 64.000000
3.062641 0.679180 0.371398 58.000000
3.062768 0.669356 0.371184 51.000000
3.063835 0.659748 0.371078 69.000000
3.062927 0.649726 0.370757 73.000000
3.060039 0.639310 0.370223 52.000000
3.060006 0.619733 0.369796 54.000000
3.058968 0.609759 0.369476 49.000000
3.061800 0.600563 0.369583 59.000000
3.063628 0.591167 0.369583 64.000000
3.065427 0.581765 0.369583 56.000000
3.071107 0.573087 0.370010 41.000000
3.074807 0.564020 0.370223 52.000000
3.077502 0.554761 0.370330 65.000000
3.082126 0.545836 0.370650 53.000000
3.084766 0.536548 0.370757 71.000000
3.088358 0.527416 0.370971 47.000000
3.082797 0.468242 0.369369 59.000000
3.084219 0.458782 0.369369 55.000000
3.083644 0.449032 0.369155 65.000000
3.084023 0.439429 0.369049 69.000000
3.086341 0.430102 0.369155 55.000000
3.088632 0.420766 0.369262 63.000000
3.091879 0.411550 0.369476 54.000000
3.098057 0.402702 0.370010 48.000000
3.097305 0.392946 0.369796 43.000000
3.101457 0.383808 0.370116 75.000000
3.102620 0.374291 0.370116 62.000000
3.105728 0.365002 0.370330 74.000000
3.107821 0.355585 0.370437 64.000000
3.105933 0.345719 0.370116 56.000000
3.106979 0.336189 0.370116 63.000000
3.110962 0.326966 0.370437 57.000000
3.116897 0.317924 0.370971 59.000000
3.116868 0.308263 0.370864 72.000000
3.114830 0.298415 0.370544 62.000000
3.117711 0.289040 0.370757 57.000000
3.119573 0.279563 0.370864 43.000000
3.120416 0.269991 0.370864 52.000000
3.124202 0.260664 0.371184 70.000000
3.118050 0.250521 0.370437 44.000000
3.122769 0.241260 0.370864 63.000000
3.121511 0.231531 0.370650 40.000000
3.123199 0.222024 0.370757 52.000000
3.129817 0.212845 0.371398 55.000000
3.130455 0.203242 0.371398 61.000000
3.133049 0.193759 0.371611 46.000000
3.138592 0.184437 0.372145 64.000000
3.144106 0.175083 0.372679 36.000000
3.145622 0.165488 0.372786 44.000000
3.149094 0.155984 0.373106 57.000000
3.147571 0.146230 0.372893 51.000000
3.151978 0.136745 0.373320 42.000000
3.129533 0.126156 0.370864 6.000000
3.128261 0.106883 0.370650 8.000000
3.038364 0.771540 0.333762 64.000000
3.040716 0.762215 0.333762 52.000000
3.044973 0.753361 0.333952 67.000000
3.048237 0.744252 0.334047 54.000000
3.052441 0.735364 0.334236 39.000000
3.048872 0.724613 0.333667 61.000000
3.049143 0.714800 0.333477 50.000000
3.051322 0.705442 0.333477 55.000000
3.053472 0.696078 0.333477 62.000000
3.051708 0.685832 0.333097 77.000000
3.051854 0.676035 0.332907 97.000000
3.057804 0.667519 0.333287 75.000000
3.058864 0.657925 0.333192 67.000000
3.061842 0.648745 0.333287 53.000000
3.062844 0.639144 0.333192 60.000000
3.063815 0.629544 0.333097 61.000000
3.068659 0.620734 0.333382 50.000000
3.066644 0.610538 0.333002 55.000000
3.067526 0.600935 0.332907 61.000000
3.067400 0.591144 0.332717 66.000000
3.069199 0.581730 0.332717 79.000000
3.071948 0.572494 0.332812 76.000000
3.070753 0.562527 0.332527 67.000000
3.069525 0.552574 0.332242 83.000000
3.072186 0.543328 0.332337 73.000000
3.075800 0.534241 0.332527 70.000000
3.078406 0.524970 0.332622 72.000000
3.082947 0.516017 0.332907 66.000000
3.083534 0.506395 0.332812 68.000000
3.086055 0.497091 0.332907 71.000000
3.089532 0.487932 0.333097 61.000000
3.089047 0.478146 0.332907 64.000000
3.087547 0.468218 0.332622 73.000000
3.087000 0.458450 0.332432 66.000000
3.089377 0.449120 0.332527 80.000000
3.089755 0.439500 0.332432 72.000000
3.093060 0.430293 0.332622 76.000000
3.097325 0.421206 0.332907 51.000000
3.096629 0.411438 0.332717 59.000000
3.100838 0.402321 0.333002 54.000000
3.102058 0.392806 0.333002 62.000000
3.103249 0.383287 0.333002 56.000000
3.103422 0.373646 0.332907 63.000000
3.105542 0.364239 0.333002 70.000000
3.106645 0.354710 0.333002 68.000000
3.104750 0.344846 0.332717 48.000000
3.101835 0.334890 0.332337 51.000000
3.101858 0.325268 0.332242 60.000000
3.103831 0.315851 0.332337 66.000000
3.105776 0.306426 0.332432 52.000000
3.107693 0.296991 0.332527 55.000000
3.109581 0.287547 0.332622 55.000000
3.115406 0.278451 0.333097 51.000000
3.118229 0.269064 0.333287 63.000000
3.121024 0.259661 0.333477 47.000000
3.117836 0.249766 0.333097 57.000000
3.120573 0.240353 0.333287 64.000000
3.120303 0.230704 0.333192 47.000000
3.122982 0.221271 0.333382 47.000000
3.126626 0.211892 0.333667 51.000000
3.128255 0.202364 0.333762 51.000000
3.130848 0.192888 0.333952 50.000000
3.140369 0.183809 0.334806 39.000000
3.146881 0.174507 0.335376 41.000000
3.140443 0.164484 0.334711 52.000000
3.151870 0.155392 0.335756 46.000000
3.489434 0.161430 0.367953 21.000000
3.527705 0.152369 0.371562 10.000000
3.447588 0.138286 0.363869 7.000000
3.034867 0.841185 0.295451 51.000000
3.035511 0.831344 0.295286 52.000000
3.035161 0.821247 0.295039 35.000000
3.034778 0.811160 0.294792 49.000000
3.035325 0.801337 0.294627 43.000000
3.033911 0.791016 0.294297 72.000000
3.035359 0.781456 0.294214 44.000000
3.035810 0.771649 0.294049 61.000000
3.036230 0.761847 0.293885 66.000000
3.039521 0.752767 0.293967 61.000000
3.040848 0.743202 0.293885 55.000000
3.042145 0.733636 0.293802 63.000000
3.044381 0.724299 0.293802 52.000000
3.046589 0.714956 0.293802 68.000000
3.045855 0.704932 0.293555 52.000000
3.049947 0.696027 0.293720 81.000000
3.051095 0.686448 0.293637 69.000000
3.055133 0.677516 0.293802 82.000000
3.057197 0.668140 0.293802 79.000000
3.058258 0.658547 0.293720 90.000000
3.058315 0.648748 0.293555 94.000000
3.060290 0.639363 0.293555 64.000000
3.064190 0.630372 0.293720 81.000000
3.067086 0.621166 0.293802 89.000000
3.068977 0.611753 0.293802 98.000000
3.070840 0.602335 0.293802 81.000000
3.072673 0.592911 0.293802 100.000000
3.072520 0.583110 0.293637 79.000000
3.074294 0.573681 0.293637 103.000000
3.076040 0.564246 0.293637 104.000000
3.075795 0.554453 0.293472 80.000000
3.081407 0.545709 0.293802 136.000000
3.083066 0.536253 0.293802 117.000000
3.084697 0.526792 0.293802 91.000000
3.092415 0.479413 0.293802 104.000000
3.092886 0.469773 0.293720 117.000000
3.092341 0.459989 0.293555 108.000000
3.092751 0.450357 0.293472 111.000000
3.092145 0.440585 0.293307 119.000000
3.095457 0.431371 0.293472 96.000000
3.100716 0.422410 0.293802 88.000000
3.104960 0.413289 0.294049 93.000000
3.109179 0.404147 0.294297 80.000000
3.112381 0.394857 0.294462 70.000000
3.111599 0.385062 0.294297 72.000000
3.109798 0.375156 0.294049 77.000000
3.107965 0.365265 0.293802 61.000000
3.106101 0.355388 0.293555 53.000000
3.105195 0.345637 0.293390 69.000000
3.105250 0.336002 0.293307 61.000000
3.107258 0.326577 0.293390 63.000000
3.113202 0.317548 0.293802 54.000000
3.118129 0.308387 0.294132 46.000000
3.120053 0.298914 0.294214 56.000000
3.124924 0.289708 0.294544 44.000000
3.128776 0.280386 0.294792 61.000000
3.126643 0.270529 0.294544 49.000000
3.130438 0.261183 0.294792 45.000000
3.131224 0.251578 0.294792 52.000000
3.131981 0.241970 0.294792 61.000000
3.129728 0.232140 0.294544 56.000000
3.130425 0.222537 0.294544 52.000000
3.137059 0.213336 0.295039 51.000000
3.146649 0.204291 0.295781 51.000000
3.162182 0.195557 0.297018 39.000000
3.180675 0.186905 0.298502 44.000000
3.274769 0.182343 0.306254 31.000000
3.531085 0.185720 0.327446 42.000000
3.558514 0.176214 0.329672 39.000000
3.583926 0.166449 0.331734 27.000000
3.614289 0.156745 0.334208 24.000000
3.645623 0.146897 0.336764 10.000000
3.023261 0.856084 0.257539 41.000000
3.024912 0.846535 0.257468 45.000000
3.027495 0.837251 0.257468 41.000000
3.031974 0.828485 0.257609 38.000000
3.050577 0.773518 0.257892 40.000000
3.049066 0.763186 0.257609 31.000000
3.049456 0.753348 0.257468 54.000000
3.050784 0.743753 0.257397 43.000000
3.048203 0.733221 0.257044 60.000000
3.048497 0.723405 0.256903 55.000000
3.049731 0.713821 0.256832 67.000000
3.048991 0.703787 0.256621 66.000000
3.052108 0.694651 0.256691 75.000000
3.050332 0.684409 0.256409 85.000000
3.055339 0.675695 0.256621 84.000000
3.057398 0.666318 0.256621 74.000000
3.056502 0.656306 0.256409 75.000000
3.059477 0.647132 0.256479 90.000000
3.060471 0.637539 0.256409 106.000000
3.062413 0.628147 0.256409 99.000000
3.067259 0.619342 0.256621 100.000000
3.066209 0.609344 0.256409 82.000000
3.067086 0.599743 0.256338 109.000000
3.066952 0.589952 0.256197 81.000000
3.066788 0.580169 0.256056 82.000000
3.069534 0.570940 0.256126 96.000000
3.075195 0.562239 0.256409 118.000000
3.076906 0.552802 0.256409 126.000000
3.079570 0.543533 0.256479 133.000000
3.082206 0.534254 0.256550 157.000000
3.081863 0.524460 0.256409 143.000000
3.086410 0.515496 0.256621 135.000000
3.087977 0.506025 0.256621 161.000000
3.094439 0.497342 0.256974 149.000000
3.096935 0.488001 0.257044 172.000000
3.100389 0.478803 0.257186 150.000000
3.099871 0.468990 0.257044 139.000000
3.097349 0.458891 0.256762 144.000000
3.092819 0.448525 0.256338 116.000000
3.090230 0.438473 0.256056 102.000000
3.092549 0.429127 0.256126 105.000000
3.094840 0.419772 0.256197 113.000000
3.097102 0.410406 0.256267 112.000000
3.100325 0.401159 0.256409 110.000000
3.101541 0.391646 0.256409 102.000000
3.101738 0.382006 0.256338 96.000000
3.102895 0.372489 0.256338 97.000000
3.103033 0.362851 0.256267 98.000000
3.106113 0.353556 0.256409 87.000000
3.107183 0.344025 0.256409 92.000000
3.108224 0.334490 0.256409 85.000000
3.112212 0.325265 0.256621 90.000000
3.117165 0.316119 0.256903 71.000000
3.120105 0.306751 0.257044 80.000000
3.123018 0.297367 0.257186 71.000000
3.128881 0.288243 0.257539 56.000000
3.137699 0.279353 0.258104 35.000000
3.133573 0.269297 0.257751 50.000000
3.136372 0.259847 0.257892 53.000000
3.135166 0.250064 0.257751 59.000000
3.137908 0.240598 0.257892 44.000000
3.142610 0.231264 0.258174 31.000000
3.148280 0.221974 0.258527 48.000000
3.166860 0.213529 0.259799 46.000000
3.149583 0.202653 0.258527 57.000000
3.342343 0.204832 0.272158 26.000000
3.524191 0.205189 0.285013 41.000000
3.588546 0.197912 0.289533 64.000000
3.566225 0.185701 0.287908 33.000000
3.593678 0.176086 0.289815 79.000000
3.603169 0.165475 0.290451 59.000000
3.613626 0.154850 0.291157 33.000000
3.657939 0.145521 0.294265 14.000000
3.024860 0.877953 0.218526 34.000000
3.026579 0.868393 0.218467 40.000000
3.023467 0.857470 0.218119 48.000000
3.027045 0.848460 0.218177 44.000000
3.026747 0.838370 0.218003 41.000000
3.027379 0.828553 0.217887 59.000000
3.029906 0.819261 0.217887 44.000000
3.034335 0.810477 0.218003 65.000000
3.038738 0.801673 0.218119 47.000000
3.045047 0.793353 0.218351 62.000000
3.049401 0.784504 0.218467 52.000000
3.052761 0.775391 0.218526 74.000000
3.056093 0.766264 0.218584 62.000000
3.058430 0.756884 0.218584 49.000000
3.059768 0.747261 0.218526 70.000000
3.059134 0.737169 0.218351 65.000000
3.057496 0.726857 0.218119 68.000000
3.054852 0.716334 0.217829 71.000000
3.057035 0.706959 0.217829 68.000000
3.056270 0.696911 0.217654 85.000000
3.058393 0.687531 0.217654 85.000000
3.061463 0.678361 0.217712 111.000000
3.063530 0.668966 0.217712 105.000000
3.065568 0.659564 0.217712 114.000000
3.067577 0.650155 0.217712 100.000000
3.068580 0.640537 0.217654 101.000000
3.069553 0.630919 0.217596 94.000000
3.071474 0.621499 0.217596 94.000000
3.072387 0.611878 0.217538 120.000000
3.076209 0.602833 0.217654 123.000000
3.080005 0.593770 0.217770 140.000000
3.088678 0.585619 0.218177 182.000000
3.090460 0.576140 0.218177 179.000000
3.088285 0.565937 0.217945 213.000000
3.089025 0.556283 0.217887 222.000000
3.088751 0.546455 0.217770 272.000000
3.087461 0.536464 0.217596 306.000000
3.090077 0.527157 0.217654 307.000000
3.091680 0.517675 0.217654 384.000000
3.096313 0.489198 0.217654 359.000000
3.097799 0.479696 0.217654 362.000000
3.098269 0.470040 0.217596 317.000000
3.103647 0.461119 0.217829 284.000000
3.105047 0.451595 0.217829 242.000000
3.109383 0.442488 0.218003 225.000000
3.110726 0.432947 0.218003 207.000000
3.109072 0.422998 0.217829 157.000000
3.107386 0.413063 0.217654 161.000000
3.104679 0.403014 0.217422 114.000000
3.106891 0.393613 0.217480 104.000000
3.110066 0.384324 0.217596 95.000000
3.111230 0.374780 0.217596 109.000000
3.111374 0.365117 0.217538 99.000000
3.111488 0.355457 0.217480 89.000000
3.114548 0.346129 0.217596 107.000000
3.113610 0.336358 0.217480 125.000000
3.114627 0.326804 0.217480 86.000000
3.118595 0.317550 0.217654 71.000000
3.122535 0.308275 0.217829 77.000000
3.125453 0.298883 0.217945 75.000000
3.128344 0.289477 0.218061 56.000000
3.127228 0.279700 0.217945 67.000000
3.129067 0.270191 0.218003 52.000000
3.131870 0.260755 0.218119 49.000000
3.129670 0.250906 0.217945 61.000000
3.140379 0.242069 0.218526 51.000000
3.151063 0.233169 0.219106 49.000000
3.200558 0.226955 0.221953 28.000000
3.382518 0.229409 0.232524 29.000000
3.487810 0.225790 0.238624 47.000000
3.533325 0.217848 0.241237 55.000000
3.533977 0.207007 0.241237 41.000000
3.553535 0.197213 0.242341 48.000000
3.574061 0.187353 0.243503 28.000000
3.595559 0.177418 0.244723 19.000000
3.599078 0.166525 0.244897 22.000000
3.608548 0.155869 0.245420 63.000000
3.614995 0.145037 0.245768 31.000000
3.618415 0.134056 0.245943 8.000000
3.016015 0.893585 0.181042 44.000000
3.019701 0.884609 0.181089 27.000000
3.021441 0.875062 0.181042 38.000000
3.024112 0.865788 0.181042 59.000000
3.026754 0.856507 0.181042 44.000000
3.030329 0.847486 0.181089 51.000000
3.028101 0.836853 0.180857 39.000000
3.029691 0.827295 0.180811 57.000000
3.049247 0.772617 0.181042 51.000000
3.050634 0.763016 0.180996 50.000000
3.052960 0.753653 0.180996 49.000000
3.053317 0.743809 0.180904 49.000000
3.052671 0.733737 0.180765 56.000000
3.054908 0.724368 0.180765 68.000000
3.053226 0.714081 0.180580 67.000000
3.055402 0.704710 0.180580 81.000000
3.058523 0.695555 0.180626 80.000000
3.060643 0.686168 0.180626 74.000000
3.062734 0.676775 0.180626 85.000000
3.064795 0.667376 0.180626 70.000000
3.068782 0.658390 0.180719 88.000000
3.068833 0.648558 0.180626 93.000000
3.071786 0.639344 0.180673 90.000000
3.073733 0.629917 0.180673 105.000000
3.071734 0.619692 0.180488 93.000000
3.078520 0.611240 0.180719 141.000000
3.080381 0.601792 0.180719 127.000000
3.085155 0.592905 0.180857 201.000000
3.079108 0.581950 0.180488 229.000000
3.080879 0.572501 0.180488 266.000000
3.080655 0.562687 0.180395 195.000000
3.081384 0.553056 0.180349 229.000000
3.083066 0.543600 0.180349 215.000000
3.084720 0.534138 0.180349 197.000000
3.083390 0.524169 0.180210 218.000000
3.086954 0.515036 0.180303 272.000000
3.087533 0.505401 0.180256 268.000000
3.096959 0.497196 0.180626 349.000000
3.091563 0.486603 0.180303 337.000000
3.098965 0.478032 0.180580 281.000000
3.105355 0.469270 0.180811 216.000000
3.111721 0.460474 0.181042 191.000000
3.110153 0.450494 0.180904 213.000000
3.107565 0.440388 0.180719 280.000000
3.109891 0.430990 0.180765 279.000000
3.108228 0.421043 0.180626 271.000000
3.106535 0.411111 0.180488 213.000000
3.111744 0.402092 0.180673 176.000000
3.108999 0.392042 0.180488 140.000000
3.107213 0.382135 0.180349 105.000000
3.106387 0.372362 0.180256 88.000000
3.105530 0.362597 0.180164 99.000000
3.104644 0.352842 0.180071 81.000000
3.111668 0.343976 0.180349 67.000000
3.106750 0.333785 0.180071 62.000000
3.109746 0.324461 0.180164 44.000000
3.114702 0.315322 0.180349 61.000000
3.115655 0.305765 0.180349 68.000000
3.125528 0.297059 0.180765 57.000000
3.129409 0.287744 0.180904 46.000000
3.133262 0.278408 0.181042 36.000000
3.143059 0.269566 0.181459 35.000000
3.155817 0.260914 0.182013 44.000000
3.177513 0.252903 0.182984 34.000000
3.211142 0.245680 0.184510 30.000000
3.357329 0.246559 0.191260 36.000000
3.438781 0.241964 0.195005 38.000000
3.490337 0.234850 0.197363 58.000000
3.495029 0.224398 0.197548 56.000000
3.510656 0.214593 0.198242 47.000000
3.519276 0.204288 0.198612 34.000000
3.530858 0.194096 0.199120 42.000000
3.540415 0.183732 0.199536 57.000000
3.554930 0.173556 0.200184 38.000000
3.569416 0.163292 0.200831 34.000000
3.580878 0.152813 0.201339 24.000000
3.587319 0.142065 0.201617 34.000000
3.587738 0.131059 0.201617 22.000000
3.021193 0.916659 0.142586 25.000000
3.011546 0.903654 0.142146 37.000000
3.016221 0.894978 0.142214 50.000000
3.018952 0.885721 0.142214 41.000000
3.014936 0.874506 0.141977 35.000000
3.023370 0.866905 0.142180 51.000000
3.028900 0.858442 0.142282 49.000000
3.033444 0.849685 0.142349 60.000000
3.036036 0.840374 0.142349 69.000000
3.035708 0.830265 0.142248 56.000000
3.038241 0.820948 0.142248 69.000000
3.039780 0.811365 0.142214 57.000000
3.041288 0.801781 0.142180 61.000000
3.040832 0.791691 0.142078 48.000000
3.045182 0.782856 0.142146 35.000000
3.041758 0.772035 0.141943 49.000000
3.047020 0.763428 0.142045 60.000000
3.049348 0.754076 0.142045 68.000000
3.048734 0.744007 0.141943 60.000000
3.053918 0.735352 0.142045 62.000000
3.057132 0.726210 0.142078 60.000000
3.057399 0.716371 0.142011 66.000000
3.063478 0.707888 0.142146 62.000000
3.061737 0.697598 0.142011 73.000000
3.064838 0.688420 0.142045 70.000000
3.066936 0.679014 0.142045 67.000000
3.066075 0.668963 0.141943 100.000000
3.068113 0.659553 0.141943 90.000000
3.070122 0.650137 0.141943 87.000000
3.071124 0.640511 0.141909 95.000000
3.070137 0.630484 0.141808 86.000000
3.076956 0.622051 0.141977 120.000000
3.078849 0.612608 0.141977 122.000000
3.084637 0.603927 0.142112 173.000000
3.085494 0.594272 0.142078 237.000000
3.087303 0.584803 0.142078 257.000000
3.090065 0.575511 0.142112 219.000000
3.092799 0.566208 0.142146 201.000000
3.094522 0.556717 0.142146 216.000000
3.097200 0.547394 0.142180 220.000000
3.102803 0.538573 0.142315 318.000000
3.087692 0.526199 0.141740 667.000000
3.127736 0.523149 0.143060 1831.000000
3.132285 0.514036 0.143162 2416.000000
3.133848 0.504424 0.143162 2287.000000
3.126495 0.493406 0.142857 1897.000000
3.113179 0.481522 0.142349 1569.000000
3.114642 0.471969 0.142349 580.000000
3.102234 0.460359 0.141875 307.000000
3.105610 0.451126 0.141943 246.000000
3.106979 0.441596 0.141943 244.000000
3.107330 0.431924 0.141909 267.000000
3.109631 0.422524 0.141943 277.000000
3.110912 0.412981 0.141943 318.000000
3.106217 0.402665 0.141740 199.000000
3.107438 0.393134 0.141740 191.000000
3.106646 0.383354 0.141672 132.000000
3.106815 0.373702 0.141638 102.000000
3.106954 0.364052 0.141605 91.000000
3.109050 0.354632 0.141638 90.000000
3.112110 0.345312 0.141706 82.000000
3.111167 0.335548 0.141638 70.000000
3.114170 0.326210 0.141706 117.000000
3.113168 0.316452 0.141638 87.000000
3.118102 0.307291 0.141774 57.000000
3.121020 0.297913 0.141842 47.000000
3.132867 0.289346 0.142214 45.000000
3.140708 0.280354 0.142451 44.000000
3.168438 0.273031 0.143365 36.000000
3.209101 0.266614 0.144719 24.000000
3.336428 0.266873 0.149018 32.000000
3.409976 0.262221 0.151490 46.000000
3.447643 0.254477 0.152742 47.000000
3.467349 0.245236 0.153385 44.000000
3.484040 0.235674 0.153927 67.000000
3.490731 0.225370 0.154130 75.000000
3.498388 0.215088 0.154367 58.000000
3.513998 0.205227 0.154875 40.000000
3.521596 0.194830 0.155112 41.000000
3.538147 0.184858 0.155654 31.000000
3.545685 0.174345 0.155890 26.000000
3.553191 0.163788 0.156127 37.000000
3.563662 0.153314 0.156466 21.000000
3.568110 0.142540 0.156601 20.000000
3.557544 0.131188 0.156229 13.000000
3.014623 0.924586 0.104092 50.000000
3.018402 0.915623 0.104113 39.000000
3.022154 0.906646 0.104135 33.000000
3.027797 0.898224 0.104200 56.000000
3.034375 0.890058 0.104287 56.000000
3.035171 0.880187 0.104243 53.000000
3.034014 0.869768 0.104157 48.000000
3.034744 0.859909 0.104113 47.000000
3.035443 0.850055 0.104070 50.000000
3.035146 0.839937 0.104005 38.000000
3.032887 0.829301 0.103897 37.000000
3.038918 0.771119 0.103702 68.000000
3.046117 0.763009 0.103810 53.000000
3.047474 0.753419 0.103789 61.000000
3.051713 0.744541 0.103832 66.000000
3.054955 0.735409 0.103854 44.000000
3.057197 0.726033 0.103854 62.000000
3.060383 0.716879 0.103875 71.000000
3.063542 0.707712 0.103897 53.000000
3.063749 0.697865 0.103854 59.000000
3.062950 0.687804 0.103789 77.000000
3.062117 0.677754 0.103724 76.000000
3.060275 0.667503 0.103637 89.000000
3.059377 0.657480 0.103572 84.000000
3.059423 0.647676 0.103529 85.000000
3.061396 0.638287 0.103529 73.000000
3.057464 0.627683 0.103399 99.000000
3.063295 0.619093 0.103486 134.000000
3.067141 0.610083 0.103529 125.000000
3.069979 0.600863 0.103551 138.000000
3.077698 0.592578 0.103681 169.000000
3.085396 0.584251 0.103810 220.000000
3.085208 0.574416 0.103767 251.000000
3.086955 0.564948 0.103767 230.000000
3.087690 0.555297 0.103746 205.000000
3.087410 0.545473 0.103702 170.000000
3.090054 0.536170 0.103724 182.000000
3.091685 0.526687 0.103724 237.000000
3.092300 0.517034 0.103702 279.000000
3.096831 0.508031 0.103767 251.000000
3.099362 0.498687 0.103789 245.000000
3.100878 0.489176 0.103789 211.000000
3.102364 0.479661 0.103789 217.000000
3.103821 0.470140 0.103789 201.000000
3.110193 0.461351 0.103897 177.000000
3.103679 0.450655 0.103724 208.000000
3.102078 0.440708 0.103659 235.000000
3.101435 0.430913 0.103616 267.000000
3.105714 0.421800 0.103681 256.000000
3.109967 0.412666 0.103746 201.000000
3.110227 0.402994 0.103724 151.000000
3.114424 0.393827 0.103789 115.000000
3.115617 0.384270 0.103789 114.000000
3.111819 0.374111 0.103681 85.000000
3.113945 0.364679 0.103702 67.000000
3.119022 0.355579 0.103789 66.000000
3.111156 0.345013 0.103594 114.000000
3.115181 0.335789 0.103659 68.000000
3.119180 0.326544 0.103724 48.000000
3.120167 0.316973 0.103724 55.000000
3.137043 0.308972 0.104070 39.000000
3.161862 0.301634 0.104589 33.000000
3.158790 0.291563 0.104503 34.000000
3.202488 0.285706 0.105433 26.000000
3.276061 0.282169 0.107013 34.000000
3.462224 0.287571 0.111038 83.000000
3.469070 0.277428 0.111168 94.000000
3.467911 0.266630 0.111125 73.000000
3.470707 0.256137 0.111168 55.000000
3.471476 0.245488 0.111168 60.000000
3.475205 0.235040 0.111233 76.000000
3.474913 0.224312 0.111211 72.000000
3.485563 0.214267 0.111428 50.000000
3.497183 0.204217 0.111666 46.000000
3.502784 0.193765 0.111774 47.000000
3.516341 0.183700 0.112055 43.000000
3.528871 0.173504 0.112315 38.000000
3.551357 0.163697 0.112791 20.000000
3.560832 0.153190 0.112986 31.000000
3.570276 0.142627 0.113181 27.000000
3.577690 0.131933 0.113332 23.000000
3.617046 0.122287 0.114176 10.000000
3.011472 0.953645 0.065255 28.000000
3.017246 0.945298 0.065283 45.000000
3.016311 0.934854 0.065246 48.000000
3.018209 0.925302 0.065236 49.000000
3.021991 0.916328 0.065246 57.000000
3.019041 0.905330 0.065190 48.000000
3.024680 0.896916 0.065218 67.000000
3.027417 0.887632 0.065218 48.000000
3.030127 0.878340 0.065218 56.000000
3.033768 0.869315 0.065227 56.000000
3.037383 0.860276 0.065236 63.000000
3.039045 0.850684 0.065227 55.000000
3.038749 0.840557 0.065199 65.000000
3.035526 0.829649 0.065144 46.000000
3.034195 0.819290 0.065107 63.000000
3.033796 0.809204 0.065079 56.000000
3.037231 0.800148 0.065088 62.000000
3.043543 0.791832 0.065125 64.000000
3.043052 0.781745 0.065098 53.000000
3.049314 0.773388 0.065135 59.000000
3.051672 0.764030 0.065135 63.000000
3.051089 0.753944 0.065107 54.000000
3.053388 0.744580 0.065107 62.000000
3.055658 0.735209 0.065107 48.000000
3.052062 0.724446 0.065051 56.000000
3.057191 0.715762 0.065079 65.000000
3.056449 0.705705 0.065051 66.000000
3.062500 0.697212 0.065088 78.000000
3.065600 0.688032 0.065098 57.000000
3.065744 0.678192 0.065079 69.000000
3.064879 0.668145 0.065051 73.000000
3.066914 0.658739 0.065051 84.000000
3.067943 0.649120 0.065042 106.000000
3.069920 0.639704 0.065042 82.000000
3.068929 0.629680 0.065014 86.000000
3.071827 0.620460 0.065024 88.000000
3.074697 0.611228 0.065033 95.000000
3.078520 0.602175 0.065051 83.000000
3.081335 0.592916 0.065061 107.000000
3.087070 0.584203 0.065098 132.000000
3.092780 0.575461 0.065135 154.000000
3.093547 0.565790 0.065125 183.000000
3.096252 0.556473 0.065135 165.000000
3.093022 0.546103 0.065088 221.000000
3.093697 0.536440 0.065079 255.000000
3.097300 0.527282 0.065098 251.000000
3.100876 0.518106 0.065116 231.000000
3.105513 0.489545 0.065116 262.000000
3.106012 0.479862 0.065107 243.000000
3.106481 0.470181 0.065098 256.000000
3.105930 0.460355 0.065079 225.000000
3.107328 0.450824 0.065079 250.000000
3.108696 0.441289 0.065079 240.000000
3.110036 0.431750 0.065079 236.000000
3.112337 0.422341 0.065088 162.000000
3.112626 0.412659 0.065079 153.000000
3.113878 0.403107 0.065079 142.000000
3.115100 0.393552 0.065079 105.000000
3.119270 0.384360 0.065107 65.000000
3.119442 0.374669 0.065098 66.000000
3.121570 0.365213 0.065107 293.000000
3.118701 0.355183 0.065070 87.000000
3.117789 0.345393 0.065051 83.000000
3.120843 0.326360 0.065061 62.000000
3.148691 0.319506 0.065310 47.000000
3.169560 0.311800 0.065495 61.000000
3.245161 0.309179 0.066189 40.000000
3.322767 0.306279 0.066901 50.000000
3.383453 0.301400 0.067456 57.000000
3.411261 0.293329 0.067706 51.000000
3.450014 0.285997 0.068058 96.000000
3.447885 0.275172 0.068030 74.000000
3.451704 0.264822 0.068058 65.000000
3.453497 0.254305 0.068067 87.000000
3.453264 0.243638 0.068058 78.000000
3.454993 0.233110 0.068067 77.000000
3.456690 0.222573 0.068076 47.000000
3.466339 0.212517 0.068159 46.000000
3.470968 0.202113 0.068196 58.000000
3.478561 0.191848 0.068261 57.000000
3.491116 0.181798 0.068372 43.000000
3.501645 0.171575 0.068465 42.000000
3.517138 0.161517 0.068603 37.000000
3.548588 0.152050 0.068890 30.000000
3.565024 0.141796 0.069038 24.000000
3.575435 0.131224 0.069131 39.000000
3.627790 0.121996 0.069612 18.000000
3.627147 0.110835 0.069602 24.000000
3.007241 0.882088 0.025840 32.000000
3.015695 0.874531 0.025820 34.000000
3.024131 0.866931 0.025800 41.000000
3.026777 0.857649 0.025800 36.000000
3.034208 0.849709 0.025783 52.000000
3.036800 0.840396 0.025783 38.000000
3.034542 0.829755 0.025800 39.000000
3.042516 0.772034 0.025823 57.000000
3.052630 0.764643 0.025797 33.000000
3.053020 0.754793 0.025803 50.000000
3.053379 0.744948 0.025810 52.000000
3.058567 0.736280 0.025800 38.000000
3.063730 0.727587 0.025790 37.000000
3.064000 0.717728 0.025797 46.000000
3.062291 0.707422 0.025810 50.000000
3.061522 0.697357 0.025820 65.000000
3.064622 0.688180 0.025816 49.000000
3.063790 0.678125 0.025826 63.000000
3.061949 0.667869 0.025840 54.000000
3.063983 0.658472 0.025840 57.000000
3.061098 0.648031 0.025856 81.000000
3.061114 0.638228 0.025863 56.000000
3.065017 0.629236 0.025856 58.000000
3.063012 0.619036 0.025870 82.000000
3.065877 0.609832 0.025866 78.000000
3.069697 0.600808 0.025860 68.000000
3.073489 0.591766 0.025853 63.000000
3.074308 0.582147 0.025856 69.000000
3.077063 0.572896 0.025853 61.000000
3.079789 0.563634 0.025850 70.000000
3.080520 0.554005 0.025853 79.000000
3.084174 0.544900 0.025846 118.000000
3.085831 0.535435 0.025846 127.000000
3.086474 0.525797 0.025850 120.000000
3.091031 0.516822 0.025840 123.000000
3.095562 0.507823 0.025830 135.000000
3.097106 0.498323 0.025830 162.000000
3.095657 0.488351 0.025840 137.000000
3.097141 0.478851 0.025840 109.000000
3.095629 0.468896 0.025850 123.000000
3.096064 0.459250 0.025853 101.000000
3.098448 0.449893 0.025850 110.000000
3.096844 0.439962 0.025860 88.000000
3.097188 0.430321 0.025863 90.000000
3.097503 0.420682 0.025866 89.000000
3.099771 0.411309 0.025863 68.000000
3.103993 0.402184 0.025853 74.000000
3.109180 0.393162 0.025840 77.000000
3.110372 0.383621 0.025840 81.000000
3.118484 0.374915 0.025816 50.000000
3.122599 0.365696 0.025807 45.000000
3.134635 0.357365 0.025770 32.000000
3.154600 0.349847 0.025707 35.000000
3.153670 0.339952 0.025714 44.000000
3.196468 0.334664 0.025574 33.000000
3.237273 0.328913 0.025442 25.000000
3.343752 0.329409 0.025090 52.000000
3.420400 0.326394 0.024838 90.000000
3.418399 0.315622 0.024848 66.000000
3.419351 0.305133 0.024848 75.000000
3.429237 0.295417 0.024818 111.000000
3.426141 0.284562 0.024832 65.000000
3.427995 0.274129 0.024828 50.000000
3.437793 0.264304 0.024798 79.000000
3.444571 0.254200 0.024779 64.000000
3.451320 0.244056 0.024759 71.000000
3.457041 0.233805 0.024742 87.000000
3.461733 0.223457 0.024729 60.000000
3.462403 0.212836 0.024729 58.000000
3.469029 0.202564 0.024709 51.000000
3.473628 0.192142 0.024696 61.000000
3.483188 0.181957 0.024666 48.000000
3.500710 0.172110 0.024609 33.000000
3.513208 0.161926 0.024570 37.000000
3.533669 0.152013 0.024503 41.000000
3.562096 0.142298 0.024410 20.000000
3.583502 0.132150 0.024341 21.000000
3.594883 0.121530 0.024304 34.000000
3.606234 0.110842 0.024268 19.000000
3.625550 0.100309 0.024205 16.000000
3.650832 0.089809 0.024122 5.000000
3.056833 0.826539 -0.013317 34.000000
3.058389 0.816899 -0.013301 38.000000
3.056046 0.806237 -0.013223 61.000000
3.061409 0.797613 -0.013270 55.000000
3.058031 0.786723 -0.013175 47.000000
3.059461 0.777092 -0.013160 62.000000
3.060861 0.767459 -0.013144 46.000000
3.061260 0.757584 -0.013113 63.000000
3.060655 0.747478 -0.013065 55.000000
3.066823 0.739021 -0.013128 48.000000
3.063239 0.728221 -0.013034 38.000000
3.068379 0.719505 -0.013081 53.000000
3.067649 0.709412 -0.013034 69.000000
3.066887 0.699331 -0.012987 69.000000
3.068042 0.689699 -0.012971 75.000000
3.069167 0.680067 -0.012956 61.000000
3.070262 0.670435 -0.012940 59.000000
3.071384 0.650962 -0.012893 64.000000
3.076303 0.642148 -0.012940 86.000000
3.076300 0.632305 -0.012908 84.000000
3.077245 0.622666 -0.012893 85.000000
3.076199 0.612637 -0.012846 77.000000
3.080026 0.603580 -0.012877 73.000000
3.082846 0.594317 -0.012893 96.000000
3.084655 0.584857 -0.012893 77.000000
3.085451 0.575207 -0.012877 89.000000
3.087202 0.565738 -0.012877 89.000000
3.086954 0.555910 -0.012846 95.000000
3.089630 0.546611 -0.012861 72.000000
3.088337 0.536616 -0.012814 105.000000
3.092926 0.527643 -0.012861 118.000000
3.104091 0.470923 -0.012893 84.000000
3.105521 0.461397 -0.012893 84.000000
3.105933 0.451724 -0.012877 71.000000
3.104334 0.441770 -0.012830 77.000000
3.103694 0.431969 -0.012798 62.000000
3.102033 0.422041 -0.012751 58.000000
3.106287 0.412917 -0.012798 78.000000
3.110513 0.403771 -0.012846 81.000000
3.111737 0.394226 -0.012846 63.000000
3.118886 0.385412 -0.012940 50.000000
3.127003 0.376678 -0.013050 48.000000
3.138075 0.368247 -0.013207 61.000000
3.167999 0.361905 -0.013662 51.000000
3.308341 0.357370 -0.015846 39.000000
3.359143 0.352430 -0.016631 48.000000
3.435809 0.349811 -0.017825 101.000000
3.423931 0.337993 -0.017621 69.000000
3.422961 0.327297 -0.017589 58.000000
3.426936 0.317070 -0.017636 67.000000
3.428888 0.306643 -0.017652 61.000000
3.425828 0.295779 -0.017589 52.000000
3.428712 0.285433 -0.017621 67.000000
3.432562 0.275152 -0.017668 70.000000
3.436381 0.264850 -0.017715 79.000000
3.439172 0.254453 -0.017746 87.000000
3.442928 0.244112 -0.017793 73.000000
3.445656 0.233684 -0.017825 77.000000
3.450348 0.223369 -0.017888 80.000000
3.459001 0.213274 -0.018013 56.000000
3.467624 0.203128 -0.018139 61.000000
3.479213 0.193097 -0.018312 43.000000
3.489774 0.182944 -0.018469 56.000000
3.501304 0.172778 -0.018642 48.000000
3.518798 0.162819 -0.018909 36.000000
3.528271 0.152410 -0.019050 35.000000
3.542709 0.142144 -0.019270 31.000000
3.568109 0.132197 -0.019663 17.000000
3.571496 0.121352 -0.019710 39.000000
3.578847 0.110609 -0.019820 34.000000
3.582167 0.099712 -0.019867 27.000000
3.582457 0.088722 -0.019867 18.000000
3.067393 0.758352 -0.051090 39.000000
3.067763 0.748463 -0.051035 52.000000
3.071988 0.739516 -0.051090 60.000000
3.069380 0.728931 -0.050952 52.000000
3.071602 0.719511 -0.050952 43.000000
3.071847 0.709634 -0.050896 56.000000
3.074984 0.700428 -0.050924 41.000000
3.072242 0.689894 -0.050785 38.000000
3.071417 0.679816 -0.050702 44.000000
3.072511 0.670177 -0.050674 62.000000
3.073576 0.660537 -0.050646 56.000000
3.078546 0.632019 -0.050619 52.000000
3.082430 0.622968 -0.050674 61.000000
3.079425 0.612531 -0.050535 58.000000
3.080309 0.602889 -0.050508 60.000000
3.084107 0.593814 -0.050563 53.000000
3.081004 0.583418 -0.050424 62.000000
3.081797 0.573779 -0.050397 48.000000
3.081576 0.563961 -0.050341 60.000000
3.076405 0.553263 -0.050147 34.000000
3.083994 0.544868 -0.050313 61.000000
3.085651 0.535404 -0.050313 53.000000
3.084323 0.525430 -0.050230 73.000000
3.086906 0.516130 -0.050258 67.000000
3.091434 0.507144 -0.050341 55.000000
3.092976 0.497657 -0.050341 61.000000
3.094488 0.488166 -0.050341 50.000000
3.093008 0.478210 -0.050258 62.000000
3.092484 0.468419 -0.050202 52.000000
3.092918 0.458782 -0.050175 61.000000
3.098267 0.449867 -0.050286 55.000000
3.097654 0.440077 -0.050230 60.000000
3.099979 0.430710 -0.050258 51.000000
3.102276 0.421332 -0.050286 54.000000
3.110491 0.412735 -0.050480 36.000000
3.109760 0.402933 -0.050424 50.000000
3.123873 0.395026 -0.050785 35.000000
3.124078 0.385317 -0.050757 48.000000
3.165935 0.380638 -0.051895 42.000000
3.224669 0.377688 -0.053504 31.000000
3.326120 0.379267 -0.056307 27.000000
3.380916 0.375030 -0.057805 36.000000
3.413853 0.368096 -0.058693 48.000000
3.433855 0.359605 -0.059220 54.000000
3.431959 0.348764 -0.059137 41.000000
3.436992 0.338627 -0.059248 58.000000
3.438014 0.328081 -0.059248 40.000000
3.440995 0.317716 -0.059303 53.000000
3.441954 0.307158 -0.059303 47.000000
3.441884 0.296510 -0.059276 62.000000
3.449751 0.286531 -0.059470 88.000000
3.450613 0.275946 -0.059470 69.000000
3.457424 0.265820 -0.059636 58.000000
3.460217 0.255359 -0.059692 48.000000
3.455998 0.244388 -0.059553 59.000000
3.459724 0.233988 -0.059636 54.000000
3.460426 0.223372 -0.059636 59.000000
3.464087 0.212940 -0.059720 53.000000
3.461731 0.202135 -0.059636 45.000000
3.465329 0.191680 -0.059720 50.000000
3.477880 0.181678 -0.060053 41.000000
3.485409 0.171353 -0.060247 50.000000
3.496902 0.161169 -0.060552 35.000000
3.509365 0.150959 -0.060885 31.000000
3.530786 0.141037 -0.061468 23.000000
3.543189 0.130650 -0.061801 33.000000
3.557560 0.120256 -0.062189 43.000000
3.565905 0.109590 -0.062411 35.000000
3.580214 0.099041 -0.062800 30.000000
3.579501 0.088031 -0.062772 17.000000
3.578755 0.077027 -0.062744 21.000000
3.088649 0.724255 -0.091155 31.000000
3.099618 0.716801 -0.091518 27.000000
3.080370 0.702404 -0.090631 43.000000
3.075686 0.691417 -0.090349 49.000000
3.072916 0.680897 -0.090147 63.000000
3.076942 0.671893 -0.090228 50.000000
3.082962 0.653414 -0.090309 57.000000
3.082996 0.643545 -0.090228 52.000000
3.081990 0.623625 -0.090026 34.000000
3.079969 0.613387 -0.089865 52.000000
3.077914 0.603167 -0.089704 52.000000
3.073863 0.592587 -0.089462 47.000000
3.074685 0.582968 -0.089422 82.000000
3.071548 0.572617 -0.089220 55.000000
3.071324 0.562831 -0.089140 57.000000
3.075003 0.553759 -0.089220 59.000000
3.077672 0.544497 -0.089261 51.000000
3.082281 0.535565 -0.089382 59.000000
3.088835 0.526946 -0.089583 53.000000
3.102950 0.470750 -0.089785 63.000000
3.106356 0.461521 -0.089865 74.000000
3.110724 0.452420 -0.089986 54.000000
3.114076 0.443155 -0.090067 46.000000
3.118390 0.434012 -0.090188 56.000000
3.123667 0.424982 -0.090349 37.000000
3.131890 0.416317 -0.090631 47.000000
3.141079 0.407735 -0.090954 51.000000
3.158175 0.400103 -0.091598 47.000000
3.250621 0.401675 -0.095307 28.000000
3.383778 0.407577 -0.100667 26.000000
3.415777 0.400800 -0.101917 27.000000
3.446773 0.393718 -0.103126 34.000000
3.461868 0.384685 -0.103690 41.000000
3.460051 0.373740 -0.103569 41.000000
3.459194 0.362915 -0.103489 45.000000
3.454327 0.351694 -0.103247 56.000000
3.451412 0.340703 -0.103086 44.000000
3.455425 0.330397 -0.103207 47.000000
3.454433 0.319611 -0.103126 62.000000
3.455397 0.309011 -0.103126 61.000000
3.456329 0.298409 -0.103126 65.000000
3.454241 0.287555 -0.103005 51.000000
3.457099 0.277116 -0.103086 76.000000
3.455940 0.266355 -0.103005 60.000000
3.453752 0.255530 -0.102884 71.000000
3.455516 0.245003 -0.102924 51.000000
3.452264 0.234131 -0.102763 81.000000
3.455957 0.223732 -0.102884 67.000000
3.454633 0.213005 -0.102804 58.000000
3.454273 0.202347 -0.102763 76.000000
3.459865 0.192025 -0.102965 67.000000
3.468421 0.181827 -0.103287 60.000000
3.474950 0.171480 -0.103529 53.000000
3.493426 0.161648 -0.104255 47.000000
3.507881 0.151531 -0.104819 51.000000
3.517315 0.141128 -0.105182 39.000000
3.541696 0.131222 -0.106149 32.000000
3.555063 0.120795 -0.106673 44.000000
3.559412 0.110011 -0.106834 49.000000
3.590696 0.099949 -0.108084 25.000000
3.606968 0.089326 -0.108729 20.000000
3.605227 0.078217 -0.108648 26.000000
3.626429 0.067544 -0.109494 31.000000
3.037440 0.603067 -0.125287 22.000000
3.062797 0.598350 -0.126543 39.000000
3.073443 0.590650 -0.127014 51.000000
3.078185 0.581776 -0.127171 47.000000
3.079955 0.572329 -0.127171 41.000000
3.081696 0.562877 -0.127171 32.000000
3.086357 0.553950 -0.127328 41.000000
3.087059 0.544305 -0.127275 48.000000
3.090682 0.535173 -0.127380 38.000000
3.091325 0.525521 -0.127328 43.000000
3.093908 0.516199 -0.127380 57.000000
3.099419 0.507351 -0.127589 46.000000
3.100960 0.497840 -0.127589 44.000000
3.103460 0.488480 -0.127642 54.000000
3.104944 0.478956 -0.127642 51.000000
3.106399 0.469428 -0.127642 50.000000
3.106836 0.459749 -0.127589 43.000000
3.105267 0.449785 -0.127432 50.000000
3.104655 0.439975 -0.127328 55.000000
3.115882 0.431822 -0.127851 31.000000
3.124119 0.423202 -0.128217 51.000000
3.134312 0.414798 -0.128688 52.000000
3.216778 0.415704 -0.132980 34.000000
3.434019 0.433149 -0.144389 30.000000
3.501737 0.430804 -0.147896 26.000000
3.493127 0.418866 -0.147372 24.000000
3.519192 0.411052 -0.148681 56.000000
3.502577 0.398217 -0.147739 58.000000
3.489887 0.385928 -0.147006 44.000000
3.479140 0.373935 -0.146378 39.000000
3.467359 0.361907 -0.145698 52.000000
3.467459 0.351167 -0.145645 43.000000
3.465539 0.340233 -0.145488 47.000000
3.462590 0.329220 -0.145279 56.000000
3.465572 0.318779 -0.145384 44.000000
3.463550 0.307879 -0.145227 55.000000
3.461493 0.296995 -0.145070 75.000000
3.469355 0.286952 -0.145436 62.000000
3.461260 0.275591 -0.144965 67.000000
3.466072 0.265276 -0.145174 47.000000
3.465873 0.254568 -0.145122 58.000000
3.459665 0.243441 -0.144756 64.000000
3.466374 0.233230 -0.145070 53.000000
3.471059 0.222851 -0.145279 54.000000
3.466743 0.211895 -0.145017 68.000000
3.478343 0.201898 -0.145593 44.000000
3.492905 0.191998 -0.146326 33.000000
3.491483 0.181177 -0.146221 39.000000
3.501000 0.170905 -0.146692 44.000000
3.513479 0.160715 -0.147320 37.000000
3.517946 0.150107 -0.147529 42.000000
3.528368 0.139711 -0.148053 38.000000
3.531774 0.128996 -0.148210 37.000000
3.543132 0.118531 -0.148785 39.000000
3.563442 0.108274 -0.149832 24.000000
3.584720 0.097920 -0.150931 17.000000
3.590994 0.087069 -0.151245 19.000000
3.593241 0.076094 -0.151350 15.000000
3.596453 0.065125 -0.151507 9.000000
3.088175 0.536588 -0.166040 41.000000
3.087839 0.526776 -0.165911 35.000000
3.106879 0.471345 -0.166558 41.000000
3.108310 0.461811 -0.166558 43.000000
3.111687 0.452560 -0.166687 36.000000
3.109109 0.442449 -0.166429 48.000000
3.122313 0.434558 -0.167205 45.000000
3.287774 0.447288 -0.177946 17.000000
3.497856 0.464919 -0.191599 16.000000
3.504214 0.454827 -0.191923 29.000000
3.541233 0.448585 -0.194252 17.000000
3.542593 0.437719 -0.194252 30.000000
3.546891 0.427206 -0.194446 25.000000
3.530345 0.414231 -0.193282 37.000000
3.526642 0.402832 -0.192958 31.000000
3.510009 0.390029 -0.191793 38.000000
3.498291 0.377867 -0.190952 38.000000
3.487524 0.365884 -0.190176 53.000000
3.494587 0.355789 -0.190564 60.000000
3.492683 0.344772 -0.190370 49.000000
3.491737 0.333865 -0.190241 46.000000
3.496720 0.323518 -0.190499 44.000000
3.495708 0.312612 -0.190370 47.000000
3.495656 0.301800 -0.190305 44.000000
3.501538 0.291487 -0.190629 45.000000
3.498437 0.280425 -0.190370 44.000000
3.496296 0.269461 -0.190176 32.000000
3.495116 0.258586 -0.190046 51.000000
3.493901 0.247721 -0.189917 51.000000
3.495641 0.237068 -0.189982 34.000000
3.495356 0.226278 -0.189917 42.000000
3.493046 0.215369 -0.189723 34.000000
3.495682 0.204768 -0.189852 55.000000
3.497290 0.194098 -0.189917 45.000000
3.498866 0.183420 -0.189982 45.000000
3.502403 0.172832 -0.190176 55.000000
3.506904 0.162270 -0.190435 32.000000
