ply
format ascii 1.0
element vertex 1133
property float x
property float y
property float z
property float intensity
end_header
4.357594 0.771936 0.564344 12.000000
4.339400 0.754984 0.561847 16.000000
4.289826 0.732793 0.555544 36.000000
4.288137 0.718970 0.555068 48.000000
4.287384 0.705327 0.554711 37.000000
4.294429 0.692962 0.555306 61.000000
4.301437 0.680561 0.555900 40.000000
4.300562 0.666904 0.555544 46.000000
4.322220 0.656695 0.557922 17.000000
4.329124 0.644163 0.558517 9.000000
4.321255 0.629445 0.557327 6.000000
4.397046 0.806395 0.514596 7.000000
4.346658 0.783382 0.508830 19.000000
4.311837 0.763459 0.504772 33.000000
4.330811 0.753122 0.506587 20.000000
4.298798 0.733977 0.502850 30.000000
4.286320 0.718322 0.501248 33.000000
4.283598 0.704362 0.500714 27.000000
4.283776 0.690900 0.500501 54.000000
4.288822 0.678220 0.500821 30.000000
4.288917 0.664755 0.500607 35.000000
4.302732 0.653384 0.501889 39.000000
4.310618 0.641057 0.502529 34.000000
4.380455 0.637707 0.509898 7.000000
4.283879 0.785229 0.450203 11.000000
4.273533 0.769785 0.448969 29.000000
4.280776 0.757539 0.449444 49.000000
4.273272 0.742695 0.448494 50.000000
4.274549 0.729414 0.448399 16.000000
4.267931 0.714814 0.447544 34.000000
4.268139 0.701393 0.447354 33.000000
4.271254 0.688454 0.447449 29.000000
4.272363 0.675191 0.447354 56.000000
4.275398 0.662233 0.447449 64.000000
4.287251 0.650610 0.448399 46.000000
4.321720 0.642291 0.451533 27.000000
4.344356 0.632045 0.453528 13.000000
4.350217 0.619276 0.453908 16.000000
4.250514 0.739165 0.391847 5.000000
4.215654 0.706485 0.388549 11.000000
4.221735 0.694195 0.388879 13.000000
4.214102 0.666411 0.387889 5.000000
4.217112 0.653632 0.387972 10.000000
4.230921 0.642485 0.388961 14.000000
4.241744 0.630820 0.389703 9.000000
4.153098 0.825762 0.334875 20.000000
4.328876 0.846964 0.347376 55.000000
4.273665 0.822540 0.343209 36.000000
4.276168 0.809425 0.343209 29.000000
4.319818 0.803979 0.346176 77.000000
4.306565 0.787846 0.345046 61.000000
4.323688 0.777281 0.346105 60.000000
4.307389 0.760711 0.344763 57.000000
4.306754 0.746981 0.344551 65.000000
4.310009 0.733932 0.344622 68.000000
4.314208 0.721035 0.344763 71.000000
4.316400 0.707796 0.344763 75.000000
4.317566 0.694391 0.344692 101.000000
4.315735 0.680519 0.344410 96.000000
4.308931 0.665902 0.343774 110.000000
4.313912 0.653128 0.343986 58.000000
4.318856 0.640330 0.344198 81.000000
4.329683 0.628368 0.344834 68.000000
4.334554 0.615504 0.345046 67.000000
4.339386 0.602615 0.345257 64.000000
4.330342 0.587820 0.344481 92.000000
4.319271 0.572824 0.343562 55.000000
4.306170 0.557644 0.342503 45.000000
4.296975 0.543052 0.341726 55.000000
4.256051 0.524607 0.338689 39.000000
4.264573 0.512382 0.339183 49.000000
4.123463 0.482560 0.329013 53.000000
4.056540 0.462098 0.324140 34.000000
3.750139 1.075903 0.262265 43.000000
3.756303 1.065209 0.262439 35.000000
3.754747 1.052333 0.262149 42.000000
3.756996 1.040543 0.262091 36.000000
3.757282 1.028221 0.261916 39.000000
3.760418 1.016689 0.261916 46.000000
3.760626 1.004375 0.261742 42.000000
3.762725 0.992578 0.261684 46.000000
3.763820 0.980527 0.261568 41.000000
3.769711 0.969721 0.261742 41.000000
3.769765 0.957414 0.261568 47.000000
3.775590 0.946572 0.261742 36.000000
3.772662 0.933546 0.261394 51.000000
3.777447 0.922441 0.261510 52.000000
3.775407 0.909678 0.261219 42.000000
3.778180 0.898091 0.261219 40.000000
3.778974 0.886040 0.261103 44.000000
3.782647 0.874667 0.261161 49.000000
3.784339 0.862836 0.261103 42.000000
3.784047 0.850565 0.260929 50.000000
3.785664 0.838736 0.260871 46.000000
3.788219 0.827118 0.260871 38.000000
3.788787 0.815072 0.260755 37.000000
3.790293 0.803238 0.260697 55.000000
3.791762 0.791402 0.260638 48.000000
3.794172 0.779765 0.260638 53.000000
3.805353 0.769902 0.261161 42.000000
3.808676 0.758418 0.261219 47.000000
3.810985 0.746730 0.261219 48.000000
3.815219 0.735412 0.261335 40.000000
3.819419 0.724076 0.261452 58.000000
3.821622 0.712354 0.261452 40.000000
3.821826 0.700267 0.261335 52.000000
3.821009 0.688008 0.261161 46.000000
3.822119 0.676108 0.261103 52.000000
3.822207 0.664037 0.260987 39.000000
3.825140 0.616289 0.260697 48.000000
3.827013 0.604551 0.260697 46.000000
3.830822 0.593113 0.260813 49.000000
3.827689 0.580609 0.260522 48.000000
3.831427 0.569156 0.260638 36.000000
3.829204 0.556825 0.260406 44.000000
3.832871 0.545355 0.260522 50.000000
3.836504 0.533869 0.260638 51.000000
3.842080 0.522634 0.260871 42.000000
3.840697 0.510450 0.260697 49.000000
3.847195 0.499306 0.260987 40.000000
3.847718 0.487375 0.260929 46.000000
3.847214 0.475324 0.260813 47.000000
3.842707 0.462803 0.260464 38.000000
3.839151 0.450430 0.260174 58.000000
3.834564 0.437971 0.259825 44.000000
3.831920 0.425764 0.259593 40.000000
3.831224 0.413791 0.259477 50.000000
3.834461 0.402243 0.259593 50.000000
3.836670 0.390579 0.259651 65.000000
3.842818 0.379296 0.259941 51.000000
3.838994 0.367030 0.259651 35.000000
3.849049 0.356077 0.260174 48.000000
3.851118 0.344355 0.260232 46.000000
3.852156 0.332539 0.260232 41.000000
3.858132 0.321132 0.260522 58.000000
3.857109 0.309135 0.260406 47.000000
3.855053 0.297070 0.260232 53.000000
3.859929 0.285536 0.260464 40.000000
3.861783 0.273763 0.260522 56.000000
3.858620 0.261644 0.260290 47.000000
3.827525 0.247745 0.258431 26.000000
3.754859 1.075290 0.216227 42.000000
3.756218 1.063221 0.216135 42.000000
3.755615 1.050614 0.215950 39.000000
3.754007 1.037755 0.215718 48.000000
3.755246 1.025706 0.215626 52.000000
3.757766 0.989318 0.215302 49.000000
3.755949 0.976526 0.215071 51.000000
3.756025 0.964253 0.214932 50.000000
3.757030 0.952233 0.214840 47.000000
3.759933 0.940702 0.214840 40.000000
3.761832 0.928923 0.214794 44.000000
3.764664 0.917377 0.214794 57.000000
3.768432 0.906057 0.214840 54.000000
3.771194 0.894491 0.214840 48.000000
3.774893 0.883145 0.214886 57.000000
3.775638 0.871110 0.214794 61.000000
3.780241 0.859966 0.214886 53.000000
3.779938 0.847708 0.214748 46.000000
3.781545 0.835891 0.214701 59.000000
3.784092 0.824286 0.214701 46.000000
3.784650 0.812253 0.214609 46.000000
3.784192 0.800017 0.214470 59.000000
3.783695 0.787792 0.214331 56.000000
3.783159 0.775577 0.214193 55.000000
3.788457 0.764561 0.214331 45.000000
3.789805 0.752739 0.214285 37.000000
3.793077 0.741301 0.214331 48.000000
3.795334 0.729660 0.214331 34.000000
3.800499 0.718570 0.214470 58.000000
3.802686 0.706907 0.214470 44.000000
3.801888 0.694698 0.214331 52.000000
3.804985 0.683207 0.214378 56.000000
3.807064 0.671531 0.214378 61.000000
3.811074 0.660189 0.214470 67.000000
3.811112 0.648158 0.214378 73.000000
3.814068 0.636628 0.214424 55.000000
3.816989 0.625085 0.214470 67.000000
3.818889 0.613372 0.214470 74.000000
3.817792 0.601186 0.214331 58.000000
3.819619 0.589470 0.214331 104.000000
3.824372 0.578198 0.214470 101.000000
3.826128 0.566462 0.214470 102.000000
3.824883 0.554290 0.214331 127.000000
3.817664 0.541288 0.213915 157.000000
3.818317 0.529436 0.213869 127.000000
3.819923 0.517719 0.213869 133.000000
3.822484 0.506129 0.213915 132.000000
3.827981 0.494912 0.214100 137.000000
3.840383 0.484545 0.214609 187.000000
3.826980 0.470926 0.213915 567.000000
3.872046 0.464430 0.215950 1721.000000
3.901232 0.455803 0.217244 2227.000000
3.884748 0.441795 0.216412 1978.000000
3.856300 0.426571 0.215025 1310.000000
3.833754 0.412168 0.213915 1034.000000
3.841955 0.401132 0.214239 594.000000
3.840186 0.389040 0.214100 228.000000
3.839373 0.377061 0.214008 176.000000
3.837529 0.364996 0.213869 137.000000
3.836641 0.353037 0.213777 128.000000
3.836711 0.341176 0.213730 135.000000
3.836745 0.329318 0.213684 117.000000
3.842714 0.317958 0.213915 103.000000
3.843672 0.306168 0.213915 106.000000
3.842601 0.294221 0.213823 151.000000
3.851455 0.283019 0.214193 79.000000
3.859281 0.271694 0.214516 60.000000
3.863086 0.260055 0.214655 58.000000
3.825985 0.245757 0.212898 12.000000
3.755459 1.076722 0.167976 42.000000
3.754898 1.064106 0.167841 34.000000
3.757183 1.052311 0.167807 38.000000
3.752688 1.038648 0.167536 41.000000
3.752964 1.026339 0.167434 47.000000
3.753201 1.014039 0.167333 54.000000
3.755329 1.002262 0.167299 53.000000
3.758386 0.990736 0.167299 52.000000
3.760441 0.978949 0.167265 52.000000
3.763426 0.967407 0.167265 48.000000
3.768314 0.956348 0.167333 42.000000
3.773169 0.945268 0.167400 62.000000
3.777022 0.933928 0.167434 49.000000
3.778898 0.922099 0.167400 46.000000
3.779766 0.910033 0.167333 49.000000
3.781568 0.898202 0.167299 50.000000
3.785279 0.886824 0.167333 43.000000
3.788955 0.875431 0.167367 61.000000
3.792598 0.864025 0.167400 49.000000
3.795231 0.852385 0.167400 56.000000
3.798804 0.840954 0.167434 61.000000
3.795507 0.828018 0.167231 35.000000
3.801938 0.817209 0.167367 63.000000
3.798561 0.804299 0.167164 51.000000
3.797097 0.791826 0.167028 42.000000
3.795592 0.779369 0.166893 57.000000
3.796006 0.767325 0.166825 58.000000
3.795402 0.755091 0.166723 56.000000
3.797700 0.743443 0.166723 62.000000
3.799963 0.731788 0.166723 70.000000
3.803172 0.720313 0.166757 70.000000
3.806347 0.708824 0.166791 52.000000
3.809487 0.697323 0.166825 79.000000
3.810625 0.685455 0.166791 64.000000
3.813694 0.673935 0.166825 63.000000
3.814759 0.662061 0.166791 49.000000
3.820713 0.651026 0.166927 69.000000
3.824570 0.615516 0.166859 65.000000
3.824466 0.603468 0.166791 59.000000
3.823336 0.591274 0.166690 82.000000
3.823156 0.579242 0.166622 72.000000
3.827880 0.567950 0.166723 61.000000
3.832572 0.556634 0.166825 66.000000
3.833272 0.544732 0.166791 85.000000
3.834925 0.532970 0.166791 88.000000
3.834562 0.520933 0.166723 99.000000
3.833170 0.508772 0.166622 116.000000
3.831739 0.496624 0.166520 104.000000
3.834236 0.484992 0.166554 131.000000
3.837690 0.473471 0.166622 135.000000
3.842101 0.462052 0.166723 194.000000
3.843501 0.450263 0.166723 571.000000
3.833941 0.437224 0.166351 441.000000
3.843211 0.426341 0.166622 157.000000
3.838539 0.413906 0.166419 106.000000
3.844761 0.402647 0.166588 144.000000
3.838024 0.390042 0.166317 95.000000
3.840197 0.378363 0.166351 85.000000
3.841340 0.366580 0.166351 85.000000
3.840456 0.354610 0.166283 81.000000
3.842521 0.342914 0.166317 89.000000
3.842559 0.331038 0.166283 97.000000
3.844553 0.319331 0.166317 76.000000
3.846511 0.307614 0.166351 80.000000
3.849429 0.295964 0.166419 60.000000
3.854306 0.284447 0.166554 40.000000
3.854163 0.272550 0.166520 35.000000
3.857973 0.260927 0.166622 42.000000
3.862745 0.249347 0.166757 20.000000
3.754728 1.076665 0.120387 29.000000
3.753205 1.063776 0.120279 35.000000
3.759339 1.053067 0.120344 31.000000
3.759661 1.040727 0.120279 43.000000
3.768283 0.993491 0.120192 28.000000
3.776150 0.983187 0.120300 44.000000
3.776244 0.970849 0.120235 41.000000
3.782112 0.959998 0.120300 44.000000
3.786979 0.948877 0.120344 59.000000
3.786961 0.936533 0.120279 49.000000
3.788845 0.924673 0.120257 67.000000
3.788749 0.912342 0.120192 56.000000
3.786666 0.899557 0.120084 51.000000
3.790382 0.888164 0.120106 41.000000
3.789192 0.875629 0.120019 59.000000
3.788937 0.863333 0.119954 63.000000
3.790593 0.851485 0.119933 44.000000
3.793187 0.839852 0.119933 71.000000
3.795746 0.828210 0.119933 60.000000
3.799246 0.816772 0.119954 55.000000
3.801734 0.805112 0.119954 56.000000
3.804186 0.793445 0.119954 50.000000
3.806603 0.781770 0.119954 52.000000
3.808983 0.770088 0.119954 63.000000
3.808386 0.757812 0.119889 74.000000
3.807750 0.745547 0.119824 57.000000
3.807075 0.733294 0.119759 51.000000
3.807342 0.721237 0.119716 77.000000
3.811502 0.709920 0.119759 52.000000
3.810712 0.697682 0.119694 49.000000
3.811851 0.685810 0.119673 57.000000
3.813937 0.674113 0.119673 53.000000
3.813032 0.661895 0.119608 70.000000
3.813074 0.649857 0.119565 65.000000
3.812091 0.637660 0.119500 68.000000
3.810084 0.625312 0.119413 64.000000
3.810010 0.613302 0.119370 79.000000
3.813849 0.601922 0.119413 71.000000
3.814690 0.590066 0.119392 73.000000
3.817471 0.578510 0.119413 67.000000
3.820216 0.566942 0.119435 76.000000
3.821938 0.555219 0.119435 73.000000
3.818674 0.542786 0.119327 53.000000
3.832204 0.532724 0.119586 108.000000
3.834811 0.521099 0.119608 103.000000
3.837383 0.509463 0.119630 102.000000
3.837936 0.497559 0.119608 81.000000
3.838453 0.485656 0.119586 80.000000
3.840917 0.474001 0.119608 80.000000
3.850419 0.427273 0.119694 185.000000
3.837796 0.413953 0.119392 104.000000
3.841037 0.402386 0.119435 80.000000
3.838275 0.390194 0.119348 100.000000
3.841443 0.378613 0.119392 112.000000
3.842587 0.366826 0.119392 102.000000
3.847677 0.355405 0.119478 86.000000
3.847753 0.343509 0.119456 91.000000
3.847792 0.331617 0.119435 86.000000
3.846799 0.319644 0.119392 87.000000
3.850751 0.308081 0.119456 116.000000
3.844701 0.295727 0.119305 84.000000
3.842599 0.283708 0.119240 50.000000
3.843451 0.271918 0.119240 56.000000
3.844267 0.260125 0.119240 54.000000
3.838064 0.247877 0.119089 19.000000
3.764389 1.103611 0.072322 23.000000
3.765836 1.091500 0.072303 40.000000
3.767244 1.079391 0.072285 47.000000
3.767652 1.067011 0.072257 42.000000
3.767056 1.054369 0.072220 36.000000
3.769309 1.042541 0.072211 52.000000
3.774419 1.031499 0.072229 38.000000
3.779496 1.020435 0.072248 48.000000
3.779711 1.008062 0.072220 67.000000
3.784720 0.996971 0.072239 61.000000
3.784857 0.984600 0.072211 46.000000
3.784954 0.972237 0.072183 44.000000
3.786950 0.960375 0.072174 55.000000
3.782118 0.946810 0.072100 42.000000
3.783064 0.934723 0.072081 57.000000
3.782999 0.922402 0.072054 51.000000
3.781922 0.909857 0.072017 55.000000
3.782750 0.897788 0.071998 59.000000
3.784513 0.885951 0.071989 46.000000
3.786238 0.874111 0.071980 47.000000
3.789877 0.862712 0.071989 46.000000
3.792506 0.851081 0.071989 44.000000
3.795099 0.839442 0.071989 63.000000
3.792772 0.826730 0.071943 40.000000
3.797246 0.815510 0.071961 77.000000
3.795816 0.803029 0.071924 46.000000
3.798263 0.791380 0.071924 32.000000
3.800673 0.779723 0.071924 68.000000
3.801086 0.767664 0.071906 48.000000
3.804404 0.756193 0.071915 52.000000
3.807688 0.744710 0.071924 64.000000
3.807991 0.732647 0.071906 56.000000
3.809238 0.720775 0.071896 68.000000
3.811431 0.709085 0.071896 50.000000
3.811621 0.697029 0.071878 49.000000
3.814726 0.685508 0.071887 54.000000
3.813857 0.673280 0.071859 62.000000
3.814920 0.661406 0.071850 56.000000
3.813863 0.613114 0.071767 44.000000
3.812763 0.600943 0.071739 62.000000
3.815577 0.589396 0.071748 54.000000
3.818356 0.577836 0.071758 56.000000
3.820111 0.566119 0.071758 60.000000
3.822819 0.554540 0.071767 44.000000
3.827472 0.543230 0.071795 66.000000
3.828131 0.531348 0.071785 74.000000
3.831725 0.519869 0.071804 51.000000
3.832310 0.507980 0.071795 63.000000
3.833851 0.496220 0.071795 56.000000
3.835355 0.484456 0.071795 62.000000
3.836823 0.472687 0.071795 59.000000
3.837262 0.460794 0.071785 67.000000
3.839651 0.449136 0.071795 74.000000
3.840018 0.437241 0.071785 74.000000
3.846311 0.426008 0.071832 60.000000
3.846605 0.414098 0.071822 72.000000
3.848852 0.402399 0.071832 88.000000
3.852058 0.390791 0.071850 71.000000
3.856225 0.379264 0.071878 68.000000
3.854383 0.367147 0.071850 67.000000
3.855492 0.355321 0.071850 63.000000
3.855568 0.343402 0.071841 69.000000
3.855607 0.331486 0.071832 61.000000
3.857602 0.319738 0.071841 76.000000
3.856571 0.307743 0.071822 85.000000
3.857497 0.295910 0.071822 55.000000
3.854398 0.283780 0.071785 50.000000
3.854253 0.271883 0.071776 54.000000
3.854071 0.259990 0.071767 55.000000
3.851857 0.247973 0.071739 40.000000
3.849606 0.235971 0.071711 36.000000
3.850311 0.224159 0.071711 47.000000
3.844990 0.212016 0.071656 32.000000
3.767560 1.117980 0.023200 42.000000
3.769054 1.105853 0.023207 56.000000
3.773389 1.094563 0.023203 56.000000
3.769040 1.080774 0.023230 50.000000
3.770414 1.068660 0.023237 58.000000
3.770786 1.056277 0.023246 47.000000
3.767264 1.042834 0.023270 42.000000
3.771410 1.031535 0.023266 53.000000
3.776876 0.995760 0.023280 36.000000
3.778946 0.983915 0.023283 50.000000
3.776136 0.970821 0.023303 51.000000
3.779097 0.959232 0.023303 33.000000
3.781052 0.947390 0.023306 39.000000
3.781999 0.935305 0.023313 41.000000
3.783880 0.923460 0.023316 46.000000
3.783779 0.911143 0.023326 42.000000
3.786556 0.899531 0.023326 53.000000
3.790272 0.888138 0.023323 42.000000
3.791030 0.876054 0.023329 46.000000
3.787850 0.863085 0.023349 38.000000
3.785602 0.850363 0.023366 40.000000
3.787217 0.838528 0.023369 50.000000
3.787818 0.826478 0.023376 48.000000
3.788380 0.814432 0.023382 53.000000
3.790862 0.802806 0.023382 45.000000
3.793307 0.791172 0.023382 56.000000
3.794736 0.779329 0.023386 50.000000
3.798089 0.767882 0.023382 46.000000
3.801408 0.756421 0.023379 45.000000
3.799786 0.743985 0.023392 46.000000
3.799105 0.731756 0.023402 43.000000
3.802315 0.720284 0.023399 41.000000
3.807456 0.709165 0.023389 37.000000
3.809613 0.697481 0.023389 42.000000
3.812719 0.685967 0.023386 67.000000
3.813821 0.674092 0.023389 41.000000
3.818827 0.662902 0.023379 58.000000
3.819857 0.651015 0.023382 67.000000
3.815919 0.638301 0.023402 52.000000
3.814899 0.626104 0.023412 62.000000
3.822725 0.615353 0.023392 49.000000
3.822619 0.603309 0.023399 68.000000
3.832358 0.592804 0.023373 57.000000
3.837125 0.581494 0.023363 46.000000
3.841858 0.570161 0.023353 56.000000
3.847547 0.558948 0.023339 62.000000
3.845284 0.546577 0.023353 52.000000
3.841991 0.534087 0.023369 62.000000
3.842621 0.522163 0.023373 61.000000
3.839248 0.509712 0.023389 73.000000
3.838810 0.497673 0.023396 49.000000
3.837343 0.485516 0.023406 59.000000
3.834845 0.473249 0.023419 51.000000
3.840658 0.414263 0.023422 65.000000
3.844895 0.402791 0.023412 61.000000
3.847108 0.391095 0.023409 74.000000
3.847294 0.379192 0.023412 70.000000
3.851426 0.367673 0.023402 87.000000
3.855523 0.356132 0.023392 80.000000
3.859585 0.344569 0.023382 80.000000
3.863613 0.332985 0.023373 90.000000
3.864617 0.321130 0.023373 70.000000
3.863590 0.309112 0.023379 83.000000
3.863523 0.297180 0.023382 80.000000
3.861425 0.285104 0.023392 58.000000
3.860286 0.273114 0.023399 68.000000
3.857115 0.260998 0.023412 50.000000
3.845923 0.248387 0.023452 37.000000
3.855650 0.237142 0.023422 51.000000
3.818425 0.223084 0.023548 17.000000
3.816096 0.211201 0.023558 15.000000
3.771876 1.094672 -0.025270 47.000000
3.770411 1.081717 -0.025192 76.000000
3.769864 1.069053 -0.025129 58.000000
3.765424 1.055325 -0.025003 36.000000
3.770571 1.044301 -0.025034 51.000000
3.769899 1.031673 -0.024972 55.000000
3.768220 1.018798 -0.024893 60.000000
3.769396 1.006716 -0.024862 57.000000
3.772467 0.995147 -0.024862 62.000000
3.775502 0.983569 -0.024862 54.000000
3.774629 0.970985 -0.024799 74.000000
3.781466 0.960384 -0.024862 39.000000
3.787305 0.949508 -0.024909 55.000000
3.790200 0.937884 -0.024909 58.000000
3.794031 0.926488 -0.024925 49.000000
3.792967 0.913908 -0.024862 49.000000
3.794780 0.902036 -0.024846 43.000000
3.798503 0.890617 -0.024862 44.000000
3.798295 0.878284 -0.024815 68.000000
3.798047 0.865960 -0.024767 51.000000
3.796784 0.853427 -0.024705 50.000000
3.795479 0.840910 -0.024642 46.000000
3.788273 0.827130 -0.024485 31.000000
3.799590 0.817395 -0.024626 58.000000
3.800123 0.805320 -0.024595 45.000000
3.802576 0.793658 -0.024595 56.000000
3.804014 0.781787 -0.024579 65.000000
3.805415 0.769914 -0.024563 46.000000
3.806778 0.758041 -0.024548 73.000000
3.808105 0.746166 -0.024532 53.000000
3.809394 0.734290 -0.024516 65.000000
3.814576 0.723158 -0.024563 58.000000
3.816777 0.711452 -0.024563 55.000000
3.819925 0.699919 -0.024579 42.000000
3.824022 0.688550 -0.024610 53.000000
3.825133 0.676641 -0.024595 48.000000
3.828175 0.665074 -0.024610 50.000000
3.827241 0.652822 -0.024563 56.000000
3.831112 0.617251 -0.024532 55.000000
3.832988 0.605494 -0.024532 59.000000
3.837792 0.594191 -0.024579 58.000000
3.839597 0.582414 -0.024579 63.000000
3.844333 0.571072 -0.024626 38.000000
3.847057 0.559419 -0.024642 60.000000
3.844795 0.547051 -0.024579 45.000000
3.844474 0.534977 -0.024548 52.000000
3.839162 0.522237 -0.024438 38.000000
3.835791 0.509798 -0.024359 55.000000
3.836345 0.497899 -0.024343 42.000000
3.837854 0.486127 -0.024343 53.000000
3.839328 0.474350 -0.024343 51.000000
3.843743 0.462927 -0.024390 56.000000
3.848125 0.451482 -0.024438 61.000000
3.850485 0.439787 -0.024453 57.000000
3.851816 0.427972 -0.024453 68.000000
3.852117 0.416046 -0.024438 50.000000
3.850392 0.403913 -0.024390 66.000000
3.852608 0.392199 -0.024406 73.000000
3.855783 0.380574 -0.024438 70.000000
3.855937 0.368648 -0.024422 62.000000
3.858046 0.356908 -0.024438 77.000000
3.858126 0.344981 -0.024422 70.000000
3.857174 0.332971 -0.024390 70.000000
3.857181 0.321053 -0.024375 80.000000
3.855158 0.308979 -0.024328 87.000000
3.859078 0.297380 -0.024375 67.000000
3.861967 0.285687 -0.024406 65.000000
3.858836 0.273554 -0.024343 44.000000
3.871628 0.262525 -0.024532 76.000000
3.856451 0.249614 -0.024281 38.000000
3.860192 0.237966 -0.024328 35.000000
3.761851 1.078710 -0.072012 26.000000
3.769951 1.068528 -0.072150 43.000000
3.770324 1.056147 -0.072067 43.000000
3.775473 1.045109 -0.072123 43.000000
3.778348 0.996148 -0.071845 44.000000
3.780419 0.984300 -0.071817 42.000000
3.784389 0.972946 -0.071845 35.000000
3.786388 0.961085 -0.071817 37.000000
3.789319 0.949464 -0.071817 43.000000
3.792214 0.937834 -0.071817 54.000000
3.788276 0.924534 -0.071623 35.000000
3.783320 0.911033 -0.071401 39.000000
3.783180 0.898728 -0.071318 32.000000
3.783000 0.886432 -0.071235 36.000000
3.784728 0.874596 -0.071207 38.000000
3.787393 0.862981 -0.071207 54.000000
3.789048 0.851138 -0.071179 52.000000
3.794569 0.840158 -0.071262 48.000000
3.797128 0.828513 -0.071262 60.000000
3.800630 0.817070 -0.071290 41.000000
3.807030 0.806235 -0.071401 34.000000
3.808507 0.794347 -0.071373 43.000000
3.808968 0.782256 -0.071318 44.000000
3.809391 0.770170 -0.071262 56.000000
3.808794 0.757893 -0.071179 50.000000
3.811102 0.746205 -0.071179 51.000000
3.811410 0.734130 -0.071124 39.000000
3.808734 0.721502 -0.070985 39.000000
3.808964 0.709446 -0.070929 40.000000
3.811123 0.697757 -0.070929 44.000000
3.814229 0.686239 -0.070957 42.000000
3.818285 0.674883 -0.071013 46.000000
3.821323 0.663336 -0.071040 55.000000
3.823340 0.651610 -0.071040 37.000000
3.826307 0.640042 -0.071068 52.000000
3.828252 0.628300 -0.071068 44.000000
3.830162 0.616552 -0.071068 53.000000
3.830061 0.604486 -0.071013 63.000000
3.832885 0.592886 -0.071040 57.000000
3.835675 0.581274 -0.071068 67.000000
3.837440 0.569504 -0.071068 54.000000
3.840158 0.557872 -0.071096 64.000000
3.838882 0.545665 -0.071013 56.000000
3.840539 0.533885 -0.071013 58.000000
3.843149 0.522234 -0.071040 64.000000
3.842751 0.510178 -0.070985 57.000000
3.846281 0.498644 -0.071040 69.000000
3.848784 0.486967 -0.071068 60.000000
3.848276 0.474911 -0.071013 53.000000
3.845170 0.414751 -0.070735 52.000000
3.844436 0.402743 -0.070680 49.000000
3.847643 0.391149 -0.070735 83.000000
3.850814 0.379540 -0.070791 76.000000
3.853950 0.367915 -0.070846 74.000000
3.854065 0.355997 -0.070818 62.000000
3.856135 0.344260 -0.070846 62.000000
3.860161 0.332687 -0.070929 66.000000
3.861164 0.320842 -0.070929 64.000000
3.860137 0.308835 -0.070874 103.000000
3.862063 0.297067 -0.070902 83.000000
3.865947 0.285439 -0.070985 52.000000
3.869796 0.273790 -0.071068 53.000000
3.870617 0.261916 -0.071068 53.000000
3.855442 0.249004 -0.070624 30.000000
3.767822 1.080974 -0.121304 45.000000
3.775928 1.070772 -0.121506 34.000000
3.776309 1.058374 -0.121385 38.000000
3.776649 1.045984 -0.121264 48.000000
3.777912 1.033865 -0.121183 58.000000
3.778173 1.021487 -0.121062 55.000000
3.776462 1.008603 -0.120861 41.000000
3.781471 0.997522 -0.120941 64.000000
3.786448 0.986419 -0.121022 49.000000
3.788488 0.974549 -0.120982 38.000000
3.790492 0.962676 -0.120941 50.000000
3.793427 0.951042 -0.120941 51.000000
3.793417 0.938680 -0.120820 42.000000
3.796279 0.927037 -0.120820 43.000000
3.794249 0.914216 -0.120619 52.000000
3.793147 0.901648 -0.120458 45.000000
3.794923 0.889778 -0.120417 44.000000
3.795687 0.877681 -0.120337 50.000000
3.799336 0.866254 -0.120377 41.000000
3.801001 0.854375 -0.120337 33.000000
3.803605 0.842709 -0.120337 54.000000
3.804219 0.830610 -0.120256 51.000000
3.805773 0.818725 -0.120216 52.000000
3.806312 0.806631 -0.120135 34.000000
3.809747 0.795154 -0.120176 41.000000
3.809232 0.782859 -0.120055 48.000000
3.812596 0.771366 -0.120095 54.000000
3.814944 0.759666 -0.120095 54.000000
3.817257 0.747958 -0.120095 43.000000
3.818552 0.736055 -0.120055 46.000000
3.818829 0.723964 -0.119974 46.000000
3.821032 0.712244 -0.119974 37.000000
3.823200 0.700518 -0.119974 57.000000
3.826314 0.688963 -0.120014 59.000000
3.828410 0.677220 -0.120014 46.000000
3.827516 0.664959 -0.119893 41.000000
3.832428 0.617463 -0.119772 43.000000
3.835292 0.605858 -0.119813 39.000000
3.836145 0.593936 -0.119772 46.000000
3.839925 0.582464 -0.119853 53.000000
3.840705 0.570533 -0.119813 61.000000
3.841449 0.558604 -0.119772 46.000000
3.845123 0.547097 -0.119853 47.000000
3.844804 0.535023 -0.119772 52.000000
3.845438 0.523090 -0.119732 51.000000
3.844053 0.510895 -0.119611 47.000000
3.848574 0.499485 -0.119732 68.000000
3.850089 0.487675 -0.119732 55.000000
3.849584 0.475616 -0.119652 66.000000
3.853009 0.464042 -0.119732 61.000000
3.854414 0.452219 -0.119732 50.000000
3.855783 0.440392 -0.119732 66.000000
3.857116 0.428561 -0.119732 47.000000
3.856426 0.416511 -0.119652 53.000000
3.857686 0.404677 -0.119652 64.000000
3.857915 0.392739 -0.119611 66.000000
3.858108 0.380803 -0.119571 56.000000
3.860253 0.369060 -0.119611 73.000000
3.861367 0.357215 -0.119611 82.000000
3.857468 0.344923 -0.119410 63.000000
3.859504 0.333172 -0.119450 86.000000
3.862499 0.321496 -0.119531 59.000000
3.862471 0.309564 -0.119490 86.000000
3.864399 0.297790 -0.119531 69.000000
3.867287 0.286080 -0.119611 61.000000
3.869144 0.274284 -0.119652 61.000000
3.868970 0.262345 -0.119611 75.000000
3.875740 0.250861 -0.119853 26.000000
3.764292 1.077994 -0.168202 43.000000
3.765660 1.065896 -0.168097 43.000000
3.769874 1.054608 -0.168150 46.000000
3.774054 1.043303 -0.168202 39.000000
3.782710 0.995893 -0.167993 29.000000
3.788647 0.985038 -0.168150 43.000000
3.787782 0.972415 -0.167940 31.000000
3.789780 0.960544 -0.167888 51.000000
3.789803 0.948185 -0.167731 44.000000
3.791725 0.936314 -0.167679 44.000000
3.794580 0.924677 -0.167679 50.000000
3.797398 0.913031 -0.167679 47.000000
3.800182 0.901376 -0.167679 44.000000
3.800012 0.889030 -0.167522 45.000000
3.796884 0.876019 -0.167208 50.000000
3.798580 0.864144 -0.167155 54.000000
3.797316 0.851611 -0.166946 58.000000
3.794060 0.838662 -0.166632 41.000000
3.794664 0.826592 -0.166527 37.000000
3.796206 0.814736 -0.166475 44.000000
3.800642 0.803500 -0.166580 55.000000
3.809932 0.793263 -0.166946 32.000000
3.808435 0.780767 -0.166737 54.000000
3.813749 0.769673 -0.166894 58.000000
3.817072 0.758163 -0.166946 42.000000
3.820360 0.746641 -0.166998 47.000000
3.820671 0.734539 -0.166894 41.000000
3.821926 0.722628 -0.166841 46.000000
3.822161 0.710534 -0.166737 50.000000
3.825305 0.698984 -0.166789 40.000000
3.823500 0.686538 -0.166580 51.000000
3.825588 0.674804 -0.166580 43.000000
3.822721 0.662211 -0.166318 40.000000
3.824735 0.650479 -0.166318 39.000000
3.824743 0.638413 -0.166213 54.000000
3.824712 0.626352 -0.166109 54.000000
3.826616 0.614615 -0.166109 59.000000
3.831443 0.603339 -0.166266 52.000000
3.835250 0.591887 -0.166370 62.000000
3.837048 0.580118 -0.166370 59.000000
3.839797 0.568490 -0.166423 50.000000
3.841523 0.556707 -0.166423 58.000000
3.843213 0.544919 -0.166423 59.000000
3.842888 0.532850 -0.166318 56.000000
3.841537 0.520655 -0.166161 56.000000
3.842126 0.508735 -0.166109 60.000000
3.843668 0.496945 -0.166109 46.000000
3.841212 0.484650 -0.165899 68.000000
3.840699 0.472618 -0.165795 56.000000
3.854150 0.426332 -0.166213 57.000000
3.858418 0.414827 -0.166370 72.000000
3.860666 0.403091 -0.166423 59.000000
3.861884 0.391245 -0.166423 76.000000
3.862073 0.379297 -0.166370 60.000000
3.865206 0.367637 -0.166475 66.000000
3.865321 0.355685 -0.166423 67.000000
3.869379 0.344091 -0.166580 75.000000
3.871411 0.332304 -0.166632 84.000000
3.874403 0.320590 -0.166737 78.000000
3.875368 0.308702 -0.166737 75.000000
3.873310 0.296582 -0.166580 68.000000
3.872210 0.284550 -0.166475 50.000000
3.871072 0.272528 -0.166370 56.000000
3.869897 0.260516 -0.166266 50.000000
3.876657 0.249028 -0.166580 26.000000
3.767800 1.080968 -0.216964 32.000000
3.771098 1.069403 -0.216964 45.000000
3.773401 1.057559 -0.216900 42.000000
3.778551 1.046510 -0.217029 42.000000
3.780781 1.034650 -0.216964 47.000000
3.784901 1.023306 -0.217029 39.000000
3.787058 1.011432 -0.216964 44.000000
3.791108 1.000063 -0.217029 57.000000
3.794159 0.988427 -0.217029 40.000000
3.796207 0.976534 -0.216964 62.000000
3.794349 0.963655 -0.216641 44.000000
3.796319 0.951767 -0.216576 46.000000
3.794378 0.938917 -0.216253 41.000000
3.797241 0.927272 -0.216253 54.000000
3.796187 0.914683 -0.215994 46.000000
3.793150 0.901648 -0.215605 41.000000
3.792012 0.889096 -0.215347 50.000000
3.794722 0.877458 -0.215347 43.000000
3.796423 0.865590 -0.215282 37.000000
3.799061 0.853939 -0.215282 44.000000
3.802637 0.842495 -0.215347 47.000000
3.806179 0.831038 -0.215411 44.000000
3.812613 0.820196 -0.215670 43.000000
3.818041 0.809115 -0.215864 52.000000
3.821481 0.797602 -0.215929 69.000000
3.822933 0.785673 -0.215864 50.000000
3.821413 0.773150 -0.215605 58.000000
3.820831 0.760838 -0.215411 59.000000
3.822168 0.748920 -0.215347 56.000000
3.819548 0.736246 -0.215023 40.000000
3.820809 0.724339 -0.214958 53.000000
3.820070 0.712065 -0.214764 53.000000
3.823218 0.700522 -0.214829 37.000000
3.829277 0.689496 -0.215088 50.000000
3.829409 0.677397 -0.214958 43.000000
3.831470 0.665646 -0.214958 51.000000
3.836394 0.618101 -0.214764 38.000000
3.837287 0.606173 -0.214700 45.000000
3.842087 0.594855 -0.214894 40.000000
3.841920 0.582766 -0.214764 49.000000
3.844678 0.571123 -0.214829 43.000000
3.845424 0.559182 -0.214764 50.000000
3.846133 0.547241 -0.214700 42.000000
3.845818 0.535164 -0.214570 38.000000
3.845464 0.523094 -0.214441 41.000000
3.845072 0.511031 -0.214311 58.000000
3.844642 0.498975 -0.214182 54.000000
3.845165 0.487052 -0.214117 48.000000
3.846642 0.475253 -0.214117 58.000000
3.848082 0.463449 -0.214117 39.000000
3.854440 0.452222 -0.214441 50.000000
3.858784 0.440735 -0.214635 58.000000
3.861110 0.429004 -0.214700 54.000000
3.865384 0.417477 -0.214894 52.000000
3.863670 0.405305 -0.214700 69.000000
3.863902 0.393348 -0.214635 52.000000
3.862112 0.381198 -0.214441 60.000000
3.862270 0.369253 -0.214376 68.000000
3.864378 0.357494 -0.214441 57.000000
3.868438 0.345902 -0.214635 58.000000
3.870476 0.334118 -0.214700 91.000000
3.877449 0.322738 -0.215088 87.000000
3.877426 0.310761 -0.215023 71.000000
3.878361 0.298864 -0.215023 75.000000
3.874284 0.286597 -0.214700 57.000000
3.872159 0.274498 -0.214505 58.000000
3.869996 0.262415 -0.214311 54.000000
3.867795 0.250347 -0.214117 38.000000
3.763215 1.077686 -0.263126 25.000000
3.772259 1.067766 -0.263585 42.000000
3.775518 1.056188 -0.263585 37.000000
3.779701 1.044866 -0.263662 40.000000
3.791275 0.998151 -0.263585 35.000000
3.797214 0.987268 -0.263815 36.000000
3.799259 0.975365 -0.263738 39.000000
3.800301 0.963214 -0.263585 47.000000
3.801304 0.951066 -0.263432 35.000000
3.803235 0.939160 -0.263355 47.000000
3.804162 0.927015 -0.263202 53.000000
3.804080 0.914639 -0.262973 42.000000
3.801047 0.901582 -0.262513 38.000000
3.803795 0.889916 -0.262513 50.000000
3.808451 0.878691 -0.262667 35.000000
3.806268 0.865895 -0.262284 38.000000
3.813771 0.855306 -0.262667 47.000000
3.812483 0.842740 -0.262360 34.000000
3.815050 0.831039 -0.262360 36.000000
3.815632 0.818912 -0.262207 34.000000
3.818127 0.807202 -0.262207 37.000000
3.820585 0.795484 -0.262207 47.000000
3.824961 0.784160 -0.262360 28.000000
3.819530 0.770841 -0.261748 39.000000
3.823833 0.759509 -0.261901 34.000000
3.825167 0.747582 -0.261825 53.000000
3.826463 0.735655 -0.261748 48.000000
3.822824 0.722799 -0.261289 40.000000
3.817183 0.709607 -0.260676 34.000000
3.817380 0.697533 -0.260523 33.000000
3.821464 0.686171 -0.260676 51.000000
3.819624 0.673750 -0.260370 54.000000
3.821673 0.662029 -0.260370 40.000000
3.826635 0.650803 -0.260600 60.000000
3.827630 0.638896 -0.260523 55.000000
3.832524 0.627634 -0.260753 68.000000
3.833447 0.615715 -0.260676 68.000000
3.832363 0.603485 -0.260447 59.000000
3.837153 0.592181 -0.260676 50.000000
3.840923 0.580705 -0.260829 35.000000
3.842687 0.568919 -0.260829 55.000000
3.845401 0.557270 -0.260906 66.000000
3.850054 0.545891 -0.261136 55.000000
3.850723 0.533939 -0.261059 45.000000
3.849379 0.521720 -0.260829 58.000000
3.850961 0.509908 -0.260829 48.000000
3.850530 0.497835 -0.260676 65.000000
3.856985 0.486645 -0.261059 52.000000
3.858460 0.474809 -0.261059 60.000000
3.849131 0.425775 -0.259911 124.000000
3.874211 0.416530 -0.261748 463.000000
3.851671 0.402150 -0.259911 573.000000
3.852887 0.390331 -0.259911 281.000000
3.857043 0.378802 -0.260141 111.000000
3.858187 0.366967 -0.260141 95.000000
3.864259 0.355587 -0.260523 61.000000
3.867318 0.343907 -0.260676 73.000000
3.870342 0.332212 -0.260829 68.000000
3.874324 0.320584 -0.261059 52.000000
3.874295 0.308616 -0.260983 91.000000
3.875224 0.296729 -0.260983 55.000000
3.874127 0.284691 -0.260829 49.000000
3.871999 0.272594 -0.260600 56.000000
3.872817 0.260713 -0.260600 52.000000
3.915388 0.251527 -0.263815 21.000000
3.788337 0.813598 -0.307540 26.000000
3.838598 0.787500 -0.311444 24.000000
3.878097 0.783209 -0.314815 23.000000
3.900021 0.775189 -0.316590 31.000000
3.917044 0.766086 -0.317921 26.000000
3.922311 0.754630 -0.318187 23.000000
3.898183 0.737595 -0.315791 39.000000
3.897489 0.725086 -0.315525 38.000000
3.934969 0.719572 -0.318719 29.000000
3.914610 0.703447 -0.316678 29.000000
3.913807 0.690915 -0.316412 29.000000
3.903149 0.676693 -0.315259 27.000000
3.871821 0.622425 -0.311710 33.000000
3.887488 0.612713 -0.312952 25.000000
3.871630 0.598048 -0.311355 39.000000
3.891174 0.588848 -0.312952 29.000000
3.915624 0.580264 -0.314993 28.000000
3.898657 0.565533 -0.313307 31.000000
3.894457 0.552730 -0.312775 29.000000
3.913893 0.543243 -0.314372 36.000000
3.913567 0.530965 -0.314194 34.000000
3.915178 0.518956 -0.314194 36.000000
3.915763 0.506814 -0.314106 45.000000
3.908406 0.493676 -0.313307 37.000000
3.913857 0.482169 -0.313662 31.000000
3.908395 0.469329 -0.313041 39.000000
3.916742 0.458145 -0.313662 32.000000
3.914170 0.445676 -0.313307 33.000000
3.903639 0.432351 -0.312242 52.000000
3.887120 0.418456 -0.310645 48.000000
3.916125 0.409425 -0.313130 31.000000
3.896552 0.395300 -0.311267 40.000000
3.879903 0.381591 -0.309670 71.000000
3.875106 0.369119 -0.309137 58.000000
3.873245 0.356955 -0.308871 45.000000
3.869361 0.344629 -0.308427 46.000000
3.872385 0.332927 -0.308605 70.000000
3.876366 0.321291 -0.308871 42.000000
3.877333 0.309397 -0.308871 45.000000
3.880251 0.297653 -0.309049 65.000000
3.882139 0.285820 -0.309137 62.000000
3.883991 0.273978 -0.309226 55.000000
3.887795 0.262262 -0.309492 54.000000
3.880629 0.249822 -0.308782 22.000000
4.196159 0.847727 -0.397812 12.000000
4.233866 0.841844 -0.401457 28.000000
4.226666 0.826938 -0.400444 28.000000
4.227229 0.813590 -0.400242 22.000000
4.221886 0.799135 -0.399432 36.000000
4.218450 0.785085 -0.398825 37.000000
4.218881 0.771780 -0.398622 38.000000
4.224166 0.759362 -0.398926 40.000000
4.228436 0.746746 -0.399128 29.000000
4.235607 0.734621 -0.399634 57.000000
4.238822 0.721790 -0.399736 40.000000
4.242979 0.709111 -0.399938 48.000000
4.250043 0.696896 -0.400444 76.000000
4.248232 0.683221 -0.400039 38.000000
4.247360 0.669719 -0.399736 38.000000
4.245462 0.656076 -0.399331 49.000000
4.239586 0.641855 -0.398521 63.000000
4.243504 0.629137 -0.398723 36.000000
4.236553 0.614827 -0.397812 45.000000
4.235465 0.601406 -0.397509 41.000000
4.233348 0.587861 -0.397104 41.000000
4.233160 0.574602 -0.396901 57.000000
4.236876 0.561874 -0.397104 56.000000
4.237593 0.548745 -0.397003 55.000000
4.232348 0.534867 -0.396294 52.000000
4.236931 0.522245 -0.396598 40.000000
4.238513 0.509244 -0.396598 47.000000
4.237091 0.495891 -0.396294 65.000000
4.254408 0.484695 -0.397914 41.000000
4.264774 0.472629 -0.398825 38.000000
4.279062 0.460931 -0.400141 25.000000
4.250843 0.845653 -0.455069 18.000000
4.229040 0.827838 -0.452244 31.000000
4.244244 0.817300 -0.453713 18.000000
4.223301 0.799840 -0.451000 32.000000
4.221828 0.786152 -0.450548 24.000000
4.218356 0.772124 -0.449870 27.000000
4.216793 0.758475 -0.449418 28.000000
4.231820 0.747781 -0.450887 30.000000
4.241926 0.736153 -0.451792 26.000000
4.252001 0.724470 -0.452696 29.000000
4.263023 0.712895 -0.453713 29.000000
4.269112 0.700456 -0.454165 35.000000
4.279089 0.688618 -0.455069 30.000000
4.286089 0.676260 -0.455635 29.000000
4.281270 0.662045 -0.454843 33.000000
4.280334 0.648461 -0.454504 42.000000
4.274440 0.634161 -0.453600 28.000000
4.271449 0.620330 -0.453035 30.000000
4.269397 0.606664 -0.452583 23.000000
4.251555 0.590829 -0.450322 40.000000
4.240549 0.576045 -0.448853 37.000000
4.241311 0.562902 -0.448740 30.000000
4.238091 0.549249 -0.448175 46.000000
4.235814 0.535746 -0.447723 45.000000
4.240396 0.523113 -0.448062 24.000000
4.242967 0.510220 -0.448175 54.000000
4.258328 0.498817 -0.449757 42.000000
4.271685 0.487100 -0.451113 37.000000
4.280072 0.474759 -0.451905 24.000000
4.332879 0.467159 -0.457782 13.000000
4.276370 0.836676 -0.512303 11.000000
4.235078 0.815103 -0.506662 24.000000
4.220988 0.798965 -0.504532 39.000000
4.238049 0.788738 -0.506412 29.000000
4.230690 0.773944 -0.505158 40.000000
4.238904 0.762016 -0.505911 30.000000
4.249037 0.750390 -0.506913 32.000000
4.253274 0.737690 -0.507164 27.000000
4.266275 0.726473 -0.508543 33.000000
4.276312 0.714691 -0.509545 35.000000
4.283379 0.702372 -0.510172 35.000000
4.293350 0.690490 -0.511174 42.000000
4.286628 0.675922 -0.510046 21.000000
4.295545 0.663830 -0.510924 29.000000
4.288733 0.649309 -0.509796 22.000000
4.287761 0.635711 -0.509420 28.000000
4.281837 0.621411 -0.508417 36.000000
4.271937 0.606595 -0.506913 41.000000
4.264934 0.592256 -0.505785 41.000000
4.252967 0.577296 -0.504031 53.000000
4.246851 0.563200 -0.503028 40.000000
4.238720 0.548891 -0.501774 54.000000
4.241369 0.536009 -0.501900 61.000000
4.245947 0.523359 -0.502276 46.000000
4.257382 0.511517 -0.503529 35.000000
4.260902 0.498684 -0.503780 55.000000
4.268327 0.486285 -0.504532 53.000000
4.283603 0.474721 -0.506287 28.000000
4.248349 0.819623 -0.562005 25.000000
4.247924 0.806032 -0.561593 20.000000
4.253298 0.793540 -0.562005 37.000000
4.252790 0.779952 -0.561593 28.000000
4.255163 0.766901 -0.561593 37.000000
4.258471 0.754015 -0.561730 32.000000
4.267595 0.742134 -0.562693 27.000000
4.279616 0.730704 -0.564067 23.000000
4.289653 0.718880 -0.565167 30.000000
4.298679 0.706840 -0.566129 37.000000
4.308651 0.694910 -0.567228 27.000000
4.313699 0.682152 -0.567641 16.000000
4.312906 0.654927 -0.566953 16.000000
4.306077 0.640382 -0.565716 32.000000
4.302141 0.626313 -0.564892 41.000000
4.292274 0.611436 -0.563242 44.000000
4.283339 0.596762 -0.561730 46.000000
4.272390 0.581881 -0.559944 24.000000
4.259427 0.566812 -0.557882 39.000000
4.249359 0.552211 -0.556233 43.000000
4.249068 0.538923 -0.555958 35.000000
4.250702 0.525884 -0.555958 37.000000
4.259179 0.513670 -0.556920 29.000000
4.268604 0.501525 -0.558019 22.000000
4.276028 0.489102 -0.558844 28.000000
4.226014 0.812594 -0.610738 18.000000
4.231401 0.800177 -0.611185 16.000000
4.242585 0.788820 -0.612528 25.000000
4.251794 0.777047 -0.613572 32.000000
4.260970 0.765224 -0.614617 39.000000
4.272061 0.753696 -0.615959 38.000000
4.287993 0.742953 -0.618048 40.000000
4.295126 0.730625 -0.618794 43.000000
4.297348 0.717444 -0.618794 58.000000
4.304407 0.705057 -0.619540 36.000000
4.286351 0.634740 -0.615213 15.000000
4.286321 0.621302 -0.614915 43.000000
4.275480 0.606341 -0.612975 37.000000
4.271443 0.592404 -0.612080 41.000000
4.266382 0.578365 -0.611036 51.000000
4.261275 0.564363 -0.609992 33.000000
4.262987 0.551287 -0.609992 36.000000
4.265639 0.538330 -0.610141 49.000000
4.275121 0.526209 -0.611334 44.000000
4.282606 0.513799 -0.612230 40.000000
4.290055 0.501348 -0.613125 36.000000
4.271393 0.836896 -0.671668 23.000000
4.259404 0.820987 -0.669252 50.000000
4.261903 0.807915 -0.669252 47.000000
4.270183 0.795920 -0.670218 47.000000
4.274546 0.783172 -0.670540 39.000000
4.285671 0.771627 -0.671990 28.000000
4.299681 0.760537 -0.673923 38.000000
4.302966 0.747511 -0.674084 38.000000
4.308158 0.734804 -0.674567 37.000000
4.313312 0.722072 -0.675051 30.000000
4.272655 0.701800 -0.667963 13.000000
4.304383 0.625874 -0.671185 25.000000
4.272084 0.607803 -0.665547 46.000000
4.270018 0.594150 -0.664902 46.000000
4.269865 0.580781 -0.664580 47.000000
4.267714 0.567159 -0.663936 68.000000
4.271390 0.554317 -0.664258 47.000000
4.280905 0.542201 -0.665547 51.000000
4.290384 0.530033 -0.666835 58.000000
4.297869 0.517575 -0.667802 48.000000
4.308259 0.505421 -0.669252 35.000000
4.265953 0.833865 -0.724361 16.000000
4.274294 0.821891 -0.725399 32.000000
4.277762 0.808957 -0.725572 31.000000
4.279256 0.795649 -0.725399 27.000000
4.283615 0.782871 -0.725745 36.000000
4.290843 0.770597 -0.726610 34.000000
4.299006 0.758458 -0.727648 36.000000
4.300343 0.745096 -0.727475 44.000000
4.303579 0.732065 -0.727648 53.000000
4.304833 0.718696 -0.727475 49.000000
4.318681 0.707399 -0.729550 31.000000
4.274438 0.619577 -0.719519 50.000000
4.280220 0.607014 -0.720210 40.000000
4.285964 0.594422 -0.720902 25.000000
4.279959 0.580209 -0.719519 39.000000
4.276837 0.566428 -0.718654 51.000000
4.277578 0.553178 -0.718481 65.000000
4.287073 0.541040 -0.719864 53.000000
4.295555 0.528729 -0.721075 55.000000
4.298135 0.515666 -0.721248 45.000000
4.305566 0.503164 -0.722286 41.000000
4.290651 0.839118 -0.781409 16.000000
4.296101 0.826507 -0.781962 29.000000
4.288959 0.811496 -0.780118 48.000000
4.284665 0.797077 -0.778826 42.000000
4.287090 0.783928 -0.778826 49.000000
4.291409 0.771119 -0.779195 39.000000
4.293755 0.757949 -0.779195 49.000000
4.302839 0.745947 -0.780487 43.000000
4.308014 0.733237 -0.781040 47.000000
4.317029 0.721150 -0.782331 47.000000
4.321161 0.708220 -0.782700 37.000000
4.352426 0.699636 -0.788234 19.000000
4.311100 0.638830 -0.778826 46.000000
4.306230 0.624614 -0.777535 46.000000
4.300342 0.610295 -0.776060 49.000000
4.295379 0.596154 -0.774768 49.000000
4.283553 0.581125 -0.772186 33.000000
4.285316 0.567980 -0.772186 49.000000
4.281190 0.554074 -0.771079 53.000000
4.286769 0.541429 -0.771817 56.000000
4.293288 0.528875 -0.772739 58.000000
4.303673 0.516755 -0.774399 62.000000
4.308167 0.503891 -0.774953 51.000000
