ply
format ascii 1.0
element vertex 1246
property float x
property float y
property float z
property float intensity
end_header
3.495111 0.000767 0.238624 44.000000
3.492101 -0.009947 0.238449 46.000000
3.490058 -0.020648 0.238333 50.000000
3.494970 -0.031401 0.238624 42.000000
3.494857 -0.042123 0.238624 57.000000
3.493713 -0.052830 0.238566 43.000000
3.496529 -0.063603 0.238740 62.000000
3.495319 -0.074308 0.238682 49.000000
3.493079 -0.084983 0.238566 48.000000
3.491804 -0.095671 0.238507 48.000000
3.484509 -0.106170 0.238101 64.000000
3.484167 -0.116860 0.238101 45.000000
3.484789 -0.127585 0.238159 48.000000
3.481389 -0.138157 0.237985 57.000000
3.482944 -0.148922 0.238101 53.000000
3.482470 -0.159607 0.238101 42.000000
3.479970 -0.170193 0.237985 42.000000
3.480428 -0.180920 0.238043 57.000000
3.481851 -0.191707 0.238159 66.000000
3.482243 -0.202447 0.238217 46.000000
3.484594 -0.213312 0.238391 49.000000
3.482927 -0.223938 0.238333 52.000000
3.480232 -0.234488 0.238217 51.000000
3.475513 -0.244883 0.237985 54.000000
3.470763 -0.255251 0.237752 51.000000
3.467973 -0.265745 0.237636 55.000000
3.469131 -0.276542 0.237752 62.000000
3.475231 -0.287762 0.238159 43.000000
3.479305 -0.298850 0.238449 54.000000
3.479366 -0.309611 0.238507 48.000000
3.478400 -0.320285 0.238507 50.000000
3.475413 -0.330765 0.238391 35.000000
3.470407 -0.341035 0.238159 41.000000
3.461399 -0.350874 0.237694 38.000000
3.456335 -0.361077 0.237462 57.000000
3.454218 -0.371572 0.237404 47.000000
3.455047 -0.382387 0.237520 59.000000
3.461792 -0.393889 0.237985 45.000000
3.463542 -0.404856 0.238159 42.000000
3.467240 -0.416076 0.238449 51.000000
3.469911 -0.427199 0.238682 54.000000
3.473536 -0.438468 0.238972 47.000000
3.477124 -0.449764 0.239263 46.000000
3.471770 -0.459905 0.239030 39.000000
3.468364 -0.470285 0.238914 37.000000
3.472838 -0.481747 0.239263 41.000000
3.473320 -0.492680 0.239379 34.000000
3.473768 -0.503621 0.239495 62.000000
3.470232 -0.513983 0.239379 43.000000
3.469626 -0.524776 0.239437 37.000000
3.472932 -0.536181 0.239727 49.000000
3.467326 -0.546211 0.239495 41.000000
3.463663 -0.556529 0.239379 47.000000
3.462924 -0.567315 0.239437 42.000000
3.464122 -0.578430 0.239611 44.000000
3.462331 -0.589055 0.239611 25.000000
3.458540 -0.599333 0.239495 42.000000
3.454719 -0.609594 0.239379 36.000000
3.449885 -0.619660 0.239204 14.000000
3.453859 -0.631319 0.239553 8.000000
3.462798 0.211652 0.196022 29.000000
3.468417 0.201319 0.196254 39.000000
3.473008 0.190897 0.196439 40.000000
3.467592 0.179929 0.196161 24.000000
3.473116 0.169535 0.196392 39.000000
3.473620 0.158879 0.196392 43.000000
3.471097 0.148092 0.196254 45.000000
3.468541 0.137323 0.196115 49.000000
3.466949 0.126607 0.196022 48.000000
3.466323 0.115936 0.195976 49.000000
3.466662 0.105301 0.195976 30.000000
3.468966 0.094720 0.196069 52.000000
3.470239 0.084102 0.196115 55.000000
3.466486 0.073369 0.195930 52.000000
3.464697 0.062697 0.195838 34.000000
3.470866 0.052159 0.196115 49.000000
3.469012 0.041486 0.196022 42.000000
3.468124 0.030834 0.195976 53.000000
3.469201 0.020200 0.196022 34.000000
3.468248 0.009553 0.195976 56.000000
3.468261 -0.001087 0.195976 41.000000
3.461249 -0.011707 0.195653 43.000000
3.462196 -0.022332 0.195699 34.000000
3.461112 -0.032944 0.195653 47.000000
3.449008 -0.043416 0.195098 24.000000
3.461843 -0.054196 0.195699 37.000000
3.461661 -0.064816 0.195699 28.000000
3.462445 -0.075458 0.195745 39.000000
3.466192 -0.086178 0.195930 36.000000
3.464912 -0.096784 0.195884 43.000000
3.463600 -0.107383 0.195838 52.000000
3.465251 -0.118076 0.195930 37.000000
3.464873 -0.128707 0.195930 43.000000
3.468454 -0.139496 0.196115 44.000000
3.468010 -0.150136 0.196115 42.000000
3.468531 -0.160821 0.196161 47.000000
3.464030 -0.171266 0.195976 38.000000
3.464486 -0.181944 0.196022 38.000000
3.462914 -0.192517 0.195976 55.000000
3.456323 -0.202791 0.195699 47.000000
3.455685 -0.213394 0.195699 45.000000
3.456011 -0.224060 0.195745 44.000000
3.450324 -0.234325 0.195514 37.000000
3.455568 -0.245331 0.195791 35.000000
3.453803 -0.255858 0.195745 21.000000
3.454993 -0.266606 0.195838 34.000000
3.455155 -0.277284 0.195884 39.000000
3.452297 -0.287718 0.195791 39.000000
3.451398 -0.298308 0.195791 42.000000
3.452456 -0.309073 0.195884 27.000000
3.447513 -0.319296 0.195699 27.000000
3.443534 -0.329587 0.195560 46.000000
3.433560 -0.339269 0.195144 24.000000
3.440453 -0.350609 0.195514 35.000000
3.440355 -0.361267 0.195560 43.000000
3.436251 -0.371499 0.195421 39.000000
3.438073 -0.382369 0.195560 47.000000
3.441847 -0.393481 0.195791 42.000000
3.442608 -0.404271 0.195884 36.000000
3.443335 -0.415069 0.195976 29.000000
3.442045 -0.425631 0.195976 33.000000
3.443696 -0.436565 0.196115 19.000000
3.454228 -0.448669 0.196670 26.000000
3.445904 -0.458344 0.196346 28.000000
3.445472 -0.469048 0.196392 40.000000
3.448963 -0.480304 0.196624 30.000000
3.447474 -0.490883 0.196624 39.000000
3.449906 -0.502031 0.196808 41.000000
3.445385 -0.512174 0.196670 54.000000
3.442809 -0.522592 0.196624 26.000000
3.446126 -0.533915 0.196855 41.000000
3.441512 -0.544018 0.196716 30.000000
3.439826 -0.554574 0.196716 37.000000
3.436137 -0.564801 0.196624 34.000000
3.429462 -0.574517 0.196392 21.000000
3.430638 -0.585539 0.196531 21.000000
3.430794 -0.596402 0.196624 23.000000
3.424029 -0.606056 0.196392 25.000000
3.425103 -0.617089 0.196531 20.000000
3.368168 -0.617525 0.193942 6.000000
3.458486 0.212639 0.153013 32.000000
3.461118 0.202144 0.153081 47.000000
3.461722 0.191525 0.153081 33.000000
3.459299 0.180747 0.152979 34.000000
3.456843 0.169986 0.152878 57.000000
3.457348 0.159380 0.152878 41.000000
3.448834 0.148387 0.152573 60.000000
3.452269 0.137925 0.152674 54.000000
3.451677 0.127296 0.152641 53.000000
3.451052 0.116672 0.152607 48.000000
3.454391 0.106175 0.152708 65.000000
3.453701 0.095550 0.152674 46.000000
3.453978 0.084953 0.152674 45.000000
3.453223 0.074335 0.152641 45.000000
3.452436 0.063722 0.152607 51.000000
3.450617 0.053099 0.152539 59.000000
3.452762 0.042537 0.152607 52.000000
3.448879 0.031907 0.152471 46.000000
3.449960 0.021332 0.152505 42.000000
3.453007 0.010757 0.152607 45.000000
3.455023 0.000163 0.152674 48.000000
3.452009 -0.010428 0.152573 45.000000
3.450961 -0.021012 0.152539 43.000000
3.448882 -0.031581 0.152471 61.000000
3.445771 -0.042125 0.152370 59.000000
3.441628 -0.052634 0.152234 52.000000
3.439451 -0.063156 0.152167 48.000000
3.438242 -0.073686 0.152133 41.000000
3.438999 -0.084259 0.152167 46.000000
3.438725 -0.094809 0.152167 45.000000
3.441415 -0.105451 0.152268 63.000000
3.441075 -0.116008 0.152268 56.000000
3.440703 -0.126565 0.152268 38.000000
3.440298 -0.137120 0.152268 55.000000
3.436866 -0.147545 0.152167 40.000000
3.436397 -0.158089 0.152167 47.000000
3.434897 -0.168582 0.152133 46.000000
3.434364 -0.179119 0.152133 44.000000
3.434797 -0.189710 0.152167 46.000000
3.435196 -0.200305 0.152201 48.000000
3.436560 -0.210966 0.152268 44.000000
3.438889 -0.221701 0.152370 46.000000
3.440187 -0.232386 0.152437 45.000000
3.440455 -0.243009 0.152471 58.000000
3.439693 -0.253563 0.152471 55.000000
3.438899 -0.264115 0.152471 42.000000
3.435084 -0.274425 0.152370 37.000000
3.433230 -0.284880 0.152336 43.000000
3.430348 -0.295240 0.152268 42.000000
3.429426 -0.305762 0.152268 46.000000
3.428472 -0.316282 0.152268 49.000000
3.430470 -0.327084 0.152370 49.000000
3.434424 -0.338097 0.152539 43.000000
3.439336 -0.349239 0.152742 38.000000
3.445206 -0.360518 0.152979 48.000000
3.445078 -0.371193 0.153013 45.000000
3.442929 -0.381650 0.152979 38.000000
3.441742 -0.392211 0.152979 57.000000
3.432581 -0.401838 0.152708 46.000000
3.427364 -0.411890 0.152573 34.000000
3.422116 -0.421913 0.152437 48.000000
3.415848 -0.431783 0.152268 38.000000
3.420454 -0.443031 0.152471 51.000000
3.419079 -0.453523 0.152471 37.000000
3.420642 -0.464414 0.152573 53.000000
3.425141 -0.475732 0.152776 40.000000
3.423665 -0.486238 0.152776 44.000000
3.424135 -0.497027 0.152844 47.000000
3.423583 -0.507676 0.152878 36.000000
3.420033 -0.517878 0.152810 41.000000
3.424354 -0.529285 0.153013 46.000000
3.423701 -0.539944 0.153047 44.000000
3.424002 -0.550763 0.153115 49.000000
3.426241 -0.561912 0.153250 44.000000
3.422530 -0.572091 0.153182 33.000000
3.419773 -0.582421 0.153148 27.000000
3.423878 -0.593935 0.153352 38.000000
3.412199 -0.602697 0.153013 25.000000
3.418202 -0.614579 0.153284 35.000000
3.404504 -0.622903 0.152878 8.000000
3.403559 -0.633528 0.152911 7.000000
3.452760 0.254807 0.110779 23.000000
3.450534 0.244000 0.110714 20.000000
3.443287 0.232870 0.110541 27.000000
3.447976 0.222564 0.110627 28.000000
3.444651 0.211738 0.110541 47.000000
3.444286 0.201111 0.110519 46.000000
3.443889 0.190487 0.110497 27.000000
3.440464 0.179711 0.110411 34.000000
3.437005 0.168957 0.110324 30.000000
3.434510 0.158273 0.110259 42.000000
3.431983 0.147605 0.110194 36.000000
3.432420 0.137075 0.110194 46.000000
3.433823 0.126581 0.110216 38.000000
3.430199 0.115909 0.110129 55.000000
3.430538 0.105385 0.110129 42.000000
3.427847 0.094776 0.110065 38.000000
3.423125 0.084134 0.109956 33.000000
3.424366 0.073654 0.109978 48.000000
3.421577 0.063091 0.109913 44.000000
3.419755 0.052562 0.109870 39.000000
3.420901 0.042083 0.109891 47.000000
3.417014 0.031549 0.109805 31.000000
3.420094 0.021086 0.109870 45.000000
3.421143 0.010596 0.109891 41.000000
3.423159 0.000101 0.109935 36.000000
3.422143 -0.010398 0.109913 39.000000
3.425094 -0.020915 0.109978 38.000000
3.423015 -0.031405 0.109935 38.000000
3.425901 -0.041942 0.110000 37.000000
3.422758 -0.052408 0.109935 37.000000
3.419582 -0.062854 0.109870 38.000000
3.421372 -0.073387 0.109913 36.000000
3.418133 -0.083811 0.109848 40.000000
3.418859 -0.094324 0.109870 35.000000
3.418553 -0.104813 0.109870 36.000000
3.417216 -0.115267 0.109848 32.000000
3.421842 -0.125932 0.109956 42.000000
3.423438 -0.136509 0.110000 38.000000
3.423003 -0.147011 0.110000 44.000000
3.425532 -0.157649 0.110065 41.000000
3.424033 -0.168109 0.110043 36.000000
3.424500 -0.178665 0.110065 44.000000
3.429925 -0.189499 0.110194 46.000000
3.426334 -0.199847 0.110129 52.000000
3.425704 -0.210358 0.110129 39.000000
3.425043 -0.220867 0.110129 49.000000
3.423352 -0.231307 0.110108 37.000000
3.420631 -0.241668 0.110065 37.000000
3.415885 -0.251869 0.109978 28.000000
3.408119 -0.261814 0.109826 35.000000
3.411286 -0.272586 0.109913 40.000000
3.408441 -0.282885 0.109870 33.000000
3.413533 -0.293853 0.110000 30.000000
3.412616 -0.304325 0.110000 33.000000
3.410670 -0.314701 0.109978 31.000000
3.411680 -0.325353 0.110021 30.000000
3.415640 -0.336306 0.110129 31.000000
3.417576 -0.347086 0.110194 31.000000
3.417490 -0.357673 0.110216 45.000000
3.416376 -0.368156 0.110216 29.000000
3.418212 -0.378965 0.110281 43.000000
3.417033 -0.389450 0.110281 34.000000
3.415823 -0.399932 0.110281 29.000000
3.408623 -0.409696 0.110151 34.000000
3.406358 -0.420029 0.110129 32.000000
3.406045 -0.430603 0.110151 45.000000
3.403717 -0.440922 0.110129 27.000000
3.402348 -0.451363 0.110129 40.000000
3.404910 -0.462335 0.110216 36.000000
3.406446 -0.473191 0.110281 38.000000
3.403989 -0.483499 0.110259 40.000000
3.402489 -0.493940 0.110259 37.000000
3.403925 -0.504816 0.110324 39.000000
3.405326 -0.515705 0.110389 45.000000
3.405704 -0.526454 0.110432 44.000000
3.404073 -0.536900 0.110432 29.000000
3.403397 -0.547500 0.110454 38.000000
3.400714 -0.557777 0.110432 39.000000
3.404904 -0.569195 0.110562 34.000000
3.398213 -0.578801 0.110454 36.000000
3.397407 -0.589394 0.110476 21.000000
3.406413 -0.601724 0.110714 16.000000
3.404551 -0.612172 0.110714 28.000000
3.413475 -0.624590 0.110952 22.000000
3.406628 -0.634146 0.110844 44.000000
3.431191 -0.649607 0.111428 16.000000
3.479254 -0.669752 0.112532 10.000000
3.464467 0.255111 0.068169 14.000000
3.428327 0.241882 0.067826 31.000000
3.431048 0.231497 0.067845 50.000000
3.428748 0.220777 0.067817 34.000000
3.435398 0.210623 0.067873 30.000000
3.431037 0.199792 0.067826 60.000000
3.431634 0.189265 0.067826 44.000000
3.431199 0.178684 0.067817 47.000000
3.422742 0.167717 0.067734 57.000000
3.420244 0.157078 0.067706 48.000000
3.417713 0.146456 0.067678 57.000000
3.412151 0.135733 0.067623 59.000000
3.410553 0.125190 0.067604 55.000000
3.412920 0.114793 0.067623 76.000000
3.407259 0.104140 0.067567 47.000000
3.410561 0.093768 0.067595 53.000000
3.407834 0.083231 0.067567 55.000000
3.406074 0.072733 0.067549 54.000000
3.407281 0.062301 0.067558 65.000000
3.408456 0.051863 0.067567 53.000000
3.409598 0.041418 0.067577 44.000000
3.410709 0.030966 0.067586 36.000000
3.411788 0.020508 0.067595 48.000000
3.411835 0.010040 0.067595 43.000000
3.410850 -0.000427 0.067586 61.000000
3.411833 -0.010895 0.067595 38.000000
3.408783 -0.021343 0.067567 36.000000
3.406702 -0.031782 0.067549 44.000000
3.405588 -0.042221 0.067540 58.000000
3.406443 -0.052684 0.067549 52.000000
3.408265 -0.063172 0.067567 52.000000
3.409055 -0.073650 0.067577 39.000000
3.402814 -0.083960 0.067521 52.000000
3.401541 -0.094371 0.067512 51.000000
3.399237 -0.104745 0.067493 52.000000
3.397900 -0.115139 0.067484 41.000000
3.397531 -0.125563 0.067484 30.000000
3.393133 -0.135825 0.067447 32.000000
3.393699 -0.146278 0.067456 44.000000
3.397230 -0.156874 0.067493 55.000000
3.400728 -0.167493 0.067530 56.000000
3.402195 -0.178030 0.067549 44.000000
3.406625 -0.188744 0.067595 55.000000
3.406030 -0.199195 0.067595 32.000000
3.411391 -0.210013 0.067651 42.000000
3.411729 -0.220542 0.067660 40.000000
3.413032 -0.231144 0.067678 53.000000
3.407319 -0.241260 0.067632 32.000000
3.403571 -0.251491 0.067604 48.000000
3.399792 -0.261701 0.067577 56.000000
3.396980 -0.271971 0.067558 41.000000
3.391147 -0.281976 0.067512 38.000000
3.390266 -0.292379 0.067512 44.000000
3.390349 -0.302868 0.067521 34.000000
3.389404 -0.313268 0.067521 42.000000
3.391413 -0.323950 0.067549 45.000000
3.390404 -0.334354 0.067549 44.000000
3.390356 -0.344855 0.067558 33.000000
3.394255 -0.355776 0.067604 53.000000
3.395136 -0.366403 0.067623 47.000000
3.395983 -0.377038 0.067641 41.000000
3.397791 -0.387796 0.067669 54.000000
3.395592 -0.398102 0.067660 63.000000
3.396341 -0.408757 0.067678 51.000000
3.396063 -0.419297 0.067688 53.000000
3.395753 -0.429840 0.067697 39.000000
3.391443 -0.439870 0.067669 55.000000
3.386113 -0.449745 0.067632 61.000000
3.385708 -0.460266 0.067641 42.000000
3.382299 -0.470376 0.067623 50.000000
3.377870 -0.480328 0.067595 51.000000
3.375391 -0.490545 0.067586 41.000000
3.374859 -0.501045 0.067595 41.000000
3.376272 -0.511846 0.067623 64.000000
3.378638 -0.522814 0.067660 50.000000
3.376031 -0.533021 0.067651 40.000000
3.378329 -0.544013 0.067688 30.000000
3.378617 -0.554699 0.067706 50.000000
3.381830 -0.565887 0.067752 37.000000
3.377121 -0.575756 0.067725 40.000000
3.371398 -0.585429 0.067688 38.000000
3.364663 -0.594899 0.067641 32.000000
3.374632 -0.607345 0.067752 33.000000
3.373736 -0.617876 0.067762 36.000000
3.380672 -0.629873 0.067845 24.000000
3.384618 -0.641359 0.067900 24.000000
3.388526 -0.652876 0.067956 19.000000
3.442343 0.243418 0.024788 16.000000
3.405161 0.230279 0.024914 33.000000
3.402858 0.219637 0.024924 36.000000
3.402517 0.209134 0.024928 34.000000
3.400148 0.198518 0.024938 34.000000
3.400741 0.188086 0.024938 32.000000
3.401302 0.177652 0.024938 41.000000
3.401831 0.167216 0.024938 35.000000
3.402328 0.156778 0.024938 39.000000
3.402793 0.146340 0.024938 31.000000
3.399229 0.135738 0.024951 39.000000
3.393634 0.125086 0.024971 39.000000
3.397000 0.114776 0.024961 47.000000
3.393338 0.104230 0.024974 36.000000
3.393642 0.093818 0.024974 59.000000
3.392914 0.083382 0.024978 44.000000
3.394154 0.072994 0.024974 36.000000
3.397361 0.062637 0.024964 29.000000
3.390538 0.052103 0.024987 37.000000
3.387682 0.041663 0.024997 36.000000
3.390794 0.031298 0.024987 49.000000
3.389874 0.020889 0.024991 47.000000
3.390922 0.010492 0.024987 36.000000
3.390939 0.000089 0.024987 44.000000
3.395923 -0.010328 0.024971 35.000000
3.395875 -0.020746 0.024971 50.000000
3.393795 -0.031147 0.024978 43.000000
3.390684 -0.041523 0.024987 36.000000
3.387541 -0.051880 0.024997 52.000000
3.384367 -0.062219 0.025007 49.000000
3.383160 -0.072581 0.025011 49.000000
3.379922 -0.082887 0.025021 44.000000
3.380651 -0.093283 0.025017 47.000000
3.380349 -0.103655 0.025017 42.000000
3.380015 -0.114025 0.025017 44.000000
3.379650 -0.124394 0.025017 40.000000
3.376255 -0.134644 0.025027 41.000000
3.376825 -0.145044 0.025024 40.000000
3.374366 -0.155312 0.025031 40.000000
3.373873 -0.165663 0.025031 46.000000
3.377344 -0.176221 0.025017 52.000000
3.377786 -0.186636 0.025014 30.000000
3.380193 -0.197172 0.025004 45.000000
3.381568 -0.207663 0.024997 35.000000
3.379917 -0.217973 0.025001 61.000000
3.381228 -0.228475 0.024994 53.000000
3.379514 -0.238777 0.024997 38.000000
3.377768 -0.249071 0.025001 34.000000
3.375991 -0.259357 0.025004 35.000000
3.375179 -0.269713 0.025004 49.000000
3.374336 -0.280067 0.025004 52.000000
3.378442 -0.290845 0.024987 31.000000
3.377534 -0.301208 0.024987 43.000000
3.377590 -0.311660 0.024984 36.000000
3.377614 -0.322116 0.024981 43.000000
3.381585 -0.332965 0.024964 20.000000
3.377563 -0.343036 0.024974 41.000000
3.377489 -0.353500 0.024971 24.000000
3.374400 -0.363647 0.024978 38.000000
3.370287 -0.373668 0.024987 34.000000
3.368131 -0.383893 0.024991 29.000000
3.371904 -0.394805 0.024974 37.000000
3.370677 -0.405148 0.024974 32.000000
3.374381 -0.416097 0.024958 48.000000
3.375072 -0.426698 0.024951 54.000000
3.379698 -0.437819 0.024931 37.000000
3.379330 -0.448317 0.024928 45.000000
3.376948 -0.458548 0.024931 35.000000
3.374535 -0.468769 0.024934 40.000000
3.371100 -0.478839 0.024941 42.000000
3.368626 -0.489036 0.024944 41.000000
3.366120 -0.499222 0.024948 49.000000
3.365562 -0.509696 0.024944 37.000000
3.365959 -0.520324 0.024938 40.000000
3.354468 -0.529094 0.024971 20.000000
3.359740 -0.540492 0.024948 27.000000
3.358067 -0.550797 0.024948 26.000000
3.362279 -0.562084 0.024928 44.000000
3.348709 -0.570386 0.024968 10.000000
3.359752 -0.582875 0.024924 22.000000
3.372720 -0.595784 0.024875 15.000000
3.372845 -0.606482 0.024868 26.000000
3.379822 -0.618444 0.024838 16.000000
3.388724 -0.630819 0.024802 13.000000
3.370524 0.218211 -0.016631 33.000000
3.375170 0.208115 -0.016694 41.000000
3.377789 0.197875 -0.016725 39.000000
3.378380 0.187512 -0.016725 34.000000
3.381935 0.177303 -0.016772 50.000000
3.381464 0.166877 -0.016757 37.000000
3.383958 0.156594 -0.016788 51.000000
3.378429 0.145954 -0.016694 67.000000
3.378861 0.135588 -0.016694 55.000000
3.379261 0.125221 -0.016694 54.000000
3.380629 0.114887 -0.016710 49.000000
3.383963 0.104607 -0.016757 63.000000
3.380270 0.094114 -0.016694 45.000000
3.380543 0.083743 -0.016694 57.000000
3.383783 0.073436 -0.016741 65.000000
3.374995 0.062888 -0.016600 45.000000
3.370173 0.052456 -0.016521 48.000000
3.366319 0.042066 -0.016458 55.000000
3.366432 0.031739 -0.016458 46.000000
3.366513 0.021410 -0.016458 36.000000
3.369563 0.011091 -0.016505 50.000000
3.369581 0.000754 -0.016505 62.000000
3.372567 -0.009593 -0.016553 44.000000
3.375522 -0.019958 -0.016600 37.000000
3.375445 -0.030314 -0.016600 42.000000
3.371337 -0.040621 -0.016537 53.000000
3.371196 -0.050964 -0.016537 42.000000
3.369025 -0.061269 -0.016505 46.000000
3.368820 -0.071605 -0.016505 42.000000
3.365586 -0.081867 -0.016458 41.000000
3.365319 -0.092192 -0.016458 54.000000
3.367020 -0.102577 -0.016490 33.000000
3.367688 -0.112940 -0.016505 60.000000
3.362330 -0.123088 -0.016427 42.000000
3.364934 -0.133522 -0.016474 57.000000
3.363509 -0.143802 -0.016458 47.000000
3.365050 -0.154213 -0.016490 46.000000
3.365560 -0.164585 -0.016505 41.000000
3.363042 -0.174805 -0.016474 42.000000
3.365485 -0.185287 -0.016521 35.000000
3.369892 -0.195902 -0.016600 37.000000
3.365283 -0.205995 -0.016537 46.000000
3.365633 -0.216383 -0.016553 56.000000
3.362957 -0.226573 -0.016521 46.000000
3.358257 -0.236608 -0.016458 49.000000
3.360507 -0.247130 -0.016505 41.000000
3.359733 -0.257439 -0.016505 45.000000
3.356934 -0.267586 -0.016474 41.000000
3.356097 -0.277884 -0.016474 54.000000
3.352240 -0.287922 -0.016427 57.000000
3.351341 -0.298205 -0.016427 49.000000
3.351406 -0.308577 -0.016443 50.000000
3.347458 -0.318573 -0.016395 46.000000
3.347460 -0.328939 -0.016411 56.000000
3.348424 -0.339409 -0.016443 32.000000
3.354328 -0.350409 -0.016553 58.000000
3.356220 -0.361019 -0.016600 49.000000
3.353109 -0.371094 -0.016568 49.000000
3.351954 -0.381379 -0.016568 50.000000
3.354741 -0.392126 -0.016631 52.000000
3.354515 -0.402536 -0.016647 56.000000
3.354257 -0.412948 -0.016662 40.000000
3.354958 -0.423487 -0.016694 58.000000
3.356617 -0.434163 -0.016741 49.000000
3.355270 -0.444459 -0.016741 45.000000
3.353890 -0.454751 -0.016741 48.000000
3.349508 -0.464626 -0.016694 51.000000
3.347077 -0.474759 -0.016678 45.000000
3.348573 -0.485456 -0.016725 56.000000
3.348058 -0.495874 -0.016741 50.000000
3.346520 -0.506143 -0.016741 35.000000
3.350881 -0.517324 -0.016835 46.000000
3.350266 -0.527757 -0.016851 57.000000
3.350605 -0.538351 -0.016882 52.000000
3.351898 -0.549113 -0.016929 42.000000
3.350197 -0.559394 -0.016929 42.000000
3.347480 -0.569502 -0.016914 55.000000
3.353598 -0.581136 -0.017039 27.000000
3.350815 -0.591248 -0.017024 32.000000
3.358826 -0.603294 -0.017181 27.000000
3.365811 -0.615215 -0.017322 25.000000
3.372958 0.228090 -0.057222 21.000000
3.363667 0.217094 -0.056945 29.000000
3.359328 0.206465 -0.056806 41.000000
3.357950 0.196040 -0.056751 39.000000
3.354543 0.185515 -0.056640 44.000000
3.355097 0.175223 -0.056640 61.000000
3.355618 0.164928 -0.056640 56.000000
3.357107 0.154679 -0.056667 45.000000
3.358565 0.144422 -0.056695 46.000000
3.357993 0.134077 -0.056667 55.000000
3.360386 0.123849 -0.056723 42.000000
3.360750 0.113539 -0.056723 42.000000
3.372073 0.103569 -0.057028 29.000000
3.365381 0.093027 -0.056834 34.000000
3.362652 0.082627 -0.056751 54.000000
3.364889 0.072354 -0.056806 44.000000
3.366094 0.062049 -0.056834 61.000000
3.366269 0.051722 -0.056834 35.000000
3.362414 0.041344 -0.056723 39.000000
3.357527 0.030980 -0.056584 59.000000
3.357606 0.020679 -0.056584 34.000000
3.353655 0.010364 -0.056473 39.000000
3.350672 0.000074 -0.056390 41.000000
3.352656 -0.010211 -0.056445 47.000000
3.352609 -0.020497 -0.056445 41.000000
3.348532 -0.030747 -0.056334 39.000000
3.346423 -0.040996 -0.056279 39.000000
3.346281 -0.051263 -0.056279 44.000000
3.346109 -0.061529 -0.056279 47.000000
3.343905 -0.071752 -0.056223 53.000000
3.340671 -0.081938 -0.056140 48.000000
3.340404 -0.092187 -0.056140 42.000000
3.343103 -0.102525 -0.056223 42.000000
3.342773 -0.112781 -0.056223 55.000000
3.339414 -0.122927 -0.056140 37.000000
3.340020 -0.133211 -0.056168 42.000000
3.341593 -0.143543 -0.056223 55.000000
3.345131 -0.153976 -0.056334 45.000000
3.343645 -0.164190 -0.056307 60.000000
3.335139 -0.174033 -0.056085 36.000000
3.338582 -0.184484 -0.056196 44.000000
3.336004 -0.194610 -0.056140 40.000000
3.335392 -0.204843 -0.056140 49.000000
3.332752 -0.214947 -0.056085 39.000000
3.327090 -0.224836 -0.055946 39.000000
3.330374 -0.235323 -0.056057 38.000000
3.333624 -0.245832 -0.056168 36.000000
3.325877 -0.255524 -0.055974 51.000000
3.330060 -0.266123 -0.056112 33.000000
3.324246 -0.275927 -0.055974 36.000000
3.326372 -0.286380 -0.056057 33.000000
3.320499 -0.296142 -0.055918 39.000000
3.318580 -0.306236 -0.055891 32.000000
3.317625 -0.316416 -0.055891 51.000000
3.319623 -0.326885 -0.055974 40.000000
3.321588 -0.337370 -0.056057 34.000000
3.320537 -0.347559 -0.056057 44.000000
3.317467 -0.357531 -0.056001 51.000000
3.325297 -0.368696 -0.056251 35.000000
3.325144 -0.379009 -0.056279 52.000000
3.320987 -0.388861 -0.056196 36.000000
3.326725 -0.399880 -0.056390 35.000000
3.329451 -0.410573 -0.056501 37.000000
3.330160 -0.421035 -0.056556 30.000000
3.334801 -0.432019 -0.056723 35.000000
3.330486 -0.441854 -0.056640 46.000000
3.332087 -0.452472 -0.056723 39.000000
3.330683 -0.462693 -0.056723 43.000000
3.327268 -0.472629 -0.056667 39.000000
3.325803 -0.482834 -0.056667 40.000000
3.322328 -0.492743 -0.056612 43.000000
3.320801 -0.502933 -0.056612 38.000000
3.323194 -0.513729 -0.056723 48.000000
3.319627 -0.523611 -0.056667 45.000000
3.319979 -0.534110 -0.056723 45.000000
3.316352 -0.543970 -0.056667 27.000000
3.319598 -0.554964 -0.056806 43.000000
3.317879 -0.565146 -0.056806 38.000000
3.336814 -0.578903 -0.057389 19.000000
3.320256 -0.586535 -0.056973 29.000000
3.321392 -0.597248 -0.057056 32.000000
3.323478 -0.608153 -0.057167 25.000000
3.335626 0.226234 -0.098047 31.000000
3.338299 0.216128 -0.098128 35.000000
3.336951 0.205762 -0.098047 29.000000
3.335572 0.195407 -0.097967 40.000000
3.339148 0.185339 -0.098088 47.000000
3.338703 0.175041 -0.098047 49.000000
3.335233 0.164601 -0.097886 32.000000
3.340713 0.154598 -0.098088 52.000000
3.338177 0.144219 -0.097967 40.000000
3.336607 0.133897 -0.097886 45.000000
3.335005 0.123586 -0.097806 48.000000
3.334369 0.113320 -0.097765 43.000000
3.330707 0.102967 -0.097604 55.000000
3.332006 0.092776 -0.097644 42.000000
3.333274 0.082577 -0.097685 53.000000
3.335509 0.072394 -0.097765 55.000000
3.336715 0.062179 -0.097806 40.000000
3.339887 0.051988 -0.097927 45.000000
3.341030 0.041753 -0.097967 63.000000
3.341142 0.031503 -0.097967 51.000000
3.343222 0.021265 -0.098047 56.000000
3.340273 0.010998 -0.097927 42.000000
3.338293 0.000750 -0.097846 34.000000
3.340278 -0.009497 -0.097927 39.000000
3.335237 -0.019715 -0.097725 54.000000
3.333163 -0.029929 -0.097644 41.000000
3.328060 -0.040094 -0.097443 50.000000
3.327921 -0.050304 -0.097443 54.000000
3.330748 -0.060569 -0.097564 40.000000
3.334543 -0.070873 -0.097725 48.000000
3.333311 -0.081078 -0.097685 50.000000
3.333046 -0.091304 -0.097685 52.000000
3.331752 -0.101499 -0.097644 47.000000
3.332423 -0.111754 -0.097685 50.000000
3.326074 -0.121757 -0.097443 56.000000
3.323687 -0.131881 -0.097362 40.000000
3.320272 -0.141949 -0.097241 48.000000
3.321817 -0.152226 -0.097322 56.000000
3.323331 -0.162515 -0.097403 47.000000
3.320821 -0.172606 -0.097322 45.000000
3.319278 -0.182738 -0.097282 46.000000
3.320697 -0.193037 -0.097362 54.000000
3.319092 -0.203163 -0.097322 44.000000
3.319450 -0.213409 -0.097362 43.000000
3.320773 -0.223726 -0.097443 53.000000
3.323061 -0.234124 -0.097564 46.000000
3.323324 -0.244391 -0.097604 37.000000
3.320566 -0.254433 -0.097523 52.000000
3.316782 -0.264381 -0.097403 38.000000
3.313964 -0.274390 -0.097322 52.000000
3.314102 -0.284642 -0.097362 50.000000
3.311222 -0.294630 -0.097282 39.000000
3.308313 -0.304604 -0.097201 49.000000
3.307363 -0.314753 -0.097201 49.000000
3.309365 -0.325191 -0.097322 56.000000
3.309345 -0.335444 -0.097362 47.000000
3.310288 -0.345803 -0.097443 43.000000
3.306232 -0.355636 -0.097322 45.000000
3.308104 -0.366108 -0.097443 49.000000
3.306965 -0.376255 -0.097443 54.000000
3.308773 -0.386748 -0.097564 48.000000
3.310547 -0.397254 -0.097685 38.000000
3.312288 -0.407776 -0.097806 44.000000
3.313004 -0.418186 -0.097886 39.000000
3.315669 -0.428862 -0.098047 49.000000
3.316319 -0.439295 -0.098128 35.000000
3.321886 -0.450407 -0.098410 32.000000
3.318509 -0.460322 -0.098330 44.000000
3.319060 -0.470782 -0.098410 30.000000
3.322544 -0.481680 -0.098612 49.000000
3.320062 -0.491724 -0.098571 39.000000
3.318538 -0.501908 -0.098571 40.000000
3.314020 -0.511629 -0.098450 44.000000
3.307500 -0.521016 -0.098249 41.000000
3.307859 -0.531478 -0.098330 47.000000
3.304241 -0.541300 -0.098249 32.000000
3.300594 -0.551106 -0.098168 39.000000
3.295932 -0.560726 -0.098047 31.000000
3.298134 -0.571518 -0.098209 36.000000
3.294397 -0.581286 -0.098128 33.000000
3.293582 -0.591567 -0.098168 26.000000
3.287820 -0.600950 -0.098007 25.000000
3.315431 -0.616518 -0.099216 7.000000
3.316220 0.233299 -0.137219 32.000000
3.311939 0.222787 -0.136957 40.000000
3.308620 0.212368 -0.136748 52.000000
3.310253 0.202277 -0.136800 53.000000
3.311855 0.192179 -0.136853 36.000000
3.312429 0.182017 -0.136853 53.000000
3.312972 0.171854 -0.136853 35.000000
3.312486 0.161640 -0.136800 60.000000
3.316957 0.151660 -0.137010 44.000000
3.317407 0.141483 -0.137010 58.000000
3.315829 0.131225 -0.136905 48.000000
3.313223 0.120942 -0.136748 59.000000
3.313578 0.110776 -0.136748 50.000000
3.315899 0.100671 -0.136853 45.000000
3.317190 0.090525 -0.136905 53.000000
3.315455 0.080299 -0.136800 40.000000
3.317683 0.070170 -0.136905 45.000000
3.316884 0.059972 -0.136853 62.000000
3.319050 0.049827 -0.136957 48.000000
3.317190 0.039619 -0.136853 62.000000
3.314300 0.029414 -0.136696 55.000000
3.315373 0.019252 -0.136748 50.000000
3.313419 0.009075 -0.136643 48.000000
3.306441 -0.001091 -0.136277 36.000000
3.304425 -0.011229 -0.136172 51.000000
3.304375 -0.021367 -0.136172 33.000000
3.301298 -0.031477 -0.136015 50.000000
3.300188 -0.041593 -0.135963 41.000000
3.303040 -0.051763 -0.136120 32.000000
3.302866 -0.061896 -0.136120 45.000000
3.307652 -0.072136 -0.136382 64.000000
3.308414 -0.082308 -0.136434 57.000000
3.304153 -0.092348 -0.136225 72.000000
3.298863 -0.102331 -0.135963 41.000000
3.304522 -0.112654 -0.136277 47.000000
3.302165 -0.122718 -0.136172 57.000000
3.303768 -0.132928 -0.136277 48.000000
3.303345 -0.143063 -0.136277 50.000000
3.299898 -0.153059 -0.136120 77.000000
3.311382 -0.163770 -0.136748 57.000000
3.313856 -0.174084 -0.136905 51.000000
3.310315 -0.184085 -0.136748 58.000000
3.311728 -0.194356 -0.136853 49.000000
3.307129 -0.204271 -0.136643 39.000000
3.312466 -0.214802 -0.136957 31.000000
3.310795 -0.224896 -0.136905 41.000000
3.307101 -0.234841 -0.136748 40.000000
3.314333 -0.245573 -0.137167 45.000000
3.307590 -0.255282 -0.136853 53.000000
3.297832 -0.264712 -0.136382 51.000000
3.295014 -0.274663 -0.136277 46.000000
3.290175 -0.284428 -0.136068 50.000000
3.292272 -0.294787 -0.136225 43.000000
3.294335 -0.305161 -0.136382 33.000000
3.290401 -0.314982 -0.136225 52.000000
3.295382 -0.325663 -0.136539 29.000000
3.300328 -0.336377 -0.136853 50.000000
3.301267 -0.346709 -0.136957 33.000000
3.293238 -0.356086 -0.136591 43.000000
3.286175 -0.365528 -0.136277 52.000000
3.288014 -0.375947 -0.136434 52.000000
3.289821 -0.386381 -0.136591 29.000000
3.288620 -0.396472 -0.136591 43.000000
3.289371 -0.406804 -0.136696 43.000000
3.289098 -0.417019 -0.136748 55.000000
3.290774 -0.427493 -0.136905 58.000000
3.292417 -0.437981 -0.137062 51.000000
3.290068 -0.447946 -0.137010 44.000000
3.291646 -0.458449 -0.137167 52.000000
3.292201 -0.468827 -0.137272 43.000000
3.292724 -0.479212 -0.137376 54.000000
3.292226 -0.489458 -0.137429 59.000000
3.294658 -0.500154 -0.137638 29.000000
3.290148 -0.509802 -0.137481 47.000000
3.288568 -0.519894 -0.137481 53.000000
3.287944 -0.530139 -0.137533 45.000000
3.285316 -0.540062 -0.137481 48.000000
3.279704 -0.549480 -0.137272 50.000000
3.279972 -0.559875 -0.137376 37.000000
3.278239 -0.569935 -0.137376 30.000000
3.278441 -0.580337 -0.137481 29.000000
3.274680 -0.590039 -0.137376 37.000000
3.271872 -0.599903 -0.137324 34.000000
3.312736 0.234896 -0.178140 26.000000
3.307468 0.224327 -0.177752 40.000000
3.304157 0.213922 -0.177493 45.000000
3.300814 0.203538 -0.177235 32.000000
3.300426 0.193352 -0.177170 33.000000
3.299011 0.183115 -0.177040 42.000000
3.297565 0.172889 -0.176911 34.000000
3.300073 0.162870 -0.177040 44.000000
3.303548 0.152882 -0.177235 48.000000
3.306992 0.142876 -0.177429 39.000000
3.308412 0.132769 -0.177493 40.000000
3.304815 0.122471 -0.177235 50.000000
3.305175 0.112331 -0.177235 43.000000
3.299519 0.102006 -0.176846 33.000000
3.303807 0.091994 -0.177105 35.000000
3.301081 0.081784 -0.176911 45.000000
3.303312 0.071699 -0.177040 37.000000
3.303516 0.061564 -0.177040 44.000000
3.308678 0.051506 -0.177364 44.000000
3.306825 0.041330 -0.177235 40.000000
3.304940 0.031166 -0.177105 38.000000
3.305021 0.021026 -0.177105 40.000000
3.307065 0.010893 -0.177235 33.000000
3.296106 0.000746 -0.176523 42.000000
3.294097 -0.009361 -0.176393 35.000000
3.289064 -0.019437 -0.176070 46.000000
3.288988 -0.029527 -0.176070 45.000000
3.285889 -0.039581 -0.175876 42.000000
3.284755 -0.049647 -0.175811 39.000000
3.288578 -0.059797 -0.176070 46.000000
3.293367 -0.069993 -0.176393 41.000000
3.295132 -0.080145 -0.176523 43.000000
3.296865 -0.090309 -0.176652 54.000000
3.296573 -0.100423 -0.176652 39.000000
3.301236 -0.110704 -0.176976 37.000000
3.304870 -0.120978 -0.177235 34.000000
3.301491 -0.130998 -0.177040 41.000000
3.292101 -0.140741 -0.176458 54.000000
3.293648 -0.150932 -0.176587 48.000000
3.291176 -0.160939 -0.176458 51.000000
3.288674 -0.170931 -0.176329 38.000000
3.288134 -0.181020 -0.176329 55.000000
3.286566 -0.191049 -0.176264 38.000000
3.289949 -0.201375 -0.176523 40.000000
3.294295 -0.211789 -0.176846 50.000000
3.293630 -0.221894 -0.176846 44.000000
3.294924 -0.232138 -0.176976 47.000000
3.294197 -0.242246 -0.176976 48.000000
3.291448 -0.252199 -0.176846 52.000000
3.286680 -0.261978 -0.176587 37.000000
3.278899 -0.271483 -0.176134 54.000000
3.279045 -0.281627 -0.176199 58.000000
3.276177 -0.291508 -0.176070 44.000000
3.272287 -0.301283 -0.175876 60.000000
3.277308 -0.311889 -0.176264 45.000000
3.277328 -0.322040 -0.176329 54.000000
3.278311 -0.332294 -0.176458 47.000000
3.280253 -0.342662 -0.176652 57.000000
3.281171 -0.352938 -0.176782 47.000000
3.285032 -0.363552 -0.177105 46.000000
3.285884 -0.373854 -0.177235 50.000000
3.283731 -0.383818 -0.177170 48.000000
3.287491 -0.394485 -0.177493 46.000000
3.283294 -0.404203 -0.177299 37.000000
3.286989 -0.414900 -0.177623 37.000000
3.282732 -0.424598 -0.177429 49.000000
3.276467 -0.434011 -0.177105 41.000000
3.279076 -0.444598 -0.177364 40.000000
3.278685 -0.454793 -0.177429 44.000000
3.277274 -0.464850 -0.177429 42.000000
3.276820 -0.475045 -0.177493 32.000000
3.273373 -0.484804 -0.177364 59.000000
3.272857 -0.494993 -0.177429 34.000000
3.274281 -0.505489 -0.177623 45.000000
3.270744 -0.515221 -0.177493 37.000000
3.268162 -0.525095 -0.177429 41.000000
3.264566 -0.534796 -0.177299 39.000000
3.264879 -0.545138 -0.177429 44.000000
3.266142 -0.555654 -0.177623 45.000000
3.266389 -0.566013 -0.177752 35.000000
3.262672 -0.575685 -0.177623 39.000000
3.263836 -0.586221 -0.177817 32.000000
3.261041 -0.596052 -0.177752 36.000000
3.282742 -0.610435 -0.179305 17.000000
3.293846 0.221563 -0.216051 29.000000
3.282570 0.210686 -0.215132 14.000000
3.289172 0.200982 -0.215591 22.000000
3.292760 0.191064 -0.215821 25.000000
3.287357 0.180631 -0.215362 26.000000
3.289887 0.170648 -0.215515 24.000000
3.285416 0.160309 -0.215132 22.000000
3.281909 0.150046 -0.214826 30.000000
3.286338 0.140148 -0.215132 38.000000
3.291734 0.130263 -0.215515 31.000000
3.291121 0.120127 -0.215438 35.000000
3.286492 0.109861 -0.215056 27.000000
3.265885 0.099135 -0.213448 19.000000
3.285111 0.089639 -0.214902 43.000000
3.278393 0.079388 -0.214367 29.000000
3.278621 0.069330 -0.214367 31.000000
3.274831 0.059197 -0.214060 32.000000
3.269016 0.049058 -0.213601 21.000000
3.278124 0.039139 -0.214290 42.000000
3.277231 0.029072 -0.214214 32.000000
3.283287 0.019055 -0.214673 28.000000
3.290310 0.009003 -0.215209 33.000000
3.290322 -0.001091 -0.215209 37.000000
3.295288 -0.011201 -0.215591 33.000000
3.283274 -0.021238 -0.214673 35.000000
3.301140 -0.031475 -0.216051 32.000000
3.274109 -0.041273 -0.213984 39.000000
3.273967 -0.051318 -0.213984 36.000000
3.279775 -0.061472 -0.214443 30.000000
3.265615 -0.071234 -0.213372 48.000000
3.291297 -0.081888 -0.215362 27.000000
3.278074 -0.091628 -0.214367 43.000000
3.303689 -0.102479 -0.216357 34.000000
3.291401 -0.112211 -0.215438 46.000000
3.296023 -0.122492 -0.215821 43.000000
3.290650 -0.132404 -0.215438 42.000000
3.279271 -0.142029 -0.214596 47.000000
3.300732 -0.153097 -0.216280 28.000000
3.280329 -0.162245 -0.214749 40.000000
3.269859 -0.171789 -0.213984 49.000000
3.287237 -0.182810 -0.215362 32.000000
3.271730 -0.192023 -0.214214 37.000000
3.268140 -0.201876 -0.213984 39.000000
3.279445 -0.212672 -0.214902 45.000000
3.289720 -0.223472 -0.215744 34.000000
3.306921 -0.234828 -0.217122 27.000000
3.318118 -0.245853 -0.218041 31.000000
3.292494 -0.254122 -0.216127 31.000000
3.296669 -0.264619 -0.216510 30.000000
3.287892 -0.274072 -0.215898 30.000000
3.266175 -0.282362 -0.214290 50.000000
3.289128 -0.294507 -0.216127 34.000000
3.296152 -0.305329 -0.216740 35.000000
3.314058 -0.317239 -0.218194 28.000000
3.314062 -0.327502 -0.218270 33.000000
3.301138 -0.336459 -0.217352 35.000000
3.295132 -0.346066 -0.216969 29.000000
3.276211 -0.354251 -0.215591 30.000000
3.289973 -0.365949 -0.216740 33.000000
3.271994 -0.374121 -0.215438 32.000000
3.254986 -0.382302 -0.214214 45.000000
3.289436 -0.396570 -0.216969 25.000000
3.265444 -0.403854 -0.215209 36.000000
3.264189 -0.413870 -0.215209 41.000000
3.264882 -0.424139 -0.215362 38.000000
3.260600 -0.433760 -0.215132 34.000000
3.265181 -0.444566 -0.215591 44.000000
3.268740 -0.455267 -0.215974 24.000000
3.262392 -0.464592 -0.215591 37.000000
3.258978 -0.474313 -0.215438 32.000000
3.258494 -0.484455 -0.215515 37.000000
3.257978 -0.494599 -0.215591 34.000000
3.262358 -0.505506 -0.216051 35.000000
3.257836 -0.515046 -0.215821 40.000000
3.262148 -0.525989 -0.216280 53.000000
3.256583 -0.535349 -0.215974 33.000000
3.252958 -0.545009 -0.215821 44.000000
3.248322 -0.554484 -0.215591 32.000000
3.243659 -0.563936 -0.215362 38.000000
3.236022 -0.572844 -0.214902 44.000000
3.230324 -0.582063 -0.214596 39.000000
3.223619 -0.591074 -0.214214 37.000000
3.230613 -0.602603 -0.214902 11.000000
3.945961 -0.061090 -0.313928 16.000000
3.907911 -0.072490 -0.310557 21.000000
3.900700 -0.084328 -0.309936 30.000000
3.894448 -0.096147 -0.309403 37.000000
3.881191 -0.107734 -0.308250 29.000000
3.874869 -0.119456 -0.307718 33.000000
3.872493 -0.131275 -0.307540 38.000000
3.866100 -0.142934 -0.307008 40.000000
3.862657 -0.154674 -0.306742 36.000000
3.858184 -0.166352 -0.306387 39.000000
3.855666 -0.178096 -0.306209 48.000000
3.857091 -0.190022 -0.306387 37.000000
3.855495 -0.201803 -0.306298 34.000000
3.861820 -0.214017 -0.306919 54.000000
3.874071 -0.226621 -0.308073 70.000000
3.858445 -0.237586 -0.306742 34.000000
3.866644 -0.250002 -0.307540 51.000000
3.860890 -0.261526 -0.307097 41.000000
3.860070 -0.273370 -0.307097 39.000000
3.852259 -0.284696 -0.306476 31.000000
3.852361 -0.296590 -0.306564 28.000000
3.849447 -0.308249 -0.306387 49.000000
3.845505 -0.319809 -0.306121 55.000000
3.846491 -0.331777 -0.306298 50.000000
3.847439 -0.343754 -0.306476 45.000000
3.847358 -0.355648 -0.306564 48.000000
3.852198 -0.368018 -0.307097 43.000000
3.852042 -0.379933 -0.307185 55.000000
3.859776 -0.392657 -0.307984 23.000000
3.865488 -0.405225 -0.308605 49.000000
3.866207 -0.417296 -0.308782 57.000000
3.883718 -0.431246 -0.310468 29.000000
3.892273 -0.444289 -0.311355 23.000000
3.898806 -0.457157 -0.312065 29.000000
3.947819 -0.475192 -0.316590 9.000000
3.972053 -0.061321 -0.366431 12.000000
3.918133 -0.072529 -0.360965 25.000000
3.901978 -0.084210 -0.359345 31.000000
3.896728 -0.096060 -0.358839 34.000000
3.886470 -0.107742 -0.357827 32.000000
3.880155 -0.119483 -0.357219 23.000000
3.876787 -0.131286 -0.356915 34.000000
3.869406 -0.142925 -0.356207 27.000000
3.865968 -0.154677 -0.355903 49.000000
3.866469 -0.166579 -0.356004 40.000000
3.866934 -0.178486 -0.356106 46.000000
3.868355 -0.190446 -0.356308 37.000000
3.864772 -0.202158 -0.356004 36.000000
3.872081 -0.214452 -0.356814 34.000000
3.876370 -0.226619 -0.357320 42.000000
3.880622 -0.238814 -0.357827 32.000000
3.885828 -0.251102 -0.358434 25.000000
3.881068 -0.262755 -0.358029 47.000000
3.878259 -0.274521 -0.357827 42.000000
3.868469 -0.285761 -0.356915 56.000000
3.864599 -0.297400 -0.356612 36.000000
3.857718 -0.308780 -0.356004 48.000000
3.850803 -0.320121 -0.355397 55.000000
3.843856 -0.331423 -0.354790 21.000000
3.852730 -0.344096 -0.355802 29.000000
3.847694 -0.355550 -0.355397 45.000000
3.847575 -0.367447 -0.355498 53.000000
3.845440 -0.379152 -0.355397 29.000000
3.851187 -0.391650 -0.356106 28.000000
3.863820 -0.404911 -0.357523 30.000000
3.874429 -0.418040 -0.358738 52.000000
3.879061 -0.430582 -0.359345 34.000000
3.886619 -0.443493 -0.360256 24.000000
3.895121 -0.456570 -0.361268 23.000000
3.905246 -0.071762 -0.406354 30.000000
3.912954 -0.083914 -0.407258 25.000000
3.885860 -0.095258 -0.404206 32.000000
3.881576 -0.107069 -0.403754 22.000000
3.879243 -0.118916 -0.403528 29.000000
3.872902 -0.130615 -0.402850 20.000000
3.878441 -0.142716 -0.403528 39.000000
3.878977 -0.154654 -0.403641 45.000000
3.886426 -0.166896 -0.404545 31.000000
3.892843 -0.179139 -0.405336 43.000000
3.893268 -0.191130 -0.405449 39.000000
3.889686 -0.202918 -0.405110 40.000000
3.893013 -0.215070 -0.405562 36.000000
3.897295 -0.227302 -0.406128 49.000000
3.899554 -0.239441 -0.406467 33.000000
3.893844 -0.251083 -0.405901 35.000000
3.905943 -0.263900 -0.407371 64.000000
3.900159 -0.275532 -0.406806 62.000000
3.893350 -0.287057 -0.406128 46.000000
3.877591 -0.297857 -0.404432 33.000000
3.874678 -0.309594 -0.404206 49.000000
3.868759 -0.321068 -0.403641 34.000000
3.870725 -0.333192 -0.403980 60.000000
3.867706 -0.344889 -0.403754 43.000000
3.866630 -0.356753 -0.403754 59.000000
3.863539 -0.368425 -0.403528 31.000000
3.868323 -0.380861 -0.404206 34.000000
3.870102 -0.393029 -0.404545 40.000000
3.871842 -0.405211 -0.404884 35.000000
3.874532 -0.417514 -0.405336 52.000000
3.871258 -0.429180 -0.405110 28.000000
3.883744 -0.442631 -0.406693 33.000000
3.877434 -0.453966 -0.406128 32.000000
3.856293 -0.463486 -0.403867 14.000000
3.891242 -0.083982 -0.453521 21.000000
3.884023 -0.095751 -0.452644 37.000000
3.881727 -0.107612 -0.452393 41.000000
3.883362 -0.119581 -0.452644 35.000000
3.878019 -0.131328 -0.452017 45.000000
3.878590 -0.143261 -0.452143 33.000000
3.880115 -0.155238 -0.452393 50.000000
3.883585 -0.167311 -0.452895 34.000000
3.895937 -0.179816 -0.454524 42.000000
3.904286 -0.192204 -0.455652 31.000000
3.908631 -0.204439 -0.456279 45.000000
3.916901 -0.216921 -0.457407 43.000000
3.919189 -0.229109 -0.457783 38.000000
3.917477 -0.241071 -0.457657 32.000000
3.913749 -0.252898 -0.457281 30.000000
3.916914 -0.265171 -0.457783 52.000000
3.910144 -0.276768 -0.457031 26.000000
3.905319 -0.288472 -0.456529 29.000000
3.896502 -0.299845 -0.455527 23.000000
3.895564 -0.311798 -0.455527 28.000000
3.890633 -0.323420 -0.455025 42.000000
3.887646 -0.335185 -0.454775 23.000000
3.874741 -0.346055 -0.453271 28.000000
3.863782 -0.357031 -0.452017 20.000000
3.864643 -0.369072 -0.452268 24.000000
3.869417 -0.381509 -0.453020 41.000000
3.867241 -0.393278 -0.452895 20.000000
3.863057 -0.404831 -0.452519 29.000000
3.852919 -0.415726 -0.451391 25.000000
3.854583 -0.427872 -0.451767 27.000000
3.832551 -0.437340 -0.449135 13.000000
3.931320 -0.095009 -0.507302 22.000000
3.902296 -0.106285 -0.503317 32.000000
3.890071 -0.117895 -0.501667 53.000000
3.894641 -0.129995 -0.502354 34.000000
3.891254 -0.141835 -0.501942 32.000000
3.887831 -0.153654 -0.501530 30.000000
3.894269 -0.165877 -0.502492 31.000000
3.899678 -0.178096 -0.503317 40.000000
3.907028 -0.190445 -0.504416 38.000000
3.910382 -0.202636 -0.504966 47.000000
3.914687 -0.214904 -0.505653 44.000000
3.924887 -0.227545 -0.507165 40.000000
3.929114 -0.239888 -0.507852 55.000000
3.920451 -0.251433 -0.506753 23.000000
3.936462 -0.264591 -0.509089 46.000000
3.931680 -0.276388 -0.508539 47.000000
3.928838 -0.288304 -0.508265 43.000000
3.922009 -0.299902 -0.507440 48.000000
3.908234 -0.310911 -0.505653 36.000000
3.897391 -0.322083 -0.504279 45.000000
3.891450 -0.333615 -0.503591 29.000000
3.875609 -0.344236 -0.501530 39.000000
3.866643 -0.355399 -0.500430 43.000000
3.866521 -0.367354 -0.500568 41.000000
3.871290 -0.379795 -0.501392 37.000000
3.871093 -0.391770 -0.501530 31.000000
3.879724 -0.404673 -0.502904 39.000000
3.878464 -0.416574 -0.502904 36.000000
3.887013 -0.429560 -0.504279 17.000000
3.892863 -0.096643 -0.548973 19.000000
3.885629 -0.108395 -0.547929 20.000000
3.889231 -0.120436 -0.548525 25.000000
3.888843 -0.132368 -0.548525 30.000000
3.888419 -0.144298 -0.548525 32.000000
3.890922 -0.156345 -0.548973 33.000000
3.900303 -0.168706 -0.550465 46.000000
3.910633 -0.181171 -0.552106 36.000000
3.921910 -0.193750 -0.553896 24.000000
3.930184 -0.206245 -0.555239 39.000000
3.932495 -0.218465 -0.555686 43.000000
3.954510 -0.231853 -0.559118 29.000000
3.995232 -0.246530 -0.565384 10.000000
3.965034 -0.269107 -0.561057 20.000000
3.949394 -0.280224 -0.558819 36.000000
3.942600 -0.291903 -0.557924 35.000000
3.933798 -0.303392 -0.556731 34.000000
3.925949 -0.314908 -0.555686 30.000000
3.912154 -0.325888 -0.553747 30.000000
3.888477 -0.335938 -0.550316 22.000000
3.873639 -0.346636 -0.548227 21.000000
3.868619 -0.358155 -0.547630 20.000000
3.864549 -0.369740 -0.547183 38.000000
3.865365 -0.381789 -0.547481 35.000000
3.865159 -0.393746 -0.547630 19.000000
3.884585 -0.407764 -0.550763 16.000000
3.986259 -0.097036 -0.612066 11.000000
3.917870 -0.107392 -0.600951 30.000000
3.911603 -0.119231 -0.599984 33.000000
3.902341 -0.130932 -0.598534 56.000000
3.907839 -0.143121 -0.599501 47.000000
3.913299 -0.155345 -0.600467 56.000000
3.917734 -0.167561 -0.601273 50.000000
3.927060 -0.180033 -0.602884 53.000000
3.941275 -0.192805 -0.605300 35.000000
3.942637 -0.204998 -0.605622 45.000000
3.941004 -0.217039 -0.605461 25.000000
3.949187 -0.229645 -0.606911 20.000000
3.972653 -0.279966 -0.611260 34.000000
3.953074 -0.290775 -0.608200 45.000000
3.946259 -0.302449 -0.607233 58.000000
3.940393 -0.314162 -0.606428 46.000000
3.923674 -0.324944 -0.603850 42.000000
3.911842 -0.336050 -0.602078 44.000000
3.902928 -0.347349 -0.600790 41.000000
3.892016 -0.358416 -0.599179 40.000000
3.885986 -0.369886 -0.598373 37.000000
3.881887 -0.381517 -0.597890 27.000000
3.876770 -0.393026 -0.597246 23.000000
3.894196 -0.406868 -0.600306 14.000000
3.951498 -0.098081 -0.655177 18.000000
3.939364 -0.109878 -0.653102 27.000000
3.922272 -0.121450 -0.650161 32.000000
3.919912 -0.133416 -0.649815 34.000000
3.915547 -0.145296 -0.649124 38.000000
3.911146 -0.157152 -0.648432 34.000000
3.918518 -0.169488 -0.649815 60.000000
3.922899 -0.181736 -0.650680 49.000000
3.938063 -0.194543 -0.653448 38.000000
3.959087 -0.207753 -0.657253 24.000000
3.970232 -0.220550 -0.659328 21.000000
3.957539 -0.280800 -0.657772 12.000000
3.953712 -0.292723 -0.657253 22.000000
3.939047 -0.303795 -0.654831 31.000000
3.931224 -0.315329 -0.653620 31.000000
3.910607 -0.325759 -0.650161 42.000000
3.900757 -0.336995 -0.648605 33.000000
3.892838 -0.348348 -0.647394 30.000000
3.894693 -0.360561 -0.647913 32.000000
3.902393 -0.373350 -0.649469 41.000000
3.902209 -0.385417 -0.649642 34.000000
3.908848 -0.398183 -0.651026 24.000000
3.916424 -0.411096 -0.652583 20.000000
3.917651 -0.096722 -0.696370 51.000000
3.916354 -0.108713 -0.696186 50.000000
3.913055 -0.120637 -0.695632 54.000000
3.913648 -0.132675 -0.695817 40.000000
3.915187 -0.144754 -0.696186 47.000000
3.914725 -0.156765 -0.696186 48.000000
3.922081 -0.169114 -0.697662 52.000000
3.925470 -0.181327 -0.698399 40.000000
3.929804 -0.193612 -0.699322 58.000000
3.939988 -0.206234 -0.701351 43.000000
3.940318 -0.218375 -0.701535 37.000000
3.956112 -0.280181 -0.705225 36.000000
3.941512 -0.291302 -0.702642 43.000000
3.935700 -0.303015 -0.701720 39.000000
3.925934 -0.314381 -0.700060 39.000000
3.918096 -0.325853 -0.698768 52.000000
3.912181 -0.337450 -0.697846 58.000000
3.906233 -0.349013 -0.696924 41.000000
3.909059 -0.361357 -0.697662 72.000000
3.914780 -0.374003 -0.698953 55.000000
3.922417 -0.386881 -0.700613 39.000000
3.938811 -0.400705 -0.703933 28.000000
3.978618 -0.417096 -0.711681 7.000000
3.992244 -0.086826 -0.759310 16.000000
3.966471 -0.098448 -0.754211 26.000000
3.958309 -0.110400 -0.752642 40.000000
3.950111 -0.122303 -0.751073 38.000000
3.945797 -0.134289 -0.750288 25.000000
3.937527 -0.146106 -0.748719 28.000000
3.933141 -0.158029 -0.747935 35.000000
3.937536 -0.170305 -0.748916 65.000000
3.936015 -0.182339 -0.748719 26.000000
3.942293 -0.194751 -0.750092 26.000000
3.944615 -0.206998 -0.750681 29.000000
3.944941 -0.219153 -0.750877 32.000000
