ply
format ascii 1.0
element vertex 1274
property float x
property float y
property float z
property float intensity
end_header
2.683146 -0.148028 0.422096 44.000000
2.681691 -0.156202 0.421953 46.000000
2.689103 -0.164910 0.423097 31.000000
2.682658 -0.172780 0.422239 22.000000
2.682115 -0.181010 0.422239 19.000000
2.678585 -0.189030 0.421810 21.000000
2.677993 -0.197247 0.421810 61.000000
2.677375 -0.205462 0.421810 20.000000
2.695477 -0.215163 0.424526 6.000000
2.215740 0.164073 0.327781 6.000000
2.583558 0.103765 0.375875 18.000000
2.604669 0.096607 0.378627 13.000000
2.597027 0.088347 0.377578 46.000000
2.581431 0.079890 0.375482 28.000000
2.641124 0.073619 0.383344 42.000000
2.653230 0.065809 0.384917 58.000000
2.645491 0.057498 0.383869 48.000000
2.646646 0.049399 0.384000 39.000000
2.667601 0.041601 0.386752 68.000000
2.652847 0.033233 0.384786 45.000000
2.681685 0.025361 0.388586 58.000000
2.709508 0.017307 0.392255 180.000000
2.645109 0.008790 0.383738 45.000000
2.659994 0.000676 0.385703 54.000000
2.678820 -0.007540 0.388193 121.000000
2.665897 -0.015681 0.386489 60.000000
2.674758 -0.023941 0.387669 62.000000
2.659802 -0.031966 0.385703 63.000000
2.676543 -0.040383 0.387931 66.000000
2.684336 -0.048739 0.388979 72.000000
2.683183 -0.056953 0.388848 76.000000
2.682996 -0.065185 0.388848 67.000000
2.689720 -0.073607 0.389766 75.000000
2.684527 -0.081707 0.389110 69.000000
2.675347 -0.089642 0.387931 61.000000
2.667133 -0.097559 0.386883 49.000000
2.678708 -0.106214 0.388455 70.000000
2.669456 -0.114049 0.387276 60.000000
2.679987 -0.122739 0.388717 63.000000
2.668706 -0.130427 0.387276 77.000000
2.662353 -0.138304 0.386489 60.000000
2.655977 -0.146144 0.385703 111.000000
2.658485 -0.154464 0.386096 81.000000
2.619407 -0.160253 0.380986 35.000000
2.660455 -0.170965 0.386489 105.000000
2.631233 -0.177190 0.382689 44.000000
2.644522 -0.186239 0.384524 52.000000
2.658769 -0.195444 0.386489 72.000000
2.629491 -0.201400 0.382689 43.000000
2.648625 -0.211044 0.385310 66.000000
2.595602 -0.214827 0.378365 37.000000
2.605796 -0.223724 0.379806 30.000000
2.600160 -0.231277 0.379151 36.000000
2.651760 -0.244077 0.386096 64.000000
2.601653 -0.247509 0.379544 35.000000
2.607788 -0.256169 0.380461 35.000000
2.613894 -0.264869 0.381379 22.000000
2.611097 -0.272681 0.381117 29.000000
2.594477 -0.278992 0.379020 38.000000
2.546312 -0.281711 0.372730 24.000000
2.539526 -0.288849 0.371943 10.000000
2.159510 -0.299417 0.322277 7.000000
2.207501 0.362584 0.302236 46.000000
2.214484 0.356760 0.302949 41.000000
2.209684 0.349032 0.302236 36.000000
2.210745 0.342251 0.302236 55.000000
2.217674 0.336363 0.302949 45.000000
2.220659 0.329851 0.303187 42.000000
2.217731 0.322463 0.302711 44.000000
2.216744 0.315377 0.302474 59.000000
2.215734 0.308300 0.302236 43.000000
2.219621 0.301903 0.302593 43.000000
2.215616 0.294436 0.301998 48.000000
2.215524 0.287509 0.301879 53.000000
2.215411 0.280585 0.301760 51.000000
2.221188 0.274398 0.302355 48.000000
2.215120 0.266748 0.301522 54.000000
2.210997 0.259369 0.300928 53.000000
2.206850 0.252019 0.300333 49.000000
2.214520 0.246018 0.301165 43.000000
2.207368 0.238366 0.300214 40.000000
2.202164 0.230968 0.299501 56.000000
2.205826 0.224514 0.299857 36.000000
2.206504 0.217746 0.299857 45.000000
2.215068 0.211735 0.300809 42.000000
2.213730 0.204755 0.300571 58.000000
2.211381 0.197695 0.300214 46.000000
2.211977 0.190910 0.300214 39.000000
2.211563 0.184040 0.300095 53.000000
2.211128 0.177174 0.299976 51.000000
2.212651 0.170467 0.300095 39.000000
2.207223 0.163235 0.299382 62.000000
2.210684 0.156675 0.299738 40.000000
2.217098 0.150298 0.300452 57.000000
2.213585 0.143237 0.299976 46.000000
2.221942 0.136937 0.300928 56.000000
2.219378 0.129944 0.300571 34.000000
2.214810 0.122857 0.299976 58.000000
2.216168 0.116114 0.300095 43.000000
2.216514 0.109314 0.300095 61.000000
2.213863 0.102375 0.299738 43.000000
2.217143 0.095712 0.300095 45.000000
2.216434 0.088869 0.299976 59.000000
2.224484 0.055036 0.300809 52.000000
2.220672 0.048123 0.300333 49.000000
2.218824 0.041272 0.300095 46.000000
2.221918 0.034512 0.300452 31.000000
2.227971 0.027773 0.301165 50.000000
2.228045 0.020937 0.301165 59.000000
2.227107 0.014095 0.301047 46.000000
2.228132 0.007266 0.301165 49.000000
2.231123 0.000432 0.301522 45.000000
2.225156 -0.006399 0.300809 38.000000
2.215197 -0.013172 0.299619 44.000000
2.209189 -0.019917 0.298906 44.000000
2.221528 -0.054110 0.300452 58.000000
2.225321 -0.061032 0.300928 63.000000
2.226116 -0.067888 0.301047 50.000000
2.222920 -0.074619 0.300690 60.000000
2.222681 -0.081439 0.300690 35.000000
2.214483 -0.087946 0.299738 42.000000
2.214203 -0.094740 0.299738 61.000000
2.213902 -0.101533 0.299738 40.000000
2.214572 -0.108372 0.299857 50.000000
2.214229 -0.115166 0.299857 43.000000
2.211883 -0.121850 0.299619 42.000000
2.212489 -0.128693 0.299738 38.000000
2.215057 -0.135661 0.300095 57.000000
2.212649 -0.142329 0.299857 48.000000
2.216165 -0.149382 0.300333 50.000000
2.210744 -0.155834 0.299738 40.000000
2.211246 -0.162688 0.299857 49.000000
2.208756 -0.169320 0.299619 39.000000
2.210206 -0.176253 0.299857 49.000000
2.206686 -0.182788 0.299501 46.000000
2.211061 -0.189980 0.300095 26.000000
2.207501 -0.196500 0.299738 55.000000
2.206887 -0.203272 0.299738 43.000000
2.211196 -0.210509 0.300333 40.000000
2.216469 -0.217872 0.301047 48.000000
2.216778 -0.224770 0.301165 43.000000
2.216078 -0.231570 0.301165 43.000000
2.211408 -0.237945 0.300690 36.000000
2.210667 -0.244729 0.300690 33.000000
2.210893 -0.251621 0.300809 39.000000
2.205179 -0.257829 0.300214 35.000000
2.203392 -0.264476 0.300095 43.000000
2.200599 -0.270993 0.299857 59.000000
2.204683 -0.278362 0.300452 42.000000
2.208743 -0.285759 0.301047 42.000000
2.207855 -0.292534 0.301047 44.000000
2.207932 -0.299439 0.301165 38.000000
2.204052 -0.305804 0.300809 53.000000
2.207036 -0.313120 0.301284 46.000000
2.208030 -0.320174 0.301522 43.000000
2.207038 -0.326946 0.301522 45.000000
2.204060 -0.333420 0.301284 45.000000
2.207934 -0.340935 0.301879 39.000000
2.206878 -0.347707 0.301879 47.000000
2.210702 -0.355262 0.302474 39.000000
2.209602 -0.362042 0.302474 36.000000
2.208481 -0.368819 0.302474 45.000000
2.203423 -0.374929 0.301998 38.000000
2.202263 -0.381687 0.301998 35.000000
2.201082 -0.388442 0.301998 42.000000
2.199879 -0.395193 0.301998 35.000000
2.203541 -0.402830 0.302593 32.000000
2.199366 -0.409046 0.302236 40.000000
2.201027 -0.416344 0.302593 38.000000
2.203640 -0.423842 0.303068 51.000000
2.201355 -0.430411 0.302949 36.000000
2.197102 -0.436584 0.302593 47.000000
2.197699 -0.443714 0.302830 43.000000
2.197300 -0.450653 0.302949 31.000000
2.193963 -0.456989 0.302711 51.000000
2.187693 -0.462693 0.302117 15.000000
2.216376 0.364631 0.275719 48.000000
2.223373 0.358779 0.276359 62.000000
2.219553 0.351180 0.275826 65.000000
2.220620 0.344369 0.275826 67.000000
2.222649 0.337704 0.275932 65.000000
2.222691 0.330737 0.275826 51.000000
2.219760 0.323344 0.275398 57.000000
2.217788 0.316112 0.275078 64.000000
2.214808 0.308758 0.274651 77.000000
2.218701 0.302364 0.274971 71.000000
2.217647 0.295293 0.274758 49.000000
2.220515 0.288744 0.274971 60.000000
2.219417 0.281680 0.274758 64.000000
2.220271 0.274870 0.274758 48.000000
2.217155 0.267581 0.274331 61.000000
2.215991 0.260546 0.274117 53.000000
2.210853 0.253069 0.273476 45.000000
2.209642 0.246065 0.273263 52.000000
2.211375 0.239391 0.273370 71.000000
2.210121 0.232398 0.273156 68.000000
2.213792 0.225919 0.273476 72.000000
2.218432 0.219517 0.273903 49.000000
2.221075 0.212899 0.274117 58.000000
2.221717 0.206084 0.274117 62.000000
2.222339 0.199267 0.274117 54.000000
2.218978 0.192106 0.273690 67.000000
2.217575 0.185132 0.273476 56.000000
2.217141 0.178248 0.273370 80.000000
2.217678 0.171445 0.273370 53.000000
2.214227 0.164347 0.272942 78.000000
2.216704 0.157694 0.273156 77.000000
2.216186 0.150825 0.273049 65.000000
2.218623 0.144154 0.273263 71.000000
2.218062 0.137285 0.273156 58.000000
2.219465 0.130538 0.273263 56.000000
2.214892 0.123452 0.272729 51.000000
2.213274 0.116552 0.272515 73.000000
2.213621 0.109761 0.272515 74.000000
2.216927 0.103108 0.272836 58.000000
2.216240 0.096263 0.272729 67.000000
2.216525 0.089463 0.272729 71.000000
2.214802 0.082589 0.272515 61.000000
2.217032 0.075861 0.272729 56.000000
2.220236 0.069151 0.273049 43.000000
2.219443 0.062312 0.272942 60.000000
2.214654 0.055379 0.272408 53.000000
2.216802 0.048627 0.272622 68.000000
2.213958 0.041770 0.272302 57.000000
2.219047 0.035055 0.272836 71.000000
2.223121 0.028297 0.273263 58.000000
2.219220 0.021439 0.272836 57.000000
2.216293 0.014611 0.272515 85.000000
2.217321 0.007815 0.272622 63.000000
2.213357 0.001011 0.272195 54.000000
2.213350 -0.005779 0.272195 69.000000
2.209345 -0.012546 0.271768 79.000000
2.204325 -0.019280 0.271234 52.000000
2.207238 -0.026079 0.271554 76.000000
2.210130 -0.032895 0.271875 57.000000
2.215984 -0.039784 0.272515 53.000000
2.219827 -0.046666 0.272942 74.000000
2.220668 -0.053501 0.273049 63.000000
2.218505 -0.060259 0.272836 61.000000
2.219304 -0.067095 0.272942 66.000000
2.209150 -0.073571 0.271875 36.000000
2.211895 -0.080457 0.272195 59.000000
2.205677 -0.087007 0.271554 73.000000
2.205399 -0.093773 0.271554 62.000000
2.205101 -0.100539 0.271554 52.000000
2.208755 -0.107497 0.271981 60.000000
2.207422 -0.114222 0.271875 60.000000
2.204082 -0.120830 0.271554 51.000000
2.209657 -0.127937 0.272195 61.000000
2.207435 -0.161816 0.272195 46.000000
2.209902 -0.168816 0.272515 56.000000
2.208383 -0.175516 0.272408 57.000000
2.202879 -0.181880 0.271875 58.000000
2.203302 -0.188723 0.271981 69.000000
2.204693 -0.195658 0.272195 55.000000
2.208043 -0.202785 0.272622 44.000000
2.213349 -0.210123 0.273263 70.000000
2.212694 -0.216912 0.273263 48.000000
2.210040 -0.223499 0.273049 53.000000
2.211322 -0.230485 0.273263 63.000000
2.208627 -0.237056 0.273049 59.000000
2.208877 -0.243940 0.273156 64.000000
2.200783 -0.270421 0.272622 59.000000
2.202903 -0.277545 0.272942 60.000000
2.204013 -0.284557 0.273156 62.000000
2.197216 -0.290534 0.272515 60.000000
2.199270 -0.297674 0.272836 53.000000
2.199331 -0.304557 0.272942 57.000000
2.200355 -0.311582 0.273156 47.000000
2.202341 -0.318759 0.273476 48.000000
2.199385 -0.325223 0.273263 56.000000
2.197394 -0.331820 0.273156 68.000000
2.202262 -0.339470 0.273797 53.000000
2.203174 -0.346534 0.274010 66.000000
2.202101 -0.353292 0.274010 55.000000
2.199044 -0.359725 0.273797 44.000000
2.205776 -0.367779 0.274651 83.000000
2.202677 -0.374211 0.274437 61.000000
2.201518 -0.380967 0.274437 56.000000
2.203277 -0.388238 0.274758 63.000000
2.200118 -0.394644 0.274544 59.000000
2.200853 -0.401750 0.274758 48.000000
2.200588 -0.408682 0.274864 60.000000
2.204208 -0.416355 0.275398 57.000000
2.203897 -0.423303 0.275505 47.000000
2.203564 -0.430253 0.275612 49.000000
2.194431 -0.435462 0.274758 48.000000
2.193085 -0.442192 0.274758 51.000000
2.191718 -0.448918 0.274758 57.000000
2.186437 -0.454830 0.274331 46.000000
2.178222 -0.460096 0.273583 40.000000
2.202076 -0.472201 0.276359 8.000000
2.215189 -0.482129 0.277961 6.000000
2.210304 0.362652 0.248377 39.000000
2.214354 0.356345 0.248662 46.000000
2.213470 0.349239 0.248472 46.000000
2.210597 0.341836 0.248092 42.000000
2.214588 0.335501 0.248377 56.000000
2.214622 0.328558 0.248282 54.000000
2.212664 0.321332 0.247997 46.000000
2.210683 0.314120 0.247712 59.000000
2.209665 0.307061 0.247522 41.000000
2.208624 0.300012 0.247332 50.000000
2.208547 0.293103 0.247237 64.000000
2.207461 0.286069 0.247048 54.000000
2.207341 0.279170 0.246953 61.000000
2.208187 0.272396 0.246953 64.000000
2.206048 0.265262 0.246668 54.000000
2.203885 0.258144 0.246383 55.000000
2.213568 0.252401 0.247237 38.000000
2.208396 0.244947 0.246668 59.000000
2.209137 0.238171 0.246668 57.000000
2.208867 0.231288 0.246573 56.000000
2.207585 0.224308 0.246383 59.000000
2.205292 0.217240 0.246098 53.000000
2.206939 0.210568 0.246193 41.000000
2.203609 0.203428 0.245813 49.000000
2.206206 0.196845 0.246003 58.000000
2.194898 0.189044 0.244863 44.000000
2.202412 0.182889 0.245528 58.000000
2.205940 0.176371 0.245813 56.000000
2.203493 0.169372 0.245528 52.000000
2.206980 0.162832 0.245813 55.000000
2.209455 0.156202 0.246003 68.000000
2.204958 0.149084 0.245528 61.000000
2.210372 0.142642 0.246003 62.000000
2.208812 0.135737 0.245813 63.000000
2.206237 0.128784 0.245528 56.000000
2.211591 0.122292 0.246003 62.000000
2.212950 0.115559 0.246098 52.000000
2.210312 0.108621 0.245813 56.000000
2.218590 0.102210 0.246573 70.000000
2.213920 0.095187 0.246098 59.000000
2.214202 0.088394 0.246098 70.000000
2.208331 0.054245 0.245433 49.000000
2.211473 0.047535 0.245718 52.000000
2.210613 0.040732 0.245623 58.000000
2.209732 0.033934 0.245528 60.000000
2.211817 0.027180 0.245718 58.000000
2.209899 0.020374 0.245528 56.000000
2.205969 0.013568 0.245148 47.000000
2.206996 0.006803 0.245243 51.000000
2.205015 0.000031 0.245053 54.000000
2.207991 -0.006741 0.245338 57.000000
2.207960 -0.013515 0.245338 49.000000
2.205918 -0.020272 0.245148 59.000000
2.209328 -0.054202 0.245528 68.000000
2.205171 -0.060872 0.245148 55.000000
2.207959 -0.067727 0.245433 65.000000
2.205751 -0.074435 0.245243 53.000000
2.210486 -0.081382 0.245718 62.000000
2.210226 -0.088163 0.245718 66.000000
2.207956 -0.094859 0.245528 45.000000
2.209644 -0.101723 0.245718 58.000000
2.214293 -0.108743 0.246193 53.000000
2.207984 -0.115228 0.245623 48.000000
2.208614 -0.122056 0.245718 69.000000
2.206241 -0.128716 0.245528 48.000000
2.205836 -0.135484 0.245528 53.000000
2.202430 -0.142061 0.245243 52.000000
2.200990 -0.148750 0.245148 58.000000
2.197544 -0.155293 0.244863 61.000000
2.196064 -0.161962 0.244768 59.000000
2.198535 -0.168926 0.245053 50.000000
2.198999 -0.175749 0.245148 50.000000
2.200434 -0.182658 0.245338 61.000000
2.200855 -0.189493 0.245433 69.000000
2.201254 -0.196332 0.245528 46.000000
2.200642 -0.203084 0.245528 59.000000
2.200999 -0.209929 0.245623 54.000000
2.196382 -0.216292 0.245243 46.000000
2.194718 -0.222930 0.245148 39.000000
2.198974 -0.230177 0.245623 53.000000
2.200237 -0.237135 0.245813 60.000000
2.199499 -0.243884 0.245813 66.000000
2.199730 -0.250743 0.245908 58.000000
2.197961 -0.257375 0.245813 55.000000
2.200127 -0.264472 0.246098 57.000000
2.196341 -0.270857 0.245813 38.000000
2.198463 -0.277967 0.246098 62.000000
2.199574 -0.284965 0.246288 58.000000
2.199677 -0.291842 0.246383 62.000000
2.198771 -0.298590 0.246383 59.000000
2.196858 -0.305197 0.246288 49.000000
2.200840 -0.312633 0.246763 51.000000
2.201841 -0.319669 0.246953 49.000000
2.199865 -0.326277 0.246858 51.000000
2.197869 -0.332876 0.246763 64.000000
2.199789 -0.340072 0.247048 57.000000
2.200702 -0.347129 0.247237 48.000000
2.201593 -0.354194 0.247427 58.000000
2.196566 -0.360304 0.247048 49.000000
2.194468 -0.366878 0.246953 51.000000
2.190388 -0.373109 0.246668 51.000000
2.188252 -0.379657 0.246573 53.000000
2.183156 -0.385678 0.246193 49.000000
2.182942 -0.392550 0.246288 40.000000
2.182707 -0.399424 0.246383 47.000000
2.184407 -0.406664 0.246668 57.000000
2.189019 -0.414471 0.247237 65.000000
2.190670 -0.421748 0.247522 48.000000
2.195228 -0.429611 0.248092 29.000000
2.194876 -0.436538 0.248187 36.000000
2.204261 -0.445433 0.249232 24.000000
2.195082 -0.450596 0.248472 37.000000
2.196613 -0.457936 0.248757 40.000000
2.191302 -0.463851 0.248377 32.000000
2.205759 0.362886 0.219835 58.000000
2.204894 0.355800 0.219670 54.000000
2.205976 0.349034 0.219670 67.000000
2.207036 0.342265 0.219670 62.000000
2.211031 0.335941 0.219918 51.000000
2.209094 0.328716 0.219670 74.000000
2.204175 0.321076 0.219175 79.000000
2.205150 0.314312 0.219175 66.000000
2.208078 0.307821 0.219340 72.000000
2.208025 0.300910 0.219258 78.000000
2.207949 0.294004 0.219175 71.000000
2.205876 0.286843 0.218928 72.000000
2.206746 0.280074 0.218928 72.000000
2.210562 0.273670 0.219175 85.000000
2.214359 0.267244 0.219423 73.000000
2.211209 0.259985 0.219093 58.000000
2.211997 0.253199 0.219093 99.000000
2.207811 0.245861 0.218681 58.000000
2.208555 0.239087 0.218681 77.000000
2.210269 0.232414 0.218763 56.000000
2.213946 0.225935 0.219011 81.000000
2.209670 0.218652 0.218598 67.000000
2.215291 0.212346 0.219011 77.000000
2.214939 0.205457 0.218928 75.000000
2.216552 0.198749 0.219011 71.000000
2.217151 0.191948 0.219011 84.000000
2.214750 0.184897 0.218763 85.000000
2.211333 0.177782 0.218433 76.000000
2.211868 0.170997 0.218433 67.000000
2.209401 0.163990 0.218186 84.000000
2.210888 0.157281 0.218268 71.000000
2.207383 0.150228 0.217939 77.000000
2.206839 0.143390 0.217856 86.000000
2.205279 0.136496 0.217691 82.000000
2.201708 0.129497 0.217361 69.000000
2.202095 0.122741 0.217361 76.000000
2.203456 0.116037 0.217444 87.000000
2.203802 0.109276 0.217444 77.000000
2.205122 0.102561 0.217526 96.000000
2.204431 0.095752 0.217444 90.000000
2.205710 0.089028 0.217526 63.000000
2.207964 0.082335 0.217691 90.000000
2.207211 0.075527 0.217609 86.000000
2.206436 0.068724 0.217526 70.000000
2.205640 0.061926 0.217444 80.000000
2.205819 0.055159 0.217444 82.000000
2.208967 0.048457 0.217691 90.000000
2.207113 0.041642 0.217526 66.000000
2.207230 0.034871 0.217526 89.000000
2.205334 0.028074 0.217361 72.000000
2.204413 0.021298 0.217279 65.000000
2.205465 0.014542 0.217361 101.000000
2.203506 0.007769 0.217196 75.000000
2.201526 0.001008 0.217032 74.000000
2.201519 -0.005746 0.217032 72.000000
2.203484 -0.012512 0.217196 96.000000
2.203435 -0.019272 0.217196 62.000000
2.203366 -0.026032 0.217196 73.000000
2.200286 -0.032747 0.216949 83.000000
2.201171 -0.039515 0.217032 85.000000
2.203032 -0.046310 0.217196 76.000000
2.205869 -0.053142 0.217444 93.000000
2.202707 -0.059827 0.217196 78.000000
2.202513 -0.066585 0.217196 81.000000
2.204290 -0.073408 0.217361 93.000000
2.203059 -0.080134 0.217279 89.000000
2.201807 -0.086853 0.217196 76.000000
2.198543 -0.093480 0.216949 45.000000
2.196255 -0.100134 0.216784 64.000000
2.198923 -0.107017 0.217032 87.000000
2.198585 -0.113763 0.217032 69.000000
2.196235 -0.120398 0.216867 81.000000
2.197845 -0.127251 0.217032 69.000000
2.199434 -0.134115 0.217196 78.000000
2.202592 -0.161460 0.217609 64.000000
2.203080 -0.168293 0.217691 79.000000
2.205534 -0.175289 0.217939 79.000000
2.205979 -0.182137 0.218021 90.000000
2.207396 -0.189074 0.218186 66.000000
2.206805 -0.195845 0.218186 77.000000
2.206194 -0.202615 0.218186 82.000000
2.207546 -0.209571 0.218351 83.000000
2.206893 -0.216343 0.218351 65.000000
2.205227 -0.223012 0.218268 72.000000
2.201559 -0.229466 0.218021 78.000000
2.202826 -0.236432 0.218186 91.000000
2.202091 -0.243189 0.218186 77.000000
2.202897 -0.270681 0.218516 62.000000
2.207000 -0.278062 0.218928 71.000000
2.204160 -0.284576 0.218763 76.000000
2.205252 -0.291598 0.218928 84.000000
2.207310 -0.298764 0.219175 59.000000
2.206383 -0.305535 0.219175 86.000000
2.206422 -0.312442 0.219258 61.000000
2.203481 -0.318924 0.219093 69.000000
2.202492 -0.325683 0.219093 74.000000
2.201482 -0.332438 0.219093 76.000000
2.200452 -0.339191 0.219093 80.000000
2.200385 -0.346095 0.219175 62.000000
2.200297 -0.353002 0.219258 93.000000
2.201171 -0.360073 0.219423 63.000000
2.200056 -0.366825 0.219423 79.000000
2.202850 -0.374241 0.219753 66.000000
2.201692 -0.380997 0.219753 70.000000
2.199531 -0.387577 0.219670 60.000000
2.200293 -0.394676 0.219835 62.000000
2.199072 -0.401424 0.219835 76.000000
2.196851 -0.407987 0.219753 74.000000
2.196568 -0.414910 0.219835 83.000000
2.192348 -0.421082 0.219588 66.000000
2.193980 -0.428380 0.219835 52.000000
2.195589 -0.435691 0.220083 64.000000
2.195218 -0.442623 0.220165 51.000000
2.192874 -0.449155 0.220083 49.000000
2.191485 -0.455881 0.220083 64.000000
2.191051 -0.462808 0.220165 46.000000
2.221777 -0.476429 0.222886 8.000000
2.201110 0.360355 0.192986 43.000000
2.200236 0.353283 0.192844 45.000000
2.207221 0.347465 0.193268 55.000000
2.203348 0.339929 0.192915 45.000000
2.202408 0.332868 0.192774 54.000000
2.196512 0.325084 0.192279 43.000000
2.201447 0.318918 0.192562 49.000000
2.201428 0.312022 0.192491 49.000000
2.203363 0.305404 0.192562 57.000000
2.204290 0.298643 0.192562 58.000000
2.207173 0.292141 0.192703 47.000000
2.208059 0.285368 0.192703 69.000000
2.206945 0.278342 0.192562 53.000000
2.211748 0.272059 0.192844 55.000000
2.211582 0.265153 0.192774 45.000000
2.210404 0.258134 0.192632 49.000000
2.212176 0.251465 0.192703 43.000000
2.209963 0.244347 0.192491 60.000000
2.213678 0.237887 0.192703 49.000000
2.215389 0.231198 0.192774 66.000000
2.216088 0.224400 0.192774 59.000000
2.213788 0.217306 0.192562 61.000000
2.213451 0.210419 0.192491 54.000000
2.210113 0.203259 0.192209 54.000000
2.205759 0.196034 0.191856 41.000000
2.206350 0.189266 0.191856 76.000000
2.204932 0.182330 0.191714 50.000000
2.201504 0.175246 0.191432 55.000000
2.201037 0.168415 0.191361 53.000000
2.202538 0.161735 0.191432 66.000000
2.206009 0.155188 0.191644 66.000000
2.203489 0.148217 0.191432 49.000000
2.206919 0.141649 0.191644 64.000000
2.206348 0.134817 0.191573 50.000000
2.204759 0.127931 0.191432 64.000000
2.203150 0.121055 0.191291 66.000000
2.199526 0.114087 0.191008 48.000000
2.202855 0.107486 0.191220 54.000000
2.203174 0.100727 0.191220 62.000000
2.197493 0.093709 0.190796 51.000000
2.196774 0.086927 0.190726 53.000000
2.199843 0.053269 0.190867 55.000000
2.201991 0.046563 0.191008 66.000000
2.199131 0.039752 0.190796 59.000000
2.199243 0.033005 0.190796 54.000000
2.199334 0.026257 0.190796 59.000000
2.199404 0.019510 0.190796 69.000000
2.197459 0.012749 0.190655 51.000000
2.194495 0.005998 0.190443 59.000000
2.195500 -0.000735 0.190514 63.000000
2.194490 -0.007468 0.190443 58.000000
2.194457 -0.014200 0.190443 50.000000
2.192408 -0.020915 0.190302 42.000000
2.193331 -0.027653 0.190372 65.000000
2.198810 -0.054712 0.190796 74.000000
2.195640 -0.061376 0.190584 68.000000
2.198433 -0.068203 0.190796 55.000000
2.199210 -0.074980 0.190867 64.000000
2.198970 -0.081727 0.190867 56.000000
2.201699 -0.088592 0.191079 69.000000
2.203410 -0.095431 0.191220 68.000000
2.202110 -0.102145 0.191149 59.000000
2.204775 -0.109047 0.191361 55.000000
2.202438 -0.115707 0.191220 62.000000
2.204065 -0.122573 0.191361 56.000000
2.203678 -0.129335 0.191361 63.000000
2.201280 -0.135973 0.191220 62.000000
2.199857 -0.142662 0.191149 57.000000
2.202394 -0.149611 0.191361 58.000000
2.204910 -0.156578 0.191573 48.000000
2.204420 -0.163342 0.191573 53.000000
2.201919 -0.169951 0.191432 54.000000
2.200393 -0.176627 0.191361 59.000000
2.199841 -0.183377 0.191361 40.000000
2.201255 -0.190296 0.191502 52.000000
2.199667 -0.196960 0.191432 67.000000
2.197066 -0.203524 0.191291 49.000000
2.198418 -0.210453 0.191432 59.000000
2.195776 -0.217001 0.191291 42.000000
2.200062 -0.224240 0.191644 59.000000
2.196388 -0.230678 0.191432 51.000000
2.198645 -0.237735 0.191644 57.000000
2.197905 -0.244479 0.191644 60.000000
2.195163 -0.250996 0.191502 57.000000
2.193391 -0.257613 0.191432 53.000000
2.189619 -0.263985 0.191220 43.000000
2.188799 -0.270701 0.191220 43.000000
2.198845 -0.278789 0.191997 59.000000
2.196001 -0.285278 0.191856 60.000000
2.194126 -0.291883 0.191785 57.000000
2.197174 -0.299149 0.192067 50.000000
2.196246 -0.305889 0.192067 55.000000
2.197272 -0.312905 0.192209 53.000000
2.191366 -0.318929 0.191856 39.000000
2.199258 -0.326966 0.192491 52.000000
2.198245 -0.333712 0.192491 57.000000
2.202140 -0.341216 0.192844 55.000000
2.199111 -0.347660 0.192703 51.000000
2.198035 -0.354405 0.192703 61.000000
2.194968 -0.360824 0.192562 49.000000
2.192867 -0.367392 0.192491 47.000000
2.195663 -0.374787 0.192774 58.000000
2.192537 -0.381181 0.192632 47.000000
2.189393 -0.387559 0.192491 51.000000
2.186230 -0.393922 0.192350 45.000000
2.185992 -0.400806 0.192421 53.000000
2.185733 -0.407693 0.192491 42.000000
2.184472 -0.414397 0.192491 42.000000
2.184170 -0.421286 0.192562 40.000000
2.184825 -0.428367 0.192703 47.000000
2.192306 -0.436818 0.193339 51.000000
2.193889 -0.444134 0.193551 47.000000
2.190562 -0.450462 0.193409 31.000000
2.196005 -0.458604 0.193904 46.000000
2.195564 -0.465546 0.193974 43.000000
2.205655 0.362477 0.165318 68.000000
2.202814 0.355074 0.165086 74.000000
2.201921 0.348002 0.164970 50.000000
2.204952 0.341551 0.165086 65.000000
2.204015 0.334485 0.164970 49.000000
2.207006 0.328015 0.165086 62.000000
2.208002 0.321242 0.165086 74.000000
2.208977 0.314467 0.165086 90.000000
2.207954 0.307413 0.164970 66.000000
2.207897 0.300503 0.164912 81.000000
2.206830 0.293465 0.164795 65.000000
2.203759 0.286180 0.164563 77.000000
2.202646 0.279167 0.164447 80.000000
2.203492 0.272408 0.164447 83.000000
2.203326 0.265527 0.164389 70.000000
2.204131 0.258766 0.164389 83.000000
2.202931 0.251776 0.164273 81.000000
2.201708 0.244797 0.164156 75.000000
2.203442 0.238148 0.164214 80.000000
2.202176 0.231178 0.164098 97.000000
2.200888 0.224219 0.163982 90.000000
2.199579 0.217270 0.163866 72.000000
2.196260 0.210141 0.163634 82.000000
2.194906 0.203218 0.163517 80.000000
2.195519 0.196483 0.163517 86.000000
2.194123 0.189575 0.163401 64.000000
2.196684 0.183008 0.163517 84.000000
2.198230 0.176348 0.163576 60.000000
2.197765 0.169526 0.163517 67.000000
2.201262 0.163003 0.163692 78.000000
2.201751 0.156249 0.163692 95.000000
2.200229 0.149359 0.163576 62.000000
2.199680 0.142544 0.163517 58.000000
2.203096 0.135978 0.163692 80.000000
2.203503 0.129219 0.163692 85.000000
2.206880 0.122623 0.163866 86.000000
2.208242 0.115904 0.163924 75.000000
2.209584 0.109178 0.163982 81.000000
2.208912 0.102353 0.163924 94.000000
2.208218 0.095532 0.163866 85.000000
2.207503 0.088717 0.163808 80.000000
2.202777 0.081760 0.163517 71.000000
2.204015 0.075036 0.163576 71.000000
2.201242 0.068181 0.163401 75.000000
2.198447 0.061345 0.163227 81.000000
2.197626 0.054575 0.163169 76.000000
2.199780 0.047875 0.163285 77.000000
2.197920 0.041089 0.163169 91.000000
2.200032 0.034377 0.163285 87.000000
2.198131 0.027602 0.163169 84.000000
2.199203 0.020868 0.163227 88.000000
2.198259 0.014114 0.163169 68.000000
2.200288 0.007377 0.163285 89.000000
2.203295 0.000627 0.163459 83.000000
2.201290 -0.006127 0.163343 78.000000
2.204256 -0.012899 0.163517 99.000000
2.198217 -0.019607 0.163169 61.000000
2.198146 -0.026351 0.163169 78.000000
2.201050 -0.033140 0.163343 81.000000
2.197943 -0.039838 0.163169 71.000000
2.195814 -0.046538 0.163053 81.000000
2.196659 -0.053299 0.163111 74.000000
2.199479 -0.060120 0.163285 79.000000
2.203276 -0.066990 0.163517 68.000000
2.205055 -0.073816 0.163634 75.000000
2.202823 -0.080508 0.163517 74.000000
2.205558 -0.087385 0.163692 67.000000
2.205280 -0.094151 0.163692 77.000000
2.203983 -0.100870 0.163634 63.000000
2.200672 -0.107485 0.163459 74.000000
2.199335 -0.114184 0.163401 72.000000
2.199971 -0.120986 0.163459 72.000000
2.200586 -0.127793 0.163517 80.000000
2.201354 -0.161753 0.163692 88.000000
2.200847 -0.168506 0.163692 71.000000
2.203306 -0.175496 0.163866 73.000000
2.205741 -0.182502 0.164040 80.000000
2.208155 -0.189525 0.164214 78.000000
2.207563 -0.196298 0.164214 82.000000
2.206951 -0.203070 0.164214 88.000000
2.205323 -0.209745 0.164156 71.000000
2.206656 -0.216706 0.164273 74.000000
2.206975 -0.223575 0.164331 101.000000
2.207271 -0.230449 0.164389 78.000000
2.206554 -0.237220 0.164389 60.000000
2.206808 -0.244098 0.164447 70.000000
2.204468 -0.264399 0.164447 98.000000
2.200674 -0.270794 0.164273 67.000000
2.199832 -0.277545 0.164273 88.000000
2.199961 -0.284421 0.164331 82.000000
2.198088 -0.291037 0.164273 97.000000
2.198174 -0.297914 0.164331 58.000000
2.201205 -0.305206 0.164563 87.000000
2.200258 -0.311957 0.164563 81.000000
2.203243 -0.319280 0.164795 96.000000
2.197315 -0.325306 0.164505 67.000000
2.197294 -0.332195 0.164563 67.000000
2.199224 -0.339392 0.164737 84.000000
2.198173 -0.346137 0.164737 79.000000
2.200058 -0.353355 0.164912 80.000000
2.200933 -0.360426 0.165028 67.000000
2.199817 -0.367177 0.165028 77.000000
2.202617 -0.374594 0.165260 67.000000
2.201458 -0.381350 0.165260 77.000000
2.197328 -0.387581 0.165086 75.000000
2.193181 -0.393791 0.164912 60.000000
2.191962 -0.400518 0.164912 90.000000
2.188760 -0.406875 0.164795 68.000000
2.189464 -0.413960 0.164912 74.000000
2.186223 -0.420298 0.164795 64.000000
2.184923 -0.427003 0.164795 49.000000
2.185561 -0.434094 0.164912 54.000000
2.184219 -0.440797 0.164912 49.000000
2.185790 -0.448098 0.165086 62.000000
2.181473 -0.454190 0.164912 72.000000
2.177139 -0.460261 0.164737 57.000000
2.207927 -0.473857 0.166654 15.000000
2.204003 -0.487180 0.166596 8.000000
2.191362 0.365271 0.138275 27.000000
2.197401 0.359355 0.138506 42.000000
2.193562 0.351818 0.138275 42.000000
2.194631 0.345087 0.138275 46.000000
2.196666 0.338505 0.138322 65.000000
2.196707 0.331614 0.138275 60.000000
2.190797 0.323847 0.137952 39.000000
2.200677 0.318416 0.138368 56.000000
2.197688 0.311101 0.138183 51.000000
2.200611 0.304632 0.138275 60.000000
2.197576 0.297342 0.138090 61.000000
2.199468 0.290730 0.138137 56.000000
2.198368 0.283724 0.138044 70.000000
2.196255 0.276602 0.137905 59.000000
2.197093 0.269862 0.137905 64.000000
2.194936 0.262763 0.137767 50.000000
2.199700 0.256492 0.137952 58.000000
2.197499 0.249403 0.137813 61.000000
2.198254 0.242660 0.137813 57.000000
2.194022 0.235379 0.137582 50.000000
2.196721 0.228855 0.137674 61.000000
2.197413 0.222115 0.137674 66.000000
2.200072 0.215568 0.137767 73.000000
2.192768 0.208058 0.137397 54.000000
2.200359 0.201973 0.137720 62.000000
2.196988 0.194866 0.137536 54.000000
2.197576 0.188125 0.137536 58.000000
2.198142 0.181382 0.137536 47.000000
2.199684 0.174717 0.137582 58.000000
2.196226 0.167661 0.137397 60.000000
2.202707 0.161363 0.137674 47.000000
2.199206 0.154323 0.137489 71.000000
2.197676 0.147441 0.137397 52.000000
2.198118 0.140697 0.137397 50.000000
2.195548 0.133769 0.137258 50.000000
2.196946 0.127091 0.137304 47.000000
2.199320 0.120461 0.137397 66.000000
2.199679 0.113713 0.137397 60.000000
2.199020 0.106914 0.137351 65.000000
2.197342 0.100076 0.137258 66.000000
2.198637 0.093377 0.137304 59.000000
2.196916 0.086551 0.137212 53.000000
2.194990 0.052768 0.137073 61.000000
2.194143 0.046013 0.137027 69.000000
2.192276 0.039244 0.136934 77.000000
2.191387 0.032503 0.136888 63.000000
2.190478 0.025767 0.136842 69.000000
2.190546 0.019047 0.136842 75.000000
2.190594 0.012326 0.136842 63.000000
2.193619 0.005615 0.136981 78.000000
2.195624 -0.001115 0.137073 59.000000
2.196609 -0.007854 0.137119 62.000000
2.197573 -0.014599 0.137166 68.000000
2.195520 -0.021323 0.137073 52.000000
2.198930 -0.055096 0.137258 75.000000
2.195755 -0.061759 0.137119 48.000000
2.201545 -0.068679 0.137397 74.000000
2.198329 -0.075332 0.137258 56.000000
2.201082 -0.082186 0.137397 52.000000
2.199822 -0.088899 0.137351 64.000000
2.198541 -0.095605 0.137304 85.000000
2.196241 -0.102257 0.137212 59.000000
2.195917 -0.108995 0.137212 63.000000
2.195572 -0.115731 0.137212 70.000000
2.196204 -0.122522 0.137258 73.000000
2.195818 -0.129259 0.137258 66.000000
2.193417 -0.135873 0.137166 64.000000
2.194984 -0.142730 0.137258 57.000000
2.198522 -0.149733 0.137443 60.000000
2.197056 -0.156407 0.137397 62.000000
2.193577 -0.162926 0.137258 49.000000
2.197051 -0.169961 0.137443 81.000000
2.195524 -0.176621 0.137397 62.000000
2.194971 -0.183356 0.137397 77.000000
2.198380 -0.190432 0.137582 52.000000
2.196790 -0.197087 0.137536 60.000000
2.196175 -0.203826 0.137536 68.000000
2.197528 -0.210752 0.137628 53.000000
2.198859 -0.217689 0.137720 56.000000
2.194206 -0.224030 0.137536 46.000000
2.198476 -0.231281 0.137767 71.000000
2.194776 -0.237704 0.137628 51.000000
2.195029 -0.244546 0.137674 53.000000
2.194269 -0.251279 0.137674 59.000000
2.193488 -0.258010 0.137674 61.000000
2.192686 -0.264738 0.137674 53.000000
2.191863 -0.271464 0.137674 78.000000
2.192011 -0.278313 0.137720 59.000000
2.192138 -0.285165 0.137767 61.000000
2.191253 -0.291889 0.137767 39.000000
2.191337 -0.298744 0.137813 53.000000
2.192389 -0.305741 0.137905 62.000000
2.186495 -0.311763 0.137674 52.000000
2.182563 -0.318039 0.137536 41.000000
2.178612 -0.324294 0.137397 48.000000
2.176620 -0.330827 0.137351 61.000000
2.182505 -0.338571 0.137674 45.000000
2.176522 -0.344487 0.137443 67.000000
2.182359 -0.352274 0.137767 46.000000
2.182254 -0.359129 0.137813 58.000000
2.182127 -0.365987 0.137859 61.000000
2.189857 -0.374190 0.138275 58.000000
2.190667 -0.381248 0.138368 58.000000
2.191454 -0.388315 0.138460 51.000000
2.193202 -0.395566 0.138599 55.000000
2.189030 -0.401754 0.138460 44.000000
2.185823 -0.408102 0.138368 61.000000
2.191432 -0.416107 0.138691 67.000000
2.188182 -0.422451 0.138599 47.000000
2.189817 -0.429737 0.138738 52.000000
2.186529 -0.436064 0.138645 42.000000
2.179306 -0.441583 0.138368 35.000000
2.183812 -0.449472 0.138645 53.000000
2.180467 -0.455762 0.138553 42.000000
2.172217 -0.461001 0.138229 32.000000
2.223531 -0.478996 0.140726 7.000000
2.196661 0.388349 0.111205 23.000000
2.198827 0.381779 0.111238 38.000000
2.193091 0.373857 0.111002 35.000000
2.201128 0.368280 0.111238 47.000000
2.198303 0.360879 0.111103 53.000000
2.198412 0.353974 0.111069 73.000000
2.199488 0.347228 0.111069 58.000000
2.200543 0.340478 0.111069 53.000000
2.202565 0.333875 0.111103 69.000000
2.206545 0.327556 0.111205 66.000000
2.205561 0.320497 0.111137 70.000000
2.203566 0.313308 0.111035 73.000000
2.202537 0.306271 0.110968 69.000000
2.199505 0.298974 0.110832 57.000000
2.195458 0.291568 0.110663 73.000000
2.194360 0.284574 0.110595 85.000000
2.195222 0.277841 0.110595 72.000000
2.193089 0.270738 0.110494 59.000000
2.195894 0.264247 0.110561 73.000000
2.198679 0.257741 0.110629 69.000000
2.196481 0.250655 0.110528 60.000000
2.197239 0.243915 0.110528 55.000000
2.199965 0.237387 0.110595 82.000000
2.195713 0.230116 0.110426 93.000000
2.198397 0.223581 0.110494 79.000000
2.200067 0.216933 0.110528 69.000000
2.196743 0.209803 0.110392 76.000000
2.201357 0.203430 0.110528 78.000000
2.202966 0.196764 0.110561 85.000000
2.201568 0.189833 0.110494 74.000000
2.202140 0.183078 0.110494 83.000000
2.202691 0.176321 0.110494 67.000000
2.200233 0.169333 0.110392 64.000000
2.200742 0.162582 0.110392 61.000000
2.201230 0.155829 0.110392 81.000000
2.201698 0.149075 0.110392 80.000000
2.199153 0.142127 0.110291 74.000000
2.196585 0.135196 0.110189 60.000000
2.196990 0.128456 0.110189 90.000000
2.197374 0.121715 0.110189 59.000000
2.196739 0.114921 0.110155 80.000000
2.194087 0.108034 0.110054 65.000000
2.195406 0.101348 0.110087 68.000000
2.195706 0.094612 0.110087 64.000000
2.198982 0.087995 0.110189 61.000000
2.201239 0.081321 0.110257 62.000000
2.200480 0.074534 0.110223 86.000000
2.201697 0.067813 0.110257 81.000000
2.200896 0.061031 0.110223 85.000000
2.202071 0.054303 0.110257 74.000000
2.200229 0.047504 0.110189 78.000000
2.196368 0.040680 0.110054 86.000000
2.197482 0.033957 0.110087 73.000000
2.194577 0.027178 0.109986 88.000000
2.194650 0.020445 0.109986 73.000000
2.197701 0.013730 0.110087 94.000000
2.192736 0.006973 0.109918 93.000000
2.195745 0.000245 0.110020 96.000000
2.196735 -0.006494 0.110054 71.000000
2.194706 -0.013221 0.109986 78.000000
2.196654 -0.019973 0.110054 61.000000
2.194583 -0.026688 0.109986 81.000000
2.192492 -0.033390 0.109918 76.000000
2.193379 -0.040134 0.109952 63.000000
2.191247 -0.046820 0.109884 78.000000
2.194091 -0.053617 0.109986 82.000000
2.189919 -0.060237 0.109851 78.000000
2.187726 -0.066894 0.109783 75.000000
2.190508 -0.073707 0.109884 74.000000
2.192269 -0.080501 0.109952 73.000000
2.193010 -0.087266 0.109986 63.000000
2.191733 -0.093951 0.109952 65.000000
2.192433 -0.100720 0.109986 85.000000
2.195108 -0.107593 0.110087 77.000000
2.196764 -0.114432 0.110155 81.000000
2.194407 -0.121060 0.110087 63.000000
2.192030 -0.127675 0.110020 76.000000
2.185827 -0.160990 0.109884 88.000000
2.185323 -0.167695 0.109884 102.000000
2.180813 -0.174080 0.109749 71.000000
2.181265 -0.180853 0.109783 70.000000
2.183687 -0.187801 0.109884 61.000000
2.185091 -0.194678 0.109952 83.000000
2.188464 -0.201748 0.110087 77.000000
2.189825 -0.208651 0.110155 70.000000
2.191164 -0.215565 0.110223 79.000000
2.193475 -0.222589 0.110324 80.000000
2.191788 -0.229214 0.110291 67.000000
2.191074 -0.235937 0.110291 85.000000
2.191333 -0.242768 0.110324 79.000000
2.184222 -0.269151 0.110189 89.000000
2.183386 -0.275851 0.110189 69.000000
2.182529 -0.282548 0.110189 73.000000
2.179670 -0.288980 0.110121 69.000000
2.183725 -0.296338 0.110291 82.000000
2.185775 -0.303449 0.110392 65.000000
2.184834 -0.310154 0.110392 95.000000
2.183872 -0.316855 0.110392 80.000000
2.182890 -0.323554 0.110392 81.000000
2.184851 -0.330699 0.110494 90.000000
2.183826 -0.337400 0.110494 66.000000
2.180807 -0.343787 0.110426 68.000000
2.183689 -0.351111 0.110561 94.000000
2.184574 -0.358133 0.110629 77.000000
2.183465 -0.364833 0.110629 61.000000
2.190217 -0.372873 0.110900 69.000000
2.192017 -0.380104 0.111002 64.000000
2.191825 -0.387001 0.111035 61.000000
2.193578 -0.394255 0.111137 70.000000
2.190392 -0.400623 0.111069 63.000000
2.190135 -0.407524 0.111103 81.000000
2.192802 -0.414985 0.111238 80.000000
2.190537 -0.421522 0.111205 71.000000
2.189234 -0.428240 0.111205 75.000000
2.195751 -0.436515 0.111475 80.000000
2.193422 -0.443051 0.111442 66.000000
2.190094 -0.449376 0.111374 46.000000
2.190662 -0.456502 0.111442 56.000000
2.191207 -0.463634 0.111509 71.000000
2.192706 -0.470985 0.111611 31.000000
2.185391 -0.476431 0.111408 24.000000
2.186847 -0.483782 0.111509 51.000000
2.188278 -0.491146 0.111611 35.000000
2.186761 -0.497857 0.111611 22.000000
2.196908 -0.507264 0.112017 6.000000
2.182489 0.392156 0.083836 23.000000
2.185651 0.385807 0.083880 33.000000
2.186824 0.379099 0.083880 29.000000
2.187977 0.372389 0.083880 26.000000
2.194039 0.366500 0.083988 36.000000
2.195154 0.359767 0.083988 36.000000
2.196247 0.353031 0.083988 58.000000
2.195345 0.345979 0.083945 53.000000
2.190468 0.338324 0.083815 52.000000
2.191496 0.331602 0.083815 47.000000
2.188547 0.324288 0.083728 43.000000
2.189532 0.317573 0.083728 58.000000
2.191486 0.310995 0.083750 61.000000
2.190449 0.303994 0.083706 63.000000
2.193352 0.297542 0.083750 55.000000
2.197228 0.291207 0.083815 59.000000
2.192163 0.283692 0.083685 76.000000
2.195006 0.277217 0.083728 52.000000
2.195846 0.270481 0.083728 48.000000
2.196666 0.263743 0.083728 60.000000
2.198458 0.257119 0.083750 61.000000
2.196256 0.250032 0.083685 53.000000
2.195026 0.243072 0.083642 51.000000
2.197749 0.236552 0.083685 52.000000
2.193493 0.229286 0.083577 75.000000
2.195181 0.222656 0.083598 68.000000
2.193864 0.215724 0.083555 59.000000
2.192525 0.208802 0.083512 63.000000
2.195146 0.202259 0.083555 66.000000
2.192769 0.195255 0.083490 61.000000
2.192362 0.188441 0.083468 51.000000
2.195918 0.181963 0.083533 65.000000
2.195470 0.175146 0.083512 55.000000
2.192009 0.168101 0.083425 82.000000
2.190521 0.161228 0.083382 54.000000
2.189011 0.154365 0.083339 69.000000
2.190471 0.147716 0.083360 63.000000
2.190914 0.140995 0.083360 56.000000
2.188343 0.134088 0.083295 67.000000
2.188744 0.127373 0.083295 56.000000
2.191121 0.120769 0.083339 70.000000
2.190483 0.113994 0.083317 56.000000
2.192820 0.107372 0.083360 63.000000
2.191141 0.100551 0.083317 74.000000
2.191439 0.093828 0.083317 81.000000
2.190718 0.087064 0.083295 72.000000
2.195793 0.053550 0.083382 66.000000
2.195947 0.046813 0.083382 64.000000
2.201079 0.040169 0.083490 49.000000
2.198192 0.033369 0.083425 58.000000
2.195286 0.026587 0.083360 78.000000
2.199356 0.019890 0.083447 54.000000
2.194407 0.013110 0.083339 70.000000
2.192438 0.006371 0.083295 66.000000
2.189448 -0.000357 0.083230 53.000000
2.187437 -0.007068 0.083187 61.000000
2.186405 -0.013773 0.083165 65.000000
2.186353 -0.020481 0.083165 75.000000
2.184280 -0.027165 0.083122 83.000000
2.188780 -0.054088 0.083230 63.000000
2.186605 -0.060749 0.083187 68.000000
2.185409 -0.067426 0.083165 84.000000
2.188189 -0.074231 0.083230 62.000000
2.185953 -0.080871 0.083187 46.000000
2.184696 -0.087538 0.083165 59.000000
2.184417 -0.094240 0.083165 64.000000
2.183119 -0.100895 0.083144 45.000000
2.183797 -0.107641 0.083165 58.000000
2.180462 -0.114185 0.083101 65.000000
2.180101 -0.120874 0.083101 67.000000
2.180718 -0.127620 0.083122 56.000000
2.182312 -0.134432 0.083165 59.000000
2.181889 -0.141126 0.083165 55.000000
2.174464 -0.147350 0.083014 41.000000
2.176993 -0.154231 0.083079 54.000000
2.176510 -0.160909 0.083079 53.000000
2.176006 -0.167586 0.083079 54.000000
2.176478 -0.174340 0.083101 51.000000
2.179918 -0.181346 0.083187 63.000000
2.179352 -0.188033 0.083187 53.000000
2.183744 -0.195161 0.083295 64.000000
2.187117 -0.202226 0.083382 67.000000
2.183501 -0.208651 0.083317 67.000000
2.184840 -0.215544 0.083360 72.000000
2.184168 -0.222246 0.083360 70.000000
2.180493 -0.228635 0.083295 61.000000
2.181770 -0.235537 0.083339 57.000000
2.185012 -0.242669 0.083425 63.000000
2.183263 -0.249258 0.083404 76.000000
2.188447 -0.256651 0.083533 47.000000
2.188642 -0.263482 0.083555 62.000000
2.185838 -0.269952 0.083512 66.000000
2.188967 -0.277157 0.083598 56.000000
2.185132 -0.283487 0.083533 54.000000
2.180288 -0.289665 0.083447 47.000000
2.182361 -0.296755 0.083512 53.000000
2.183421 -0.303724 0.083555 67.000000
2.181489 -0.310281 0.083533 56.000000
2.180527 -0.316972 0.083533 58.000000
2.177566 -0.323367 0.083490 43.000000
2.181506 -0.330793 0.083598 50.000000
2.184434 -0.338094 0.083685 58.000000
2.181411 -0.344483 0.083642 60.000000
2.180344 -0.351174 0.083642 59.000000
2.182216 -0.358346 0.083706 65.000000
2.182093 -0.365204 0.083728 48.000000
2.184904 -0.372567 0.083815 66.000000
2.183751 -0.379269 0.083815 52.000000
2.182577 -0.385966 0.083815 63.000000
2.184335 -0.393190 0.083880 51.000000
2.180168 -0.399351 0.083815 58.000000
2.174018 -0.405125 0.083706 53.000000
2.174729 -0.412164 0.083750 43.000000
2.173455 -0.418834 0.083750 53.000000
2.172159 -0.425500 0.083750 43.000000
2.173786 -0.432746 0.083815 43.000000
2.172448 -0.439413 0.083815 42.000000
2.179904 -0.447882 0.084009 52.000000
2.179499 -0.454772 0.084031 54.000000
2.177115 -0.461250 0.084009 41.000000
2.169825 -0.466669 0.083880 32.000000
2.170336 -0.473749 0.083923 30.000000
2.169849 -0.480621 0.083945 42.000000
2.167389 -0.487057 0.083923 33.000000
2.175633 -0.495921 0.084139 28.000000
2.214043 -0.511804 0.085027 8.000000
2.190544 0.400753 0.056634 37.000000
2.190779 0.393854 0.056625 32.000000
2.189023 0.386609 0.056597 44.000000
2.193155 0.380404 0.056625 40.000000
2.199240 0.374512 0.056671 52.000000
2.199392 0.367598 0.056662 44.000000
2.202483 0.361172 0.056680 56.000000
2.199632 0.353779 0.056643 57.000000
2.201695 0.347185 0.056652 58.000000
2.201761 0.340276 0.056643 76.000000
2.202795 0.333519 0.056643 101.000000
2.193916 0.325295 0.056551 66.000000
2.194904 0.318562 0.056551 79.000000
2.194881 0.311686 0.056541 66.000000
2.195827 0.304951 0.056541 75.000000
2.196752 0.298213 0.056541 88.000000
2.197656 0.291472 0.056541 72.000000
2.194574 0.284215 0.056504 67.000000
2.198411 0.277857 0.056532 81.000000
2.200246 0.271233 0.056541 63.000000
2.198089 0.264124 0.056514 107.000000
2.194916 0.256915 0.056477 84.000000
2.193707 0.249954 0.056458 70.000000
2.197446 0.243552 0.056486 92.000000
2.196194 0.236596 0.056467 71.000000
2.194920 0.229649 0.056449 70.000000
2.195615 0.222914 0.056449 83.000000
2.196288 0.216177 0.056449 69.000000
2.196941 0.209438 0.056449 83.000000
2.196577 0.202605 0.056440 84.000000
2.193205 0.195511 0.056403 72.000000
2.196783 0.189038 0.056430 99.000000
2.195359 0.182132 0.056412 84.000000
2.189927 0.174919 0.056356 65.000000
2.190454 0.168200 0.056356 71.000000
2.192954 0.161626 0.056375 62.000000
2.191444 0.154756 0.056356 69.000000
2.195899 0.148301 0.056393 78.000000
2.194349 0.141435 0.056375 81.000000
2.193774 0.134641 0.056366 74.000000
2.195175 0.127968 0.056375 84.000000
2.192562 0.121068 0.056347 72.000000
2.189927 0.114185 0.056319 102.000000
2.190267 0.107466 0.056319 96.000000
2.187590 0.100609 0.056292 61.000000
2.189886 0.093982 0.056310 92.000000
2.190164 0.087263 0.056310 84.000000
2.188423 0.080470 0.056292 68.000000
2.188660 0.073756 0.056292 83.000000
2.188876 0.067041 0.056292 86.000000
2.188072 0.060298 0.056282 77.000000
2.191245 0.053658 0.056310 82.000000
2.192399 0.046956 0.056319 60.000000
2.191533 0.040211 0.056310 80.000000
2.194646 0.033533 0.056338 80.000000
2.195738 0.026812 0.056347 88.000000
2.195810 0.020075 0.056347 81.000000
2.195862 0.013339 0.056347 92.000000
2.192892 0.006593 0.056319 78.000000
2.192902 -0.000135 0.056319 107.000000
2.191891 -0.006859 0.056310 79.000000
2.188860 -0.013564 0.056282 86.000000
2.189808 -0.020289 0.056292 93.000000
2.189736 -0.027007 0.056292 90.000000
2.191642 -0.033756 0.056310 92.000000
2.189529 -0.040443 0.056292 91.000000
2.187395 -0.047117 0.056273 76.000000
2.192238 -0.053951 0.056319 80.000000
2.192062 -0.060676 0.056319 74.000000
2.191866 -0.067401 0.056319 100.000000
2.188651 -0.074024 0.056292 82.000000
2.187414 -0.080701 0.056282 73.000000
2.188155 -0.087452 0.056292 72.000000
2.187876 -0.094164 0.056292 60.000000
2.184581 -0.100737 0.056264 75.000000
2.183263 -0.107390 0.056255 79.000000
2.182923 -0.114088 0.056255 79.000000
2.184560 -0.120895 0.056273 93.000000
2.187173 -0.127772 0.056301 80.000000
2.193931 -0.161971 0.056384 75.000000
2.194421 -0.168778 0.056393 80.000000
2.191899 -0.175349 0.056375 69.000000
2.194340 -0.182322 0.056403 75.000000
2.193771 -0.189053 0.056403 89.000000
2.191188 -0.195605 0.056384 93.000000
2.190578 -0.202326 0.056384 88.000000
2.185965 -0.208665 0.056347 87.000000
2.187305 -0.215567 0.056366 79.000000
2.190613 -0.222682 0.056403 98.000000
2.184947 -0.228880 0.056356 90.000000
2.185228 -0.235689 0.056366 68.000000
2.187476 -0.242724 0.056393 72.000000
2.186318 -0.269795 0.056412 64.000000
2.187464 -0.276752 0.056430 83.000000
2.186604 -0.283462 0.056430 66.000000
2.185725 -0.290169 0.056430 88.000000
2.184824 -0.296873 0.056430 72.000000
2.184893 -0.303713 0.056440 78.000000
2.182961 -0.310274 0.056430 70.000000
2.181010 -0.316825 0.056421 62.000000
2.178049 -0.323221 0.056403 86.000000
2.179025 -0.330202 0.056421 77.000000
2.178001 -0.336886 0.056421 91.000000
2.177945 -0.343722 0.056430 66.000000
2.174906 -0.350084 0.056412 73.000000
2.177769 -0.357403 0.056449 90.000000
2.177648 -0.364248 0.056458 92.000000
2.182435 -0.371936 0.056514 92.000000
2.181283 -0.378630 0.056514 89.000000
2.180111 -0.385321 0.056514 83.000000
2.179904 -0.392184 0.056523 55.000000
2.184591 -0.399952 0.056578 61.000000
2.181388 -0.406286 0.056560 86.000000
2.181113 -0.413163 0.056569 85.000000
2.174927 -0.418906 0.056523 76.000000
2.177556 -0.426346 0.056560 74.000000
2.175257 -0.432829 0.056551 64.000000
2.178820 -0.440492 0.056597 81.000000
2.177458 -0.447174 0.056597 74.000000
2.179991 -0.454670 0.056634 66.000000
2.180543 -0.461771 0.056652 53.000000
2.185958 -0.469931 0.056717 40.000000
2.185483 -0.476848 0.056726 39.000000
2.184010 -0.483551 0.056726 36.000000
2.183492 -0.490469 0.056736 23.000000
2.184902 -0.497832 0.056763 20.000000
2.181416 -0.504082 0.056745 8.000000
2.199715 0.395260 0.028821 28.000000
2.203872 0.389033 0.028811 28.000000
2.191262 0.379871 0.028857 40.000000
2.194388 0.373483 0.028851 48.000000
2.198483 0.367245 0.028841 58.000000
2.196639 0.360012 0.028851 61.000000
2.197733 0.353271 0.028851 48.000000
2.192880 0.345589 0.028871 86.000000
2.193930 0.338860 0.028871 66.000000
2.195948 0.332278 0.028867 56.000000
2.195968 0.325392 0.028871 43.000000
2.193987 0.318221 0.028881 57.000000
2.194953 0.311489 0.028881 74.000000
2.194908 0.304615 0.028884 70.000000
2.194842 0.297745 0.028887 54.000000
2.191780 0.290482 0.028900 66.000000
2.190677 0.283499 0.028907 67.000000
2.191537 0.276777 0.028907 67.000000
2.194360 0.270297 0.028900 67.000000
2.195179 0.263564 0.028900 63.000000
2.192998 0.256478 0.028910 71.000000
2.190794 0.249408 0.028920 56.000000
2.191549 0.242685 0.028920 53.000000
