ply
format ascii 1.0
element vertex 1227
property float x
property float y
property float z
property float intensity
end_header
2.191471 -0.174551 -0.105346 99.000000
2.192914 -0.181438 -0.105475 74.000000
2.192347 -0.188165 -0.105475 92.000000
2.194741 -0.195156 -0.105669 90.000000
2.200094 -0.202438 -0.106057 86.000000
2.200457 -0.209282 -0.106122 76.000000
2.202784 -0.216325 -0.106316 72.000000
2.203102 -0.223182 -0.106381 88.000000
2.199430 -0.229629 -0.106187 82.000000
2.199707 -0.236482 -0.106252 79.000000
2.198971 -0.243230 -0.106252 106.000000
2.198215 -0.249975 -0.106252 67.000000
2.194464 -0.256370 -0.106057 89.000000
2.195649 -0.263339 -0.106187 89.000000
2.195821 -0.270196 -0.106252 82.000000
2.197952 -0.277307 -0.106446 75.000000
2.200060 -0.284433 -0.106640 71.000000
2.199177 -0.291182 -0.106640 91.000000
2.197284 -0.297793 -0.106575 89.000000
2.199325 -0.304945 -0.106769 83.000000
2.202332 -0.312252 -0.107028 87.000000
2.200376 -0.318864 -0.106963 82.000000
2.198400 -0.325466 -0.106899 71.000000
2.197391 -0.332209 -0.106899 78.000000
2.197347 -0.339102 -0.106963 91.000000
2.200240 -0.346463 -0.107222 85.000000
2.200152 -0.353370 -0.107287 84.000000
2.196103 -0.359634 -0.107093 72.000000
2.194989 -0.366370 -0.107093 103.000000
2.193855 -0.373102 -0.107093 84.000000
2.193683 -0.380002 -0.107157 97.000000
2.193490 -0.386904 -0.107222 90.000000
2.195239 -0.394161 -0.107416 66.000000
2.192056 -0.400535 -0.107287 82.000000
2.192779 -0.407623 -0.107416 67.000000
2.191518 -0.414349 -0.107416 67.000000
2.193177 -0.421636 -0.107610 87.000000
2.192852 -0.428554 -0.107675 79.000000
2.193485 -0.435669 -0.107804 78.000000
2.190181 -0.442001 -0.107675 73.000000
2.189792 -0.448919 -0.107740 90.000000
2.190359 -0.456042 -0.107869 78.000000
2.193831 -0.463793 -0.108193 89.000000
2.191422 -0.470312 -0.108128 84.000000
2.194844 -0.478095 -0.108452 94.000000
2.196290 -0.485473 -0.108646 96.000000
2.200632 -0.493520 -0.109034 69.000000
2.207865 -0.502263 -0.109616 89.000000
2.211175 -0.510157 -0.109940 88.000000
2.208627 -0.516711 -0.109875 84.000000
2.207032 -0.523485 -0.109875 82.000000
2.203475 -0.529786 -0.109746 83.000000
2.198931 -0.535835 -0.109552 77.000000
2.196308 -0.542339 -0.109487 90.000000
2.195602 -0.549317 -0.109552 96.000000
2.193906 -0.556050 -0.109552 91.000000
2.197022 -0.564020 -0.109875 87.000000
2.200110 -0.572014 -0.110199 79.000000
2.202205 -0.579778 -0.110457 69.000000
2.203309 -0.587303 -0.110652 85.000000
2.204386 -0.594841 -0.110846 68.000000
2.198701 -0.600548 -0.110587 75.000000
2.195886 -0.607025 -0.110522 84.000000
2.195935 -0.614297 -0.110652 84.000000
2.197881 -0.622119 -0.110910 88.000000
2.197881 -0.629409 -0.111040 85.000000
2.199773 -0.637260 -0.111299 79.000000
2.205468 -0.646252 -0.111816 83.000000
2.206346 -0.653867 -0.112010 101.000000
2.204329 -0.660632 -0.112010 85.000000
2.208022 -0.669130 -0.112399 62.000000
2.204051 -0.675315 -0.112269 57.000000
2.201015 -0.681779 -0.112205 70.000000
2.200818 -0.689125 -0.112334 62.000000
2.196790 -0.695271 -0.112205 72.000000
2.193696 -0.701703 -0.112140 59.000000
2.193432 -0.709044 -0.112269 54.000000
2.191247 -0.715770 -0.112269 58.000000
2.180512 -0.719673 -0.111687 28.000000
2.183974 -0.728255 -0.112075 7.000000
2.600029 -0.040994 -0.162240 14.000000
2.602882 -0.049025 -0.162469 17.000000
2.608700 -0.057139 -0.162928 21.000000
2.606519 -0.065093 -0.162775 35.000000
2.602320 -0.072979 -0.162469 31.000000
2.591121 -0.080627 -0.161627 38.000000
2.577907 -0.088139 -0.160632 49.000000
2.572643 -0.095864 -0.160249 54.000000
2.568352 -0.103597 -0.159943 52.000000
2.551087 -0.110749 -0.158642 52.000000
2.549739 -0.118529 -0.158565 59.000000
2.542392 -0.126009 -0.158030 73.000000
2.484243 -0.130795 -0.153590 49.000000
2.233948 -0.124608 -0.134377 63.000000
2.231564 -0.131344 -0.134224 56.000000
2.217218 -0.137335 -0.133152 57.000000
2.205841 -0.143430 -0.132310 52.000000
2.200417 -0.149861 -0.131928 58.000000
2.193979 -0.156189 -0.131468 58.000000
2.192495 -0.162846 -0.131392 56.000000
2.189997 -0.169419 -0.131239 50.000000
2.188473 -0.176058 -0.131162 55.000000
2.187923 -0.182771 -0.131162 44.000000
2.193312 -0.189996 -0.131622 57.000000
2.192719 -0.196724 -0.131622 70.000000
2.195083 -0.203725 -0.131851 51.000000
2.195441 -0.210553 -0.131928 61.000000
2.193792 -0.217190 -0.131851 51.000000
2.195100 -0.224121 -0.132004 65.000000
2.200351 -0.231477 -0.132463 40.000000
2.197648 -0.238013 -0.132310 72.000000
2.199881 -0.245084 -0.132540 63.000000
2.197137 -0.251606 -0.132387 62.000000
2.192394 -0.257882 -0.132081 76.000000
2.193572 -0.264845 -0.132234 67.000000
2.189780 -0.271207 -0.132004 47.000000
2.192895 -0.278424 -0.132310 76.000000
2.192030 -0.285151 -0.132310 74.000000
2.190157 -0.291743 -0.132234 84.000000
2.185299 -0.297924 -0.131928 54.000000
2.191288 -0.305588 -0.132463 57.000000
2.189353 -0.312169 -0.132387 67.000000
2.193319 -0.319601 -0.132770 60.000000
2.193314 -0.326474 -0.132846 58.000000
2.188359 -0.332605 -0.132540 61.000000
2.190284 -0.339774 -0.132770 50.000000
2.189231 -0.346492 -0.132770 53.000000
2.185205 -0.352732 -0.132540 51.000000
2.192968 -0.360887 -0.133229 54.000000
2.192834 -0.367777 -0.133305 49.000000
2.190712 -0.374336 -0.133229 62.000000
2.195448 -0.382077 -0.133688 54.000000
2.194265 -0.388811 -0.133688 70.000000
2.193062 -0.395541 -0.133688 70.000000
2.194780 -0.402806 -0.133918 61.000000
2.195495 -0.409903 -0.134071 59.000000
2.192268 -0.416265 -0.133918 49.000000
2.192938 -0.423366 -0.134071 42.000000
2.194565 -0.430667 -0.134301 56.000000
2.191277 -0.437008 -0.134147 52.000000
2.191881 -0.444124 -0.134301 53.000000
2.193438 -0.451448 -0.134530 68.000000
2.191067 -0.457972 -0.134454 74.000000
2.190627 -0.464898 -0.134530 59.000000
2.190165 -0.471826 -0.134607 78.000000
2.191630 -0.479181 -0.134836 59.000000
2.193070 -0.486549 -0.135066 68.000000
2.196431 -0.494367 -0.135449 68.000000
2.195876 -0.501325 -0.135525 60.000000
2.194328 -0.508059 -0.135525 67.000000
2.198584 -0.516153 -0.135985 68.000000
2.196990 -0.522896 -0.135985 55.000000
2.198283 -0.530334 -0.136214 65.000000
2.196646 -0.537075 -0.136214 68.000000
2.197892 -0.544530 -0.136444 73.000000
2.202014 -0.552724 -0.136903 46.000000
2.202241 -0.559967 -0.137056 71.000000
2.203409 -0.567465 -0.137286 54.000000
2.202623 -0.574474 -0.137362 62.000000
2.199886 -0.580975 -0.137286 71.000000
2.201947 -0.588749 -0.137592 58.000000
2.202055 -0.596022 -0.137745 66.000000
2.203102 -0.603564 -0.137975 66.000000
2.202200 -0.610586 -0.138051 58.000000
2.202237 -0.617877 -0.138204 57.000000
2.199372 -0.624359 -0.138128 77.000000
2.199363 -0.631653 -0.138281 54.000000
2.197415 -0.638397 -0.138281 55.000000
2.197359 -0.645697 -0.138434 48.000000
2.193456 -0.651869 -0.138281 47.000000
2.190491 -0.658308 -0.138204 34.000000
2.195140 -0.667052 -0.138740 57.000000
2.193083 -0.673783 -0.138740 52.000000
2.195767 -0.681984 -0.139123 44.000000
2.197470 -0.689910 -0.139429 47.000000
2.217205 -0.703574 -0.141190 28.000000
2.205541 -0.707333 -0.140424 12.000000
2.643390 -0.032684 -0.197882 19.000000
2.634313 -0.040654 -0.197083 28.000000
2.624218 -0.048550 -0.196196 34.000000
2.626048 -0.056644 -0.196374 35.000000
2.613913 -0.064404 -0.195309 30.000000
2.608724 -0.072284 -0.194865 38.000000
2.601521 -0.080072 -0.194244 38.000000
2.596286 -0.087884 -0.193801 38.000000
2.594013 -0.095775 -0.193623 57.000000
2.592712 -0.103692 -0.193534 54.000000
2.583426 -0.111259 -0.192736 67.000000
2.582077 -0.119139 -0.192647 57.000000
2.570756 -0.126519 -0.191671 37.000000
2.562398 -0.133988 -0.190962 42.000000
2.559986 -0.141739 -0.190784 52.000000
2.545619 -0.148776 -0.189542 47.000000
2.530238 -0.155666 -0.188211 59.000000
2.521796 -0.162913 -0.187501 67.000000
2.275823 -0.153997 -0.165588 46.000000
2.230629 -0.157807 -0.161595 55.000000
2.214241 -0.163474 -0.160176 59.000000
2.201812 -0.169347 -0.159111 92.000000
2.204261 -0.176341 -0.159377 59.000000
2.201724 -0.182937 -0.159200 69.000000
2.201153 -0.189691 -0.159200 73.000000
2.199568 -0.196354 -0.159111 74.000000
2.198955 -0.203102 -0.159111 67.000000
2.197330 -0.209752 -0.159022 73.000000
2.193702 -0.216199 -0.158756 64.000000
2.191047 -0.222726 -0.158579 93.000000
2.190354 -0.229447 -0.158579 114.000000
2.191620 -0.236380 -0.158756 70.000000
2.191875 -0.243213 -0.158845 81.000000
2.192107 -0.250049 -0.158933 89.000000
2.190341 -0.256657 -0.158845 97.000000
2.193499 -0.263852 -0.159200 88.000000
2.195645 -0.270947 -0.159466 88.000000
2.195791 -0.277807 -0.159555 77.000000
2.193941 -0.284414 -0.159466 79.000000
2.195033 -0.291406 -0.159643 95.000000
2.194128 -0.298139 -0.159643 92.000000
2.193203 -0.304869 -0.159643 86.000000
2.192257 -0.311597 -0.159643 70.000000
2.195234 -0.318894 -0.159998 77.000000
2.195231 -0.325774 -0.160087 72.000000
2.196190 -0.332806 -0.160264 88.000000
2.197128 -0.339847 -0.160442 74.000000
2.195091 -0.346431 -0.160353 110.000000
2.199918 -0.354115 -0.160885 76.000000
2.197838 -0.360701 -0.160797 81.000000
2.197704 -0.367606 -0.160885 88.000000
2.196565 -0.374347 -0.160885 103.000000
2.194425 -0.380914 -0.160797 82.000000
2.192266 -0.387471 -0.160708 83.000000
2.191067 -0.394195 -0.160708 88.000000
2.189847 -0.400915 -0.160708 83.000000
2.189586 -0.407814 -0.160797 80.000000
2.192239 -0.415272 -0.161151 78.000000
2.193889 -0.422561 -0.161418 88.000000
2.196492 -0.430056 -0.161773 86.000000
2.200046 -0.437766 -0.162216 89.000000
2.201622 -0.445106 -0.162482 70.000000
2.201221 -0.452059 -0.162571 93.000000
2.199824 -0.458810 -0.162571 83.000000
2.198406 -0.465557 -0.162571 78.000000
2.195994 -0.472090 -0.162482 76.000000
2.195508 -0.479037 -0.162571 69.000000
2.199863 -0.487064 -0.163103 91.000000
2.197387 -0.493592 -0.163015 73.000000
2.194891 -0.500110 -0.162926 68.000000
2.195287 -0.507290 -0.163103 87.000000
2.195660 -0.514478 -0.163281 76.000000
2.196978 -0.521903 -0.163547 78.000000
2.199240 -0.529574 -0.163902 72.000000
2.197605 -0.536318 -0.163902 62.000000
2.201751 -0.544494 -0.164434 76.000000
2.202968 -0.551973 -0.164700 88.000000
2.206091 -0.559955 -0.165144 74.000000
2.205328 -0.566969 -0.165233 71.000000
2.203578 -0.573732 -0.165233 87.000000
2.202770 -0.580744 -0.165321 107.000000
2.201941 -0.587756 -0.165410 87.000000
2.198204 -0.593989 -0.165233 77.000000
2.202136 -0.602308 -0.165765 96.000000
2.203157 -0.609859 -0.166031 96.000000
2.206071 -0.617959 -0.166475 62.000000
2.206082 -0.625268 -0.166652 50.000000
2.204153 -0.632033 -0.166652 64.000000
2.203160 -0.639070 -0.166741 72.000000
2.203100 -0.646387 -0.166918 69.000000
2.202062 -0.653427 -0.167007 66.000000
2.202909 -0.661039 -0.167273 62.000000
2.200871 -0.667794 -0.167273 52.000000
2.203573 -0.676005 -0.167717 57.000000
2.207196 -0.684533 -0.168249 34.000000
2.210788 -0.693090 -0.168781 46.000000
2.207701 -0.699569 -0.168693 38.000000
2.193214 -0.702387 -0.167539 21.000000
2.156934 -0.698065 -0.164345 9.000000
2.673116 -0.025245 -0.234225 13.000000
2.661089 -0.033301 -0.233010 19.000000
2.649037 -0.041285 -0.231795 29.000000
2.639946 -0.049249 -0.230884 36.000000
2.625857 -0.057051 -0.229467 32.000000
2.614730 -0.064841 -0.228353 50.000000
2.603579 -0.072562 -0.227240 41.000000
2.594394 -0.080277 -0.226329 29.000000
2.587176 -0.088002 -0.225620 34.000000
2.577946 -0.095611 -0.224709 42.000000
2.571676 -0.103283 -0.224102 42.000000
2.566377 -0.110960 -0.223596 34.000000
2.565031 -0.118787 -0.223494 57.000000
2.558692 -0.126364 -0.222887 39.000000
2.558293 -0.134214 -0.222887 47.000000
2.557869 -0.142062 -0.222887 57.000000
2.566360 -0.150428 -0.223798 37.000000
2.559928 -0.157936 -0.223191 63.000000
2.556453 -0.165598 -0.222887 46.000000
2.548985 -0.172972 -0.222178 35.000000
2.537526 -0.180022 -0.221065 36.000000
2.529024 -0.187222 -0.220255 65.000000
2.486776 -0.191786 -0.216003 26.000000
2.343369 -0.188027 -0.201426 33.000000
2.261480 -0.188482 -0.193125 44.000000
2.215296 -0.191502 -0.188469 64.000000
2.217670 -0.198562 -0.188773 51.000000
2.205163 -0.204270 -0.187558 63.000000
2.202545 -0.210846 -0.187355 51.000000
2.194957 -0.216921 -0.186647 63.000000
2.193292 -0.223553 -0.186545 47.000000
2.193585 -0.230385 -0.186647 58.000000
2.193857 -0.237220 -0.186748 53.000000
2.191141 -0.243730 -0.186545 65.000000
2.191371 -0.250564 -0.186647 76.000000
2.192569 -0.257517 -0.186849 75.000000
2.194732 -0.264598 -0.187153 54.000000
2.195884 -0.271573 -0.187355 63.000000
2.197015 -0.278558 -0.187558 67.000000
2.193190 -0.284914 -0.187254 55.000000
2.195264 -0.292034 -0.187558 63.000000
2.199287 -0.299436 -0.188064 75.000000
2.198358 -0.306182 -0.188064 60.000000
2.199379 -0.313204 -0.188266 58.000000
2.197423 -0.319807 -0.188165 67.000000
2.196431 -0.326548 -0.188165 67.000000
2.198370 -0.333731 -0.188469 76.000000
2.200285 -0.340929 -0.188773 51.000000
2.196281 -0.347214 -0.188469 79.000000
2.195205 -0.353950 -0.188469 62.000000
2.191164 -0.360201 -0.188165 57.000000
2.191030 -0.367085 -0.188266 78.000000
2.191854 -0.374139 -0.188469 64.000000
2.186776 -0.380183 -0.188064 57.000000
2.183640 -0.386544 -0.187861 62.000000
2.184402 -0.393593 -0.188064 63.000000
2.186120 -0.400830 -0.188368 65.000000
2.185858 -0.407717 -0.188469 51.000000
2.188507 -0.415160 -0.188874 84.000000
2.187223 -0.421873 -0.188874 72.000000
2.189824 -0.429345 -0.189279 73.000000
2.188496 -0.436061 -0.189279 55.000000
2.188123 -0.442970 -0.189380 47.000000
2.190652 -0.450480 -0.189785 62.000000
2.193156 -0.458011 -0.190190 73.000000
2.191741 -0.464737 -0.190190 71.000000
2.194195 -0.472294 -0.190595 78.000000
2.194680 -0.479447 -0.190797 60.000000
2.194170 -0.486393 -0.190898 65.000000
2.193638 -0.493340 -0.191000 59.000000
2.195024 -0.500730 -0.191303 81.000000
2.193478 -0.507462 -0.191303 55.000000
2.194817 -0.514869 -0.191607 66.000000
2.193227 -0.521601 -0.191607 64.000000
2.193551 -0.528792 -0.191809 57.000000
2.192885 -0.535755 -0.191911 54.000000
2.196060 -0.543673 -0.192417 63.000000
2.191486 -0.549683 -0.192113 54.000000
2.192683 -0.557138 -0.192417 55.000000
2.191927 -0.564109 -0.192518 57.000000
2.194037 -0.571833 -0.192923 76.000000
2.193234 -0.578815 -0.193024 80.000000
2.194332 -0.586310 -0.193328 68.000000
2.192523 -0.593039 -0.193328 54.000000
2.197411 -0.601599 -0.194037 48.000000
2.197473 -0.608868 -0.194239 66.000000
2.198468 -0.616411 -0.194543 52.000000
2.201353 -0.624508 -0.195049 41.000000
2.202296 -0.632081 -0.195352 43.000000
2.202258 -0.639388 -0.195555 70.000000
2.206969 -0.648100 -0.196264 81.000000
2.202109 -0.654020 -0.195960 48.000000
2.202950 -0.661630 -0.196264 45.000000
2.199006 -0.667808 -0.196061 41.000000
2.195045 -0.673968 -0.195859 23.000000
2.193917 -0.680994 -0.195960 33.000000
2.181374 -0.684451 -0.194846 20.000000
2.189697 -0.694443 -0.195960 7.000000
2.656850 -0.024239 -0.264275 17.000000
2.644841 -0.032243 -0.262919 31.000000
2.638769 -0.040265 -0.262241 30.000000
2.629692 -0.048195 -0.261223 40.000000
2.611651 -0.055878 -0.259189 36.000000
2.605508 -0.063743 -0.258511 41.000000
2.593381 -0.071407 -0.257154 40.000000
2.584212 -0.079088 -0.256137 38.000000
2.577999 -0.086814 -0.255459 47.000000
2.571763 -0.094503 -0.254781 57.000000
2.565504 -0.102155 -0.254102 59.000000
2.565179 -0.110025 -0.254102 49.000000
2.564829 -0.117894 -0.254102 59.000000
2.561478 -0.125616 -0.253763 48.000000
2.567034 -0.133785 -0.254442 56.000000
2.564627 -0.141550 -0.254216 51.000000
2.564181 -0.149418 -0.254216 55.000000
2.567677 -0.157528 -0.254668 46.000000
2.571148 -0.165661 -0.255120 52.000000
2.565671 -0.173213 -0.254555 58.000000
2.570083 -0.181434 -0.255120 38.000000
2.560597 -0.188659 -0.254102 51.000000
2.561987 -0.196667 -0.254329 101.000000
2.532650 -0.202228 -0.251051 34.000000
2.505282 -0.207776 -0.247999 32.000000
2.508592 -0.215802 -0.248451 49.000000
2.500991 -0.222879 -0.247660 39.000000
2.422134 -0.223331 -0.238730 43.000000
2.231532 -0.212633 -0.217029 67.000000
2.220981 -0.218503 -0.215898 71.000000
2.206461 -0.223909 -0.214316 81.000000
2.202799 -0.230367 -0.213977 76.000000
2.202082 -0.237124 -0.213977 74.000000
2.198382 -0.243550 -0.213638 72.000000
2.194662 -0.249956 -0.213299 80.000000
2.196846 -0.257035 -0.213638 77.000000
2.196047 -0.263773 -0.213638 62.000000
2.193255 -0.270266 -0.213412 51.000000
2.196358 -0.277492 -0.213864 78.000000
2.195497 -0.284229 -0.213864 67.000000
2.198555 -0.291487 -0.214316 86.000000
2.201588 -0.298766 -0.214768 64.000000
2.199677 -0.305382 -0.214655 80.000000
2.199713 -0.312269 -0.214768 85.000000
2.199728 -0.319159 -0.214881 72.000000
2.198739 -0.325906 -0.214881 73.000000
2.195764 -0.332352 -0.214655 80.000000
2.195715 -0.339239 -0.214768 87.000000
2.195646 -0.346129 -0.214881 100.000000
2.192612 -0.352547 -0.214655 82.000000
2.192500 -0.359434 -0.214768 82.000000
2.192367 -0.366322 -0.214881 71.000000
2.195151 -0.373714 -0.215333 103.000000
2.195952 -0.380787 -0.215559 90.000000
2.195752 -0.387695 -0.215672 82.000000
2.200419 -0.395486 -0.216350 77.000000
2.204082 -0.403129 -0.216916 69.000000
2.203812 -0.410071 -0.217029 105.000000
2.208401 -0.417940 -0.217707 69.000000
2.203206 -0.423962 -0.217255 76.000000
2.204820 -0.431292 -0.217594 80.000000
2.202512 -0.437860 -0.217481 80.000000
2.198236 -0.444025 -0.217142 90.000000
2.198811 -0.451166 -0.217368 80.000000
2.198389 -0.458113 -0.217481 87.000000
2.194057 -0.464238 -0.217142 85.000000
2.197479 -0.472011 -0.217707 101.000000
2.195050 -0.478539 -0.217594 90.000000
2.195512 -0.485700 -0.217820 94.000000
2.193042 -0.492216 -0.217707 80.000000
2.193459 -0.499383 -0.217933 91.000000
2.190948 -0.505887 -0.217820 91.000000
2.192288 -0.513286 -0.218159 99.000000
2.190703 -0.520010 -0.218159 94.000000
2.191995 -0.527426 -0.218498 67.000000
2.194228 -0.535091 -0.218950 96.000000
2.196434 -0.542774 -0.219402 71.000000
2.196686 -0.549993 -0.219628 71.000000
2.201730 -0.558441 -0.220420 78.000000
2.202893 -0.565935 -0.220759 69.000000
2.204031 -0.573442 -0.221098 57.000000
2.205144 -0.580961 -0.221437 70.000000
2.201431 -0.587211 -0.221211 66.000000
2.200578 -0.594222 -0.221324 75.000000
2.203537 -0.602281 -0.221889 72.000000
2.199764 -0.608508 -0.221663 57.000000
2.195973 -0.614718 -0.221437 62.000000
2.213195 -0.626871 -0.223697 22.000000
2.195980 -0.629276 -0.221889 10.000000
2.621195 -0.016735 -0.292969 14.000000
2.630060 -0.024857 -0.294097 17.000000
2.623028 -0.032842 -0.293220 23.000000
2.614978 -0.040769 -0.292217 24.000000
2.608889 -0.048683 -0.291465 29.000000
2.595833 -0.056412 -0.289836 26.000000
2.592673 -0.064303 -0.289460 37.000000
2.586513 -0.072094 -0.288708 38.000000
2.579337 -0.079817 -0.287831 51.000000
2.576106 -0.087630 -0.287455 44.000000
2.579791 -0.095679 -0.287956 29.000000
2.573537 -0.103357 -0.287204 48.000000
2.573208 -0.111252 -0.287204 39.000000
2.575828 -0.119282 -0.287580 58.000000
2.575449 -0.127184 -0.287580 47.000000
2.580992 -0.135394 -0.288332 29.000000
2.574621 -0.142984 -0.287580 44.000000
2.574170 -0.150882 -0.287580 40.000000
2.576666 -0.158961 -0.287956 32.000000
2.576166 -0.166865 -0.287956 44.000000
2.576632 -0.174835 -0.288081 40.000000
2.579052 -0.182948 -0.288457 44.000000
2.572542 -0.190423 -0.287705 38.000000
2.570956 -0.198239 -0.287580 51.000000
2.572314 -0.206283 -0.287831 89.000000
2.551894 -0.212536 -0.285324 29.000000
2.542334 -0.219600 -0.284196 28.000000
2.530778 -0.226431 -0.282817 52.000000
2.526120 -0.233830 -0.282316 62.000000
2.505638 -0.239699 -0.279809 51.000000
2.463422 -0.243309 -0.274545 35.000000
2.501158 -0.254769 -0.279433 90.000000
2.419452 -0.253986 -0.269156 26.000000
2.255902 -0.243896 -0.248476 45.000000
2.227533 -0.247759 -0.244967 40.000000
2.218876 -0.253694 -0.243964 51.000000
2.210204 -0.259579 -0.242961 57.000000
2.201517 -0.265413 -0.241959 55.000000
2.191830 -0.271074 -0.240831 42.000000
2.193941 -0.278170 -0.241207 71.000000
2.196029 -0.285282 -0.241583 58.000000
2.195144 -0.292018 -0.241583 53.000000
2.194237 -0.298751 -0.241583 64.000000
2.193310 -0.305481 -0.241583 69.000000
2.195310 -0.312627 -0.241959 69.000000
2.197286 -0.319788 -0.242335 67.000000
2.198257 -0.326818 -0.242585 62.000000
2.192340 -0.332819 -0.241959 56.000000
2.188367 -0.339089 -0.241583 67.000000
2.191236 -0.346419 -0.242084 64.000000
2.190163 -0.353140 -0.242084 63.000000
2.191027 -0.360178 -0.242335 61.000000
2.190891 -0.367062 -0.242460 80.000000
2.189754 -0.373782 -0.242460 72.000000
2.194462 -0.381515 -0.243212 58.000000
2.198167 -0.389108 -0.243839 72.000000
2.196963 -0.395850 -0.243839 68.000000
2.197690 -0.402945 -0.244089 76.000000
2.197418 -0.409867 -0.244215 73.000000
2.200050 -0.417344 -0.244716 65.000000
2.199733 -0.424279 -0.244841 86.000000
2.196474 -0.430645 -0.244591 79.000000
2.194170 -0.437188 -0.244465 61.000000
2.191846 -0.443721 -0.244340 59.000000
2.192418 -0.450843 -0.244591 73.000000
2.191024 -0.457567 -0.244591 59.000000
2.190581 -0.464492 -0.244716 76.000000
2.188175 -0.471002 -0.244591 78.000000
2.189628 -0.478347 -0.244967 76.000000
2.189119 -0.485276 -0.245092 65.000000
2.189556 -0.492424 -0.245343 73.000000
2.189970 -0.499580 -0.245593 79.000000
2.188427 -0.506296 -0.245593 76.000000
2.187829 -0.513234 -0.245719 75.000000
2.192036 -0.521318 -0.246471 80.000000
2.191391 -0.528273 -0.246596 57.000000
2.191688 -0.535463 -0.246847 58.000000
2.187145 -0.541471 -0.246471 46.000000
2.185474 -0.548178 -0.246471 40.000000
2.187629 -0.555856 -0.246972 46.000000
2.186874 -0.562812 -0.247097 56.000000
2.187057 -0.570018 -0.247348 54.000000
2.175704 -0.574198 -0.246095 28.000000
2.188311 -0.584705 -0.247975 54.000000
2.186507 -0.591416 -0.247975 32.000000
2.193356 -0.607729 -0.249353 8.000000
2.645694 -0.023217 -0.328762 26.000000
2.638678 -0.031251 -0.327800 20.000000
2.630646 -0.039227 -0.326700 27.000000
2.621600 -0.047136 -0.325463 29.000000
2.610550 -0.054948 -0.323951 35.000000
2.601457 -0.062740 -0.322714 53.000000
2.593332 -0.070505 -0.321615 40.000000
2.592113 -0.078431 -0.321477 39.000000
2.592850 -0.086416 -0.321615 48.000000
2.596532 -0.094515 -0.322165 37.000000
2.595240 -0.102441 -0.322027 61.000000
2.595903 -0.110445 -0.322165 51.000000
2.598521 -0.118545 -0.322577 49.000000
2.598145 -0.126516 -0.322577 42.000000
2.594777 -0.134332 -0.322165 48.000000
2.587429 -0.141912 -0.321202 40.000000
2.587971 -0.149907 -0.321340 46.000000
2.582555 -0.157543 -0.320653 55.000000
2.586014 -0.165720 -0.321202 41.000000
2.586481 -0.173719 -0.321340 56.000000
2.590877 -0.182002 -0.322027 47.000000
2.591294 -0.190022 -0.322165 34.000000
2.597612 -0.198500 -0.323127 33.000000
2.597978 -0.206547 -0.323264 78.000000
2.591409 -0.214027 -0.322439 37.000000
2.583832 -0.221383 -0.321477 28.000000
2.568342 -0.227993 -0.319416 46.000000
2.559739 -0.235146 -0.318316 47.000000
2.550132 -0.242154 -0.317079 48.000000
2.537547 -0.248815 -0.315430 39.000000
2.525932 -0.255500 -0.313918 67.000000
2.514300 -0.262117 -0.312406 61.000000
2.489847 -0.267289 -0.309107 35.000000
2.482124 -0.274164 -0.308145 52.000000
2.447810 -0.277973 -0.303472 49.000000
2.406609 -0.280769 -0.297837 49.000000
2.301489 -0.275648 -0.283268 55.000000
2.230833 -0.274118 -0.273509 71.000000
2.231947 -0.281209 -0.273784 64.000000
2.212409 -0.285642 -0.271173 76.000000
2.204649 -0.291519 -0.270211 82.000000
2.206689 -0.298680 -0.270623 61.000000
2.198894 -0.304496 -0.269661 54.000000
2.197950 -0.311241 -0.269661 59.000000
2.200906 -0.318551 -0.270211 73.000000
2.197958 -0.325012 -0.269936 57.000000
2.194013 -0.331309 -0.269523 80.000000
2.192986 -0.338039 -0.269523 78.000000
2.192917 -0.344919 -0.269661 83.000000
2.195760 -0.352274 -0.270211 96.000000
2.193692 -0.358848 -0.270073 75.000000
2.192581 -0.365577 -0.270073 89.000000
2.195355 -0.372966 -0.270623 78.000000
2.199080 -0.380545 -0.271310 95.000000
2.201804 -0.387978 -0.271860 80.000000
2.196703 -0.394031 -0.271310 75.000000
2.198407 -0.401303 -0.271722 87.000000
2.202035 -0.408951 -0.272410 67.000000
2.200770 -0.415704 -0.272410 94.000000
2.198512 -0.422267 -0.272272 77.000000
2.196234 -0.428820 -0.272135 81.000000
2.193936 -0.435363 -0.271997 71.000000
2.195503 -0.442680 -0.272410 76.000000
2.193164 -0.449215 -0.272272 80.000000
2.190806 -0.455739 -0.272135 71.000000
2.192305 -0.463073 -0.272547 99.000000
2.191842 -0.470005 -0.272685 69.000000
2.190390 -0.476727 -0.272685 85.000000
2.186983 -0.483017 -0.272410 77.000000
2.186457 -0.489941 -0.272547 83.000000
2.184944 -0.496647 -0.272547 80.000000
2.182445 -0.503125 -0.272410 95.000000
2.182820 -0.510270 -0.272685 89.000000
2.188954 -0.518793 -0.273784 59.000000
2.192168 -0.526664 -0.274471 60.000000
2.189579 -0.533152 -0.274334 59.000000
2.191779 -0.540817 -0.274884 74.000000
2.188188 -0.547058 -0.274609 59.000000
2.189380 -0.554499 -0.275021 70.000000
2.190547 -0.561952 -0.275433 64.000000
2.154301 -0.559697 -0.270485 27.000000
2.142038 -0.563530 -0.268974 8.000000
2.632221 -0.025333 -0.358606 18.000000
2.623232 -0.033299 -0.357263 22.000000
2.617185 -0.041256 -0.356368 22.000000
2.616058 -0.049267 -0.356219 20.000000
2.597111 -0.056890 -0.353385 36.000000
2.587039 -0.064615 -0.351893 47.000000
2.579910 -0.072361 -0.350848 41.000000
2.583629 -0.080397 -0.351445 46.000000
2.586335 -0.088423 -0.351893 41.000000
2.586052 -0.096357 -0.351893 47.000000
2.591672 -0.104527 -0.352788 29.000000
2.588375 -0.112351 -0.352340 46.000000
2.590982 -0.120427 -0.352788 38.000000
2.589612 -0.128327 -0.352639 50.000000
2.589206 -0.136272 -0.352639 42.000000
2.585814 -0.144051 -0.352191 47.000000
2.589309 -0.152214 -0.352788 36.000000
2.593764 -0.160460 -0.353534 52.000000
2.593260 -0.168417 -0.353534 41.000000
2.600624 -0.176905 -0.354727 37.000000
2.610918 -0.185650 -0.356368 37.000000
2.610337 -0.193659 -0.356368 31.000000
2.617618 -0.202272 -0.357562 29.000000
2.615013 -0.210145 -0.357263 37.000000
2.611400 -0.217921 -0.356816 58.000000
2.592986 -0.224405 -0.354130 17.000000
2.585391 -0.231744 -0.353086 22.000000
2.576791 -0.238948 -0.351893 22.000000
2.561281 -0.245444 -0.349655 32.000000
2.552643 -0.252526 -0.348461 32.000000
2.536116 -0.258757 -0.346074 44.000000
2.532360 -0.266228 -0.345627 47.000000
2.518751 -0.272619 -0.343687 25.000000
2.518886 -0.280454 -0.343836 40.000000
2.517031 -0.288068 -0.343687 45.000000
2.499440 -0.293834 -0.341151 34.000000
2.496563 -0.301265 -0.340853 52.000000
2.498571 -0.309286 -0.341300 74.000000
2.450523 -0.310997 -0.334139 46.000000
2.417197 -0.314321 -0.329216 44.000000
2.288792 -0.304829 -0.309821 52.000000
2.244735 -0.305995 -0.303257 50.000000
2.259456 -0.315058 -0.305644 31.000000
2.214424 -0.315730 -0.298930 53.000000
2.210510 -0.322096 -0.298483 53.000000
2.200708 -0.327571 -0.297140 49.000000
2.195782 -0.333729 -0.296543 51.000000
2.191816 -0.340011 -0.296095 42.000000
2.189786 -0.346579 -0.295946 53.000000
2.191641 -0.353767 -0.296394 54.000000
2.189570 -0.360329 -0.296245 64.000000
2.185528 -0.366556 -0.295797 64.000000
2.186343 -0.373591 -0.296095 68.000000
2.185186 -0.380297 -0.296095 65.000000
2.180115 -0.386311 -0.295499 48.000000
2.178919 -0.392998 -0.295499 60.000000
2.177703 -0.399681 -0.295499 55.000000
2.178411 -0.406722 -0.295797 58.000000
2.181039 -0.414139 -0.296394 63.000000
2.181700 -0.421203 -0.296692 48.000000
2.183309 -0.428464 -0.297140 50.000000
2.189743 -0.436703 -0.298333 55.000000
2.195177 -0.444790 -0.299378 54.000000
2.193802 -0.451523 -0.299378 56.000000
2.189502 -0.457646 -0.298930 65.000000
2.189055 -0.464566 -0.299079 68.000000
2.186653 -0.471072 -0.298930 63.000000
2.185198 -0.477778 -0.298930 62.000000
2.183722 -0.484480 -0.298930 71.000000
2.176436 -0.489877 -0.298035 44.000000
2.183600 -0.498528 -0.299378 43.000000
2.189768 -0.507006 -0.300571 50.000000
2.189165 -0.513947 -0.300720 59.000000
2.190464 -0.521346 -0.301168 58.000000
2.188854 -0.528064 -0.301168 47.000000
2.190106 -0.535480 -0.301616 50.000000
2.185573 -0.541484 -0.301168 34.000000
2.189656 -0.549629 -0.302063 9.000000
2.683585 -0.024021 -0.399270 16.000000
2.647971 -0.031822 -0.393470 19.000000
2.633059 -0.039720 -0.391054 33.000000
2.629964 -0.047744 -0.390571 38.000000
2.618951 -0.055580 -0.388799 46.000000
2.610875 -0.063422 -0.387510 44.000000
2.605736 -0.071296 -0.386705 39.000000
2.603532 -0.079230 -0.386383 49.000000
2.599331 -0.087084 -0.385738 45.000000
2.599051 -0.095058 -0.385738 36.000000
2.594803 -0.102875 -0.385094 38.000000
2.598419 -0.111004 -0.385738 30.000000
2.595109 -0.118840 -0.385255 42.000000
2.596703 -0.126897 -0.385577 60.000000
2.597287 -0.134915 -0.385738 34.000000
2.599818 -0.143045 -0.386222 44.000000
2.602322 -0.151193 -0.386705 46.000000
2.603817 -0.159297 -0.387027 41.000000
2.606270 -0.167475 -0.387510 44.000000
2.613622 -0.176002 -0.388799 45.000000
2.620945 -0.184575 -0.390088 43.000000
2.626272 -0.193050 -0.391054 41.000000
2.636492 -0.201937 -0.392826 45.000000
2.636844 -0.210104 -0.392987 40.000000
2.636187 -0.218192 -0.392987 56.000000
2.632555 -0.226025 -0.392504 54.000000
2.623002 -0.233312 -0.391054 29.000000
2.613429 -0.240543 -0.389604 23.000000
2.603836 -0.247717 -0.388155 29.000000
2.585385 -0.253965 -0.385255 26.000000
2.578702 -0.261298 -0.384289 22.000000
2.561201 -0.267463 -0.381550 34.000000
2.542706 -0.273418 -0.378650 35.000000
2.534007 -0.280348 -0.377362 41.000000
2.522349 -0.286892 -0.375590 44.000000
2.515575 -0.293941 -0.374623 40.000000
2.512702 -0.301422 -0.374301 37.000000
2.511765 -0.309129 -0.374301 50.000000
2.520597 -0.318071 -0.375912 61.000000
2.518630 -0.325676 -0.375751 73.000000
2.516641 -0.333272 -0.375590 66.000000
2.490179 -0.337541 -0.371402 36.000000
2.479356 -0.343821 -0.369791 46.000000
2.511513 -0.356143 -0.375268 23.000000
2.433248 -0.352651 -0.362542 36.000000
2.256425 -0.334067 -0.333546 63.000000
2.218308 -0.335375 -0.327425 66.000000
2.218244 -0.342330 -0.327586 64.000000
2.202560 -0.346829 -0.325170 86.000000
2.205383 -0.354211 -0.325814 61.000000
2.194547 -0.359379 -0.324203 67.000000
2.192460 -0.365947 -0.324042 70.000000
2.192300 -0.372838 -0.324203 56.000000
2.193091 -0.379899 -0.324525 72.000000
2.196775 -0.387484 -0.325331 65.000000
2.191690 -0.393523 -0.324686 69.000000
2.191443 -0.400423 -0.324847 68.000000
2.192145 -0.407505 -0.325170 67.000000
2.188945 -0.413862 -0.324847 85.000000
2.190573 -0.421135 -0.325331 84.000000
2.192176 -0.428422 -0.325814 84.000000
2.186979 -0.434375 -0.325170 88.000000
2.194343 -0.442842 -0.326619 71.000000
2.197808 -0.450564 -0.327425 75.000000
2.193517 -0.456700 -0.326942 68.000000
2.199830 -0.465062 -0.328230 68.000000
2.198393 -0.471809 -0.328230 65.000000
2.193078 -0.477710 -0.327586 64.000000
2.196420 -0.485502 -0.328391 64.000000
2.191068 -0.491374 -0.327747 61.000000
2.190513 -0.498313 -0.327908 66.000000
2.194744 -0.506363 -0.328875 59.000000
2.188375 -0.511969 -0.328069 39.000000
2.181993 -0.517541 -0.327264 25.000000
2.201505 -0.529312 -0.330808 8.000000
2.608077 -0.033114 -0.419086 22.000000
2.599100 -0.040979 -0.417529 36.000000
2.595023 -0.048881 -0.416837 47.000000
2.590921 -0.056757 -0.416146 48.000000
2.591720 -0.064730 -0.416319 32.000000
2.592494 -0.072708 -0.416491 50.000000
2.592258 -0.080661 -0.416491 46.000000
2.596920 -0.088780 -0.417356 31.000000
2.599589 -0.096856 -0.417875 32.000000
2.599279 -0.104831 -0.417875 29.000000
2.604850 -0.113058 -0.418913 29.000000
2.606458 -0.121140 -0.419259 26.000000
2.606075 -0.129136 -0.419259 45.000000
2.605666 -0.137130 -0.419259 35.000000
2.608183 -0.145287 -0.419778 34.000000
2.613625 -0.153632 -0.420815 37.000000
2.614124 -0.161710 -0.420988 40.000000
2.624428 -0.170427 -0.422891 34.000000
2.635685 -0.179275 -0.424967 25.000000
2.647894 -0.188262 -0.427215 27.000000
2.662038 -0.197472 -0.429809 30.000000
2.672222 -0.206468 -0.431712 23.000000
2.690230 -0.216156 -0.434998 18.000000
2.628530 -0.243722 -0.424621 24.000000
2.597375 -0.248887 -0.419259 18.000000
2.595618 -0.256758 -0.419086 24.000000
2.579140 -0.263127 -0.416319 34.000000
2.563627 -0.269501 -0.413724 28.000000
2.562789 -0.277365 -0.413724 17.000000
2.538431 -0.282621 -0.409573 25.000000
2.522873 -0.288734 -0.406979 37.000000
2.516106 -0.295786 -0.405941 37.000000
2.506386 -0.302446 -0.404384 36.000000
2.508379 -0.310495 -0.404903 34.000000
2.509369 -0.318437 -0.405249 34.000000
2.519125 -0.327526 -0.407152 41.000000
2.526895 -0.336419 -0.408708 69.000000
2.520971 -0.343507 -0.407843 45.000000
2.523808 -0.351781 -0.408535 35.000000
2.521741 -0.359384 -0.408362 33.000000
2.521602 -0.367261 -0.408535 27.000000
2.513643 -0.373984 -0.407325 26.000000
2.487165 -0.377859 -0.402828 17.000000
2.445112 -0.379168 -0.395563 19.000000
2.385563 -0.377460 -0.385186 24.000000
2.262841 -0.365222 -0.363566 35.000000
2.183955 -0.359408 -0.349729 68.000000
2.187699 -0.366919 -0.350593 53.000000
2.184621 -0.373298 -0.350248 48.000000
2.185406 -0.380335 -0.350593 45.000000
2.192958 -0.388580 -0.352150 54.000000
2.189817 -0.394958 -0.351804 56.000000
2.191502 -0.402206 -0.352323 53.000000
2.191226 -0.409108 -0.352496 63.000000
2.189960 -0.415829 -0.352496 56.000000
2.191576 -0.423104 -0.353015 61.000000
2.189301 -0.429636 -0.352842 50.000000
2.182176 -0.435198 -0.351804 57.000000
2.183727 -0.442476 -0.352323 36.000000
2.182359 -0.449174 -0.352323 40.000000
2.186756 -0.457073 -0.353361 53.000000
2.194016 -0.465616 -0.354917 37.000000
2.185836 -0.470896 -0.353707 55.000000
2.182457 -0.477180 -0.353361 48.000000
2.201177 -0.488343 -0.356993 33.000000
2.204474 -0.496173 -0.357858 24.000000
2.624333 -0.024393 -0.453429 29.000000
2.616384 -0.032346 -0.451953 33.000000
2.607428 -0.040235 -0.450293 49.000000
2.607292 -0.048234 -0.450293 47.000000
2.608114 -0.056254 -0.450477 44.000000
2.603999 -0.064158 -0.449739 37.000000
2.609685 -0.072311 -0.450846 44.000000
2.609451 -0.080317 -0.450846 45.000000
2.606245 -0.088222 -0.450293 43.000000
2.610873 -0.096400 -0.451215 39.000000
2.614493 -0.104567 -0.451953 39.000000
2.618088 -0.112757 -0.452691 43.000000
2.621657 -0.120971 -0.453429 47.000000
2.620292 -0.128965 -0.453244 28.000000
2.629699 -0.137518 -0.455089 31.000000
2.635152 -0.145912 -0.456196 57.000000
2.635673 -0.154053 -0.456380 53.000000
2.640093 -0.162441 -0.457302 33.000000
2.647429 -0.171048 -0.458778 39.000000
2.657678 -0.179901 -0.460807 33.000000
2.658094 -0.188124 -0.460992 37.000000
2.668286 -0.197076 -0.463021 15.000000
2.704906 -0.208132 -0.470030 13.000000
2.631152 -0.251241 -0.456933 26.000000
2.615698 -0.257864 -0.454166 19.000000
2.604139 -0.264792 -0.452137 30.000000
2.587675 -0.271139 -0.449186 23.000000
2.566310 -0.276860 -0.445312 25.000000
2.549820 -0.282995 -0.442361 42.000000
2.537222 -0.289478 -0.440147 36.000000
2.532417 -0.296802 -0.439409 44.000000
2.518809 -0.303042 -0.437011 50.000000
2.521770 -0.311250 -0.437749 37.000000
2.522753 -0.319233 -0.438118 30.000000
2.532483 -0.328363 -0.440147 32.000000
2.544129 -0.337814 -0.442545 29.000000
2.551845 -0.346811 -0.444205 56.000000
2.546875 -0.354096 -0.443467 30.000000
2.559400 -0.363847 -0.446050 44.000000
2.564107 -0.372546 -0.447157 39.000000
2.561008 -0.380122 -0.446788 33.000000
2.534565 -0.384144 -0.441992 25.000000
2.377973 -0.367853 -0.412477 6.000000
2.445759 -0.386037 -0.425574 12.000000
2.188545 -0.386813 -0.377982 55.000000
2.188315 -0.393699 -0.378166 55.000000
2.190964 -0.401120 -0.378904 52.000000
2.187790 -0.407479 -0.378535 73.000000
2.187496 -0.414373 -0.378720 65.000000
2.188144 -0.421454 -0.379089 58.000000
2.187805 -0.428354 -0.379273 54.000000
2.183589 -0.434488 -0.378720 53.000000
2.179356 -0.440601 -0.378166 52.000000
2.182807 -0.448274 -0.379089 53.000000
2.185270 -0.455772 -0.379827 52.000000
2.186746 -0.463086 -0.380380 53.000000
2.208375 -0.474754 -0.384807 25.000000
2.641826 -0.025421 -0.489060 20.000000
2.626047 -0.033334 -0.485922 27.000000
2.607304 -0.041105 -0.482196 42.000000
2.610107 -0.049158 -0.482784 32.000000
2.601120 -0.056976 -0.481019 43.000000
2.600934 -0.064956 -0.481019 43.000000
2.607583 -0.073125 -0.482392 27.000000
2.607347 -0.081124 -0.482392 43.000000
2.606106 -0.089090 -0.482196 33.000000
2.606800 -0.097121 -0.482392 28.000000
2.614328 -0.105431 -0.483961 41.000000
2.618890 -0.113661 -0.484942 31.000000
2.621468 -0.121831 -0.485530 33.000000
2.625979 -0.130113 -0.486511 31.000000
2.632422 -0.138527 -0.487883 31.000000
2.641776 -0.147143 -0.489845 33.000000
2.645227 -0.155476 -0.490629 39.000000
2.647675 -0.163771 -0.491217 36.000000
2.635417 -0.171136 -0.488864 29.000000
2.621182 -0.178295 -0.486118 19.000000
2.588345 -0.184055 -0.479647 11.000000
2.621311 -0.259288 -0.487491 19.000000
2.608796 -0.266139 -0.485138 25.000000
2.617720 -0.275163 -0.487099 11.000000
2.604189 -0.281826 -0.484549 13.000000
2.566278 -0.285708 -0.477097 29.000000
2.546878 -0.291470 -0.473371 36.000000
2.544024 -0.299055 -0.472979 35.000000
2.528491 -0.305103 -0.470037 41.000000
2.529489 -0.313099 -0.470429 46.000000
2.531435 -0.321226 -0.471017 32.000000
2.534328 -0.329495 -0.471802 37.000000
2.541081 -0.338301 -0.473371 29.000000
2.548776 -0.347282 -0.475136 50.000000
2.553526 -0.355910 -0.476313 39.000000
2.566985 -0.365811 -0.479254 39.000000
2.571673 -0.374530 -0.480431 35.000000
2.579242 -0.383713 -0.482196 36.000000
2.569327 -0.390302 -0.480431 27.000000
2.547766 -0.395037 -0.476313 14.000000
2.176506 -0.413281 -0.403749 30.000000
2.170413 -0.419030 -0.402769 40.000000
2.173929 -0.426628 -0.403749 53.000000
2.175495 -0.433869 -0.404337 49.000000
2.167425 -0.439182 -0.402965 28.000000
2.160305 -0.444647 -0.401788 7.000000
2.156050 -0.450672 -0.401200 8.000000
2.630487 -0.031609 -0.519152 25.000000
2.624509 -0.039590 -0.517905 39.000000
2.620463 -0.047570 -0.517074 41.000000
2.615415 -0.055505 -0.516036 32.000000
2.612299 -0.063457 -0.515413 40.000000
2.611114 -0.071444 -0.515205 41.000000
2.610882 -0.079455 -0.515205 40.000000
2.613559 -0.087563 -0.515828 30.000000
2.611323 -0.095509 -0.515413 36.000000
2.613950 -0.103637 -0.516036 38.000000
2.619484 -0.111907 -0.517282 38.000000
2.623037 -0.120123 -0.518113 39.000000
2.627541 -0.128409 -0.519152 41.000000
2.631042 -0.136673 -0.519983 34.000000
2.627680 -0.144583 -0.519360 34.000000
2.632107 -0.152928 -0.520398 33.000000
2.636507 -0.161302 -0.521437 32.000000
2.610620 -0.167755 -0.516036 11.000000
2.623113 -0.265805 -0.520398 21.000000
2.607692 -0.272325 -0.517282 33.000000
2.593228 -0.278858 -0.514374 31.000000
2.573888 -0.284766 -0.510427 31.000000
2.550648 -0.290115 -0.505649 35.000000
2.537116 -0.296461 -0.502948 36.000000
2.526483 -0.303077 -0.500871 47.000000
2.528454 -0.311186 -0.501494 44.000000
2.531369 -0.319432 -0.502325 32.000000
2.541048 -0.328578 -0.504610 30.000000
2.548755 -0.337530 -0.506480 31.000000
2.566124 -0.347847 -0.510427 32.000000
2.579578 -0.357735 -0.513543 16.000000
2.587185 -0.366885 -0.515413 38.000000
2.592824 -0.375804 -0.516867 30.000000
2.605205 -0.385765 -0.519775 17.000000
2.604009 -0.393756 -0.519775 21.000000
2.640335 -0.033967 -0.553417 19.000000
2.637291 -0.042022 -0.552759 23.000000
2.634223 -0.050059 -0.552102 27.000000
2.629180 -0.058035 -0.551006 31.000000
2.621186 -0.065908 -0.549253 25.000000
2.611219 -0.073678 -0.547061 37.000000
2.610981 -0.081689 -0.547061 25.000000
2.616568 -0.089897 -0.548376 33.000000
2.616280 -0.097925 -0.548376 31.000000
2.623767 -0.106263 -0.550129 26.000000
2.631227 -0.114649 -0.551883 18.000000
2.641584 -0.123216 -0.554293 26.000000
2.646066 -0.131560 -0.555389 31.000000
2.655393 -0.140187 -0.557581 27.000000
2.649105 -0.148009 -0.556266 34.000000
2.672015 -0.157504 -0.561526 23.000000
2.594841 -0.265177 -0.546184 17.000000
2.577519 -0.271407 -0.542458 22.000000
2.568913 -0.278476 -0.540705 18.000000
2.567077 -0.286248 -0.540486 26.000000
2.554554 -0.292794 -0.537856 32.000000
2.547830 -0.299948 -0.536541 29.000000
2.538179 -0.306714 -0.534568 31.000000
2.538195 -0.314619 -0.534788 26.000000
2.540121 -0.322772 -0.535445 23.000000
2.545892 -0.331443 -0.536979 31.000000
2.551634 -0.340151 -0.538513 21.000000
2.559279 -0.349161 -0.540486 30.000000
2.565927 -0.358086 -0.542239 23.000000
2.577374 -0.367743 -0.545088 32.000000
2.581062 -0.376350 -0.546184 23.000000
2.588581 -0.385557 -0.548157 16.000000
2.594138 -0.394520 -0.549691 6.000000
2.646012 -0.015561 -0.587525 29.000000
2.645952 -0.023679 -0.587525 30.000000
2.640029 -0.031725 -0.586141 45.000000
2.639919 -0.039825 -0.586141 56.000000
2.637839 -0.047888 -0.585680 46.000000
2.634761 -0.055918 -0.584987 50.000000
2.634577 -0.064001 -0.584987 37.000000
2.633396 -0.072057 -0.584757 42.000000
2.629272 -0.080017 -0.583834 30.000000
2.634849 -0.088279 -0.585218 30.000000
2.635538 -0.096398 -0.585449 48.000000
2.640091 -0.104677 -0.586603 38.000000
2.649479 -0.113193 -0.588910 29.000000
2.658839 -0.121767 -0.591217 41.000000
2.660397 -0.130019 -0.591679 33.000000
2.666787 -0.138535 -0.593294 35.000000
2.674122 -0.147145 -0.595140 45.000000
2.679486 -0.155688 -0.596524 15.000000
2.611110 -0.256496 -0.582219 24.000000
2.612247 -0.264702 -0.582680 22.000000
2.605617 -0.272108 -0.581296 23.000000
2.597030 -0.279267 -0.579450 39.000000
2.586490 -0.286162 -0.577143 37.000000
2.582700 -0.293766 -0.576450 22.000000
2.575021 -0.300896 -0.574835 40.000000
2.569256 -0.308215 -0.573682 32.000000
2.567332 -0.315977 -0.573451 52.000000
2.567316 -0.323974 -0.573682 51.000000
2.563415 -0.331474 -0.572990 45.000000
2.565280 -0.339720 -0.573682 30.000000
2.568082 -0.348112 -0.574605 29.000000
2.578568 -0.357595 -0.577373 24.000000
2.585165 -0.366598 -0.579219 20.000000
2.588843 -0.375226 -0.580373 29.000000
2.586717 -0.383024 -0.580142 22.000000
2.592264 -0.391978 -0.581757 10.000000
2.641401 -0.017313 -0.618966 14.000000
2.651037 -0.025506 -0.621387 28.000000
2.649976 -0.033627 -0.621145 23.000000
2.648890 -0.041742 -0.620903 26.000000
2.651660 -0.049922 -0.621629 22.000000
2.654405 -0.058119 -0.622355 27.000000
2.661004 -0.066429 -0.624050 31.000000
2.659818 -0.074566 -0.623808 25.000000
2.645999 -0.082310 -0.620418 31.000000
2.645734 -0.090427 -0.620418 30.000000
2.638657 -0.098294 -0.618724 19.000000
2.643191 -0.106582 -0.619934 23.000000
2.649637 -0.114982 -0.621629 39.000000
2.653148 -0.123289 -0.622597 26.000000
2.655665 -0.131571 -0.623323 17.000000
2.662031 -0.140072 -0.625018 26.000000
2.651901 -0.147703 -0.622597 14.000000
2.601757 -0.265424 -0.612429 18.000000
2.592246 -0.272496 -0.610251 22.000000
2.596220 -0.280968 -0.611461 20.000000
2.585703 -0.287862 -0.609040 20.000000
2.579988 -0.295244 -0.607830 32.000000
2.574251 -0.302594 -0.606619 16.000000
2.575237 -0.310722 -0.607103 22.000000
2.574272 -0.318621 -0.607103 26.000000
2.580983 -0.327491 -0.609040 38.000000
2.575155 -0.334784 -0.607830 35.000000
2.581810 -0.343704 -0.609766 34.000000
2.585551 -0.352276 -0.610977 29.000000
2.592146 -0.361275 -0.612914 20.000000
2.594868 -0.369772 -0.613882 21.000000
2.601403 -0.378846 -0.615819 24.000000
2.596389 -0.386256 -0.614850 30.000000
2.634580 -0.015035 -0.649878 23.000000
2.645162 -0.023213 -0.652665 30.000000
2.647980 -0.031363 -0.653426 30.000000
2.652708 -0.039559 -0.654693 47.000000
2.648705 -0.047627 -0.653679 24.000000
2.654349 -0.055876 -0.655200 38.000000
2.657066 -0.064090 -0.655960 31.000000
2.658791 -0.072294 -0.656467 36.000000
2.659523 -0.080480 -0.656720 25.000000
2.656364 -0.088542 -0.655960 28.000000
2.655113 -0.096656 -0.655707 38.000000
2.653837 -0.104763 -0.655453 36.000000
2.651571 -0.112822 -0.654946 36.000000
2.655077 -0.121133 -0.655960 43.000000
2.659524 -0.129514 -0.657227 30.000000
2.654284 -0.137422 -0.655960 43.000000
2.654816 -0.145618 -0.656213 12.000000
2.671740 -0.154771 -0.660775 9.000000
2.625898 -0.257491 -0.650892 26.000000
2.628945 -0.265936 -0.651905 22.000000
2.625230 -0.273699 -0.651145 23.000000
2.620531 -0.281338 -0.650131 25.000000
2.609079 -0.288207 -0.647344 26.000000
2.594726 -0.294680 -0.643796 31.000000
2.589967 -0.302190 -0.642782 30.000000
2.589028 -0.310134 -0.642782 31.000000
2.587104 -0.317958 -0.642529 41.000000
2.594754 -0.326983 -0.644809 36.000000
2.597576 -0.335438 -0.645823 27.000000
2.602288 -0.344168 -0.647344 33.000000
2.607930 -0.353059 -0.649118 39.000000
2.608751 -0.361324 -0.649624 33.000000
2.614335 -0.370277 -0.651398 40.000000
2.620846 -0.379405 -0.653426 35.000000
2.611057 -0.386169 -0.651145 18.000000
2.624207 -0.396347 -0.654946 8.000000
2.694256 -0.008903 -0.697582 13.000000
2.673962 -0.017048 -0.692033 18.000000
2.671968 -0.025234 -0.691505 28.000000
2.670914 -0.033420 -0.691241 32.000000
2.665013 -0.041527 -0.689655 25.000000
2.658123 -0.049580 -0.687806 31.000000
2.656994 -0.057714 -0.687542 31.000000
2.659697 -0.065936 -0.688334 24.000000
2.671051 -0.074412 -0.691505 18.000000
2.663098 -0.082371 -0.689391 22.000000
2.658978 -0.090412 -0.688334 38.000000
2.658688 -0.098569 -0.688334 28.000000
2.655481 -0.106611 -0.687542 29.000000
2.658033 -0.114881 -0.688334 28.000000
2.662485 -0.123256 -0.689655 23.000000
2.654388 -0.131047 -0.687542 29.000000
2.655899 -0.139290 -0.688070 27.000000
2.646793 -0.146960 -0.685692 13.000000
2.611944 -0.249819 -0.678294 13.000000
2.587170 -0.255473 -0.671689 9.000000
2.637230 -0.268565 -0.685692 31.000000
2.628720 -0.275853 -0.683579 21.000000
2.624984 -0.283607 -0.682786 23.000000
2.619308 -0.291128 -0.681465 34.000000
2.607862 -0.297963 -0.678559 26.000000
2.599272 -0.305067 -0.676445 27.000000
2.595451 -0.312695 -0.675652 22.000000
2.598308 -0.321128 -0.676709 27.000000
2.599225 -0.329339 -0.677238 26.000000
2.602028 -0.337807 -0.678294 31.000000
2.600024 -0.345662 -0.678030 23.000000
2.601818 -0.354025 -0.678823 18.000000
2.603585 -0.362404 -0.679615 30.000000
2.593867 -0.369170 -0.677238 16.000000
2.591768 -0.376988 -0.676973 25.000000
2.585829 -0.384231 -0.675652 13.000000
2.659722 0.000676 -0.720953 11.000000
2.666441 -0.007504 -0.722880 22.000000
2.672173 -0.015719 -0.724532 17.000000
2.672113 -0.023917 -0.724532 26.000000
2.663375 -0.032009 -0.722055 18.000000
2.663264 -0.040180 -0.722055 33.000000
2.663128 -0.048351 -0.722055 33.000000
2.659123 -0.056439 -0.720953 23.000000
2.663743 -0.064714 -0.722330 23.000000
2.666415 -0.072965 -0.723156 17.000000
2.659452 -0.080940 -0.721229 27.000000
2.656309 -0.089002 -0.720403 28.000000
2.653141 -0.097045 -0.719577 23.000000
2.650909 -0.105108 -0.719026 31.000000
2.646733 -0.113075 -0.717925 32.000000
2.640611 -0.120930 -0.716273 28.000000
2.635427 -0.128795 -0.714897 30.000000
2.639820 -0.137130 -0.716273 18.000000
2.659250 -0.252998 -0.724257 17.000000
2.655591 -0.260872 -0.723431 31.000000
2.647127 -0.268242 -0.721229 30.000000
2.636730 -0.275362 -0.718476 19.000000
2.638741 -0.283759 -0.719302 39.000000
2.624480 -0.290371 -0.715447 34.000000
2.616891 -0.297660 -0.713520 32.000000
2.606417 -0.304570 -0.710767 46.000000
2.595925 -0.311418 -0.708014 35.000000
2.594958 -0.319381 -0.708014 25.000000
2.594919 -0.327461 -0.708290 27.000000
2.589136 -0.334804 -0.706913 37.000000
2.590955 -0.343125 -0.707739 34.000000
2.597511 -0.352106 -0.709941 24.000000
2.596419 -0.360073 -0.709941 30.000000
2.592446 -0.367632 -0.709115 25.000000
2.593209 -0.375860 -0.709666 24.000000
2.591093 -0.383673 -0.709391 13.000000
2.572794 -0.389031 -0.704435 6.000000
2.677883 0.007111 -0.758447 24.000000
2.669268 -0.001105 -0.755873 9.000000
2.680751 -0.009329 -0.759305 15.000000
2.672086 -0.017501 -0.756731 21.000000
2.663396 -0.025619 -0.754157 22.000000
2.667137 -0.033837 -0.755301 22.000000
2.664146 -0.041976 -0.754443 27.000000
2.661131 -0.050096 -0.753585 23.000000
2.662881 -0.058301 -0.754157 27.000000
2.662689 -0.066471 -0.754157 23.000000
2.656726 -0.074481 -0.752441 15.000000
2.656485 -0.082631 -0.752441 31.000000
2.654303 -0.090716 -0.751869 28.000000
2.653055 -0.098824 -0.751583 31.000000
2.658484 -0.107192 -0.753299 38.000000
2.655271 -0.115224 -0.752441 26.000000
2.649161 -0.123105 -0.750724 26.000000
2.657385 -0.131655 -0.753299 33.000000
2.772369 -0.256996 -0.790196 8.000000
2.668547 -0.255675 -0.759305 19.000000
2.679193 -0.264987 -0.762737 12.000000
2.666928 -0.272044 -0.759305 20.000000
2.648926 -0.278429 -0.754157 19.000000
2.644249 -0.286144 -0.753013 29.000000
2.613834 -0.290981 -0.744146 12.000000
2.609121 -0.298565 -0.743002 19.000000
2.596772 -0.305231 -0.739570 24.000000
