ply
format ascii 1.0
element vertex 1257
property float x
property float y
property float z
property float intensity
end_header
1.209565 -0.182691 0.314727 90.000000
1.208998 -0.186401 0.314727 79.000000
1.214196 -0.191019 0.316076 96.000000
1.222263 -0.196136 0.318099 125.000000
1.223578 -0.200200 0.318549 126.000000
1.223920 -0.204114 0.318773 144.000000
1.226169 -0.208358 0.319448 109.000000
1.227445 -0.212452 0.319897 126.000000
1.225827 -0.216047 0.319672 132.000000
1.224200 -0.219635 0.319448 103.000000
1.236939 -0.225844 0.322595 70.000000
1.242946 -0.230885 0.324168 63.000000
1.242232 -0.234698 0.324168 59.000000
1.248204 -0.239796 0.325742 48.000000
1.253200 -0.244747 0.327090 42.000000
1.239064 -0.245931 0.323943 25.000000
1.228752 -0.247802 0.321695 22.000000
1.182169 -0.242169 0.310906 6.000000
1.210992 -0.251957 0.317874 13.000000
1.160836 -0.248947 0.306410 5.000000
1.164828 -0.253545 0.307534 7.000000
1.074001 -0.261509 0.287529 5.000000
1.237350 0.265203 0.309342 29.000000
1.243892 0.262621 0.310623 32.000000
1.242779 0.258404 0.310196 43.000000
1.240695 0.254000 0.309555 48.000000
1.244341 0.250774 0.310196 34.000000
1.229775 0.243900 0.306779 59.000000
1.223807 0.238810 0.305284 86.000000
1.227412 0.235609 0.305925 88.000000
1.226209 0.231478 0.305498 129.000000
1.225953 0.227536 0.305284 101.000000
1.223763 0.223245 0.304644 129.000000
1.224442 0.219490 0.304644 108.000000
1.226071 0.215903 0.304857 99.000000
1.222878 0.211471 0.304003 103.000000
1.219669 0.207060 0.303149 103.000000
1.221262 0.203479 0.303362 116.000000
1.218989 0.199255 0.302722 93.000000
1.215736 0.194893 0.301868 105.000000
1.212469 0.190551 0.301013 118.000000
1.204359 0.185484 0.299092 100.000000
1.200093 0.181055 0.298024 96.000000
1.195811 0.176654 0.296956 82.000000
1.188614 0.171858 0.295248 83.000000
1.182365 0.167246 0.293753 64.000000
1.182873 0.163618 0.293753 94.000000
1.181433 0.159725 0.293326 76.000000
1.178044 0.155584 0.292472 89.000000
1.176578 0.151717 0.292045 84.000000
1.173161 0.147615 0.291191 70.000000
1.168761 0.143415 0.290123 87.000000
1.148678 0.130210 0.285425 105.000000
1.143247 0.126037 0.284144 78.000000
1.136829 0.121794 0.282649 60.000000
1.138169 0.118407 0.282862 73.000000
1.132695 0.114320 0.281581 83.000000
1.135957 0.111133 0.282222 72.000000
1.139211 0.107927 0.282862 121.000000
1.139536 0.104431 0.282862 139.000000
1.138878 0.100848 0.282649 122.000000
1.140156 0.097437 0.282862 138.000000
1.138502 0.093777 0.282435 141.000000
1.137811 0.090205 0.282222 158.000000
1.138082 0.086714 0.282222 137.000000
1.137368 0.083150 0.282008 138.000000
1.142203 0.069427 0.282862 103.000000
1.142411 0.065923 0.282862 81.000000
1.142608 0.062417 0.282862 84.000000
1.142794 0.058912 0.282862 105.000000
1.140042 0.055260 0.282222 73.000000
1.144110 0.051944 0.283076 64.000000
1.134504 0.048010 0.280940 60.000000
1.133669 0.044490 0.280727 46.000000
1.128919 0.040830 0.279659 56.000000
1.109512 0.036700 0.275388 33.000000
1.112549 0.033387 0.276029 33.000000
1.127294 0.030384 0.279232 30.000000
1.121522 0.026779 0.277951 35.000000
1.123553 0.023381 0.278378 38.000000
1.141258 0.016763 0.282222 71.000000
1.127628 0.013088 0.279232 127.000000
1.129616 0.009647 0.279659 126.000000
1.129641 0.006182 0.279659 67.000000
1.141377 0.002756 0.282222 47.000000
1.135519 -0.000747 0.280940 63.000000
1.131604 -0.004221 0.280086 78.000000
1.135493 -0.007715 0.280940 71.000000
1.141325 -0.011250 0.282222 70.000000
1.133471 -0.014659 0.280513 66.000000
1.141235 -0.018253 0.282222 71.000000
1.132382 -0.021596 0.280300 68.000000
1.127427 -0.024967 0.279232 70.000000
1.131252 -0.028520 0.280086 94.000000
1.123346 -0.031777 0.278378 108.000000
1.129103 -0.035401 0.279659 62.000000
1.128012 -0.038833 0.279446 105.000000
1.124959 -0.042186 0.278805 74.000000
1.129705 -0.045830 0.279873 100.000000
1.130535 -0.049338 0.280086 74.000000
1.128427 -0.052717 0.279659 80.000000
1.134114 -0.056464 0.280940 111.000000
1.136863 -0.060095 0.281581 132.000000
1.139599 -0.063743 0.282222 143.000000
1.141349 -0.067352 0.282649 138.000000
1.142112 -0.070913 0.282862 131.000000
1.139939 -0.074291 0.282435 125.000000
1.139706 -0.077788 0.282435 124.000000
1.138488 -0.081216 0.282222 119.000000
1.140182 -0.084851 0.282649 124.000000
1.143812 -0.088647 0.283503 95.000000
1.140613 -0.091923 0.282862 99.000000
1.140326 -0.095422 0.282862 101.000000
1.142948 -0.099171 0.283503 116.000000
1.141665 -0.102590 0.283289 134.000000
1.151074 -0.106987 0.285425 93.000000
1.156575 -0.111072 0.286706 64.000000
1.153312 -0.114334 0.286065 89.000000
1.160732 -0.118658 0.287774 84.000000
1.161334 -0.122320 0.287987 83.000000
1.163867 -0.126196 0.288628 71.000000
1.172214 -0.130732 0.290550 85.000000
1.171807 -0.134327 0.290550 89.000000
1.175271 -0.138375 0.291404 56.000000
1.177751 -0.142329 0.292045 63.000000
1.181187 -0.146418 0.292899 66.000000
1.182671 -0.150286 0.293326 82.000000
1.184142 -0.154164 0.293753 68.000000
1.189474 -0.158565 0.295034 74.000000
1.194791 -0.163000 0.296315 69.000000
1.205897 -0.168274 0.298878 102.000000
1.210212 -0.172658 0.299946 86.000000
1.211610 -0.176650 0.300373 76.000000
1.215895 -0.181081 0.301441 78.000000
1.221129 -0.185687 0.302722 83.000000
1.220554 -0.189432 0.302722 78.000000
1.226722 -0.194239 0.304217 119.000000
1.226120 -0.198002 0.304217 124.000000
1.227435 -0.202078 0.304644 149.000000
1.226810 -0.205843 0.304644 133.000000
1.224246 -0.209278 0.304217 105.000000
1.228412 -0.213866 0.305284 121.000000
1.227750 -0.217634 0.305284 122.000000
1.226114 -0.221227 0.305071 109.000000
1.226391 -0.225163 0.305284 106.000000
1.237220 -0.231066 0.307847 83.000000
1.240345 -0.235587 0.308701 56.000000
1.243454 -0.240128 0.309555 49.000000
1.239835 -0.243380 0.308914 39.000000
1.218960 -0.243188 0.304430 27.000000
1.219166 -0.247119 0.304644 17.000000
1.207874 -0.248701 0.302295 8.000000
1.209019 -0.252804 0.302722 12.000000
1.177651 -0.250049 0.295888 5.000000
1.264194 0.272454 0.299093 36.000000
1.256400 0.266746 0.297279 57.000000
1.251460 0.261689 0.296070 68.000000
1.252257 0.257849 0.296070 64.000000
1.247282 0.252840 0.294860 64.000000
1.236525 0.246716 0.292441 112.000000
1.233431 0.242167 0.291635 126.000000
1.233207 0.238197 0.291433 121.000000
1.232970 0.234229 0.291231 124.000000
1.231757 0.230087 0.290828 98.000000
1.228603 0.225600 0.290022 138.000000
1.228325 0.221656 0.289820 143.000000
1.228035 0.217716 0.289619 137.000000
1.226767 0.213612 0.289216 115.000000
1.223555 0.209188 0.288409 119.000000
1.223225 0.205272 0.288208 124.000000
1.222882 0.201359 0.288006 107.000000
1.219626 0.196983 0.287200 128.000000
1.218290 0.192934 0.286796 139.000000
1.213069 0.188296 0.285587 120.000000
1.200083 0.182516 0.282765 77.000000
1.198700 0.178545 0.282361 83.000000
1.199242 0.174867 0.282361 90.000000
1.193955 0.170359 0.281152 91.000000
1.191561 0.166290 0.280547 67.000000
1.183331 0.161444 0.278733 74.000000
1.176054 0.156780 0.277120 88.000000
1.175558 0.153045 0.276919 85.000000
1.173107 0.149069 0.276314 86.000000
1.168698 0.144868 0.275306 96.000000
1.169137 0.141282 0.275306 81.000000
1.167619 0.137466 0.274903 50.000000
1.163170 0.133327 0.273895 84.000000
1.160653 0.129433 0.273290 73.000000
1.154228 0.125135 0.271879 98.000000
1.150710 0.121184 0.271072 80.000000
1.151077 0.117653 0.271072 86.000000
1.143634 0.113351 0.269460 122.000000
1.140077 0.109469 0.268653 135.000000
1.139432 0.105880 0.268452 163.000000
1.141703 0.102558 0.268855 141.000000
1.140060 0.098887 0.268452 160.000000
1.138406 0.095226 0.268049 160.000000
1.137716 0.091655 0.267847 158.000000
1.139945 0.088314 0.268250 129.000000
1.141188 0.084889 0.268452 141.000000
1.139489 0.081249 0.268049 87.000000
1.132892 0.077288 0.266637 62.000000
1.138988 0.074192 0.267847 108.000000
1.137256 0.070577 0.267444 117.000000
1.140400 0.067259 0.268049 81.000000
1.140601 0.063760 0.268049 70.000000
1.144704 0.060466 0.268855 78.000000
1.139014 0.056664 0.267645 81.000000
1.139183 0.053169 0.267645 59.000000
1.136405 0.049547 0.267041 65.000000
1.125786 0.045628 0.264823 89.000000
1.128525 0.018016 0.265226 166.000000
1.129555 0.014566 0.265428 159.000000
1.128615 0.011091 0.265226 128.000000
1.129623 0.007635 0.265428 149.000000
1.132579 0.004179 0.266033 166.000000
1.131607 0.000704 0.265831 120.000000
1.134543 -0.002776 0.266436 88.000000
1.132570 -0.006245 0.266033 102.000000
1.138422 -0.009772 0.267242 128.000000
1.135448 -0.013229 0.266637 123.000000
1.141279 -0.016801 0.267847 63.000000
1.155911 -0.020569 0.270871 48.000000
1.150947 -0.024011 0.269863 46.000000
1.137718 -0.041198 0.267242 101.000000
1.137586 -0.044688 0.267242 106.000000
1.138423 -0.048220 0.267444 108.000000
1.137291 -0.051667 0.267242 112.000000
1.137127 -0.055156 0.267242 125.000000
1.134018 -0.058492 0.266637 137.000000
1.139701 -0.062294 0.267847 147.000000
1.139505 -0.065790 0.267847 143.000000
1.136364 -0.069106 0.267242 171.000000
1.137125 -0.072655 0.267444 157.000000
1.136896 -0.076144 0.267444 183.000000
1.137634 -0.079700 0.267645 156.000000
1.139338 -0.083333 0.268049 161.000000
1.138101 -0.086754 0.267847 146.000000
1.138806 -0.090323 0.268049 138.000000
1.139499 -0.093897 0.268250 65.000000
1.140182 -0.097476 0.268452 80.000000
1.144755 -0.101407 0.269460 119.000000
1.145414 -0.105009 0.269661 123.000000
1.145087 -0.108522 0.269661 97.000000
1.150597 -0.112609 0.270871 88.000000
1.156093 -0.116731 0.272080 86.000000
1.158652 -0.120582 0.272685 91.000000
1.163146 -0.124660 0.273693 114.000000
1.167625 -0.128766 0.274701 92.000000
1.170144 -0.132680 0.275306 99.000000
1.173623 -0.136724 0.276112 85.000000
1.177088 -0.140790 0.276919 79.000000
1.182484 -0.145119 0.278128 93.000000
1.185920 -0.149236 0.278934 83.000000
1.188371 -0.153251 0.279539 79.000000
1.190808 -0.157281 0.280144 84.000000
1.199055 -0.162118 0.281958 101.000000
1.206314 -0.166872 0.283571 105.000000
1.216464 -0.172085 0.285789 97.000000
1.219807 -0.176378 0.286595 82.000000
1.225074 -0.180980 0.287804 86.000000
1.232261 -0.185909 0.289417 83.000000
1.232652 -0.189838 0.289619 113.000000
1.233999 -0.193923 0.290022 142.000000
1.231464 -0.197398 0.289619 191.000000
1.230853 -0.201175 0.289619 197.000000
1.230230 -0.204950 0.289619 148.000000
1.229595 -0.208723 0.289619 115.000000
1.228949 -0.212495 0.289619 143.000000
1.231185 -0.216775 0.290224 119.000000
1.232442 -0.220897 0.290627 133.000000
1.234650 -0.225205 0.291231 121.000000
1.238768 -0.229887 0.292239 112.000000
1.240944 -0.234232 0.292844 111.000000
1.244067 -0.238778 0.293651 89.000000
1.249096 -0.243721 0.294860 78.000000
1.249303 -0.247743 0.295062 40.000000
1.248537 -0.251574 0.295062 39.000000
1.246800 -0.255207 0.294860 40.000000
1.207655 -0.251045 0.286796 11.000000
1.169506 -0.246848 0.278934 6.000000
1.153420 -0.247146 0.275709 7.000000
1.145000 -0.249016 0.274096 6.000000
1.127973 -0.248934 0.270669 6.000000
1.106177 -0.247678 0.266234 10.000000
1.099682 -0.249767 0.265025 5.000000
1.106546 -0.254901 0.266637 7.000000
1.256865 0.273441 0.282680 60.000000
1.252899 0.268550 0.281728 67.000000
1.249876 0.263891 0.280966 77.000000
1.251640 0.260255 0.281157 59.000000
1.246664 0.255228 0.280014 80.000000
1.237819 0.249453 0.278109 89.000000
1.236653 0.245271 0.277728 89.000000
1.233546 0.240720 0.276966 94.000000
1.230423 0.236191 0.276205 106.000000
1.229213 0.232049 0.275824 95.000000
1.226059 0.227556 0.275062 105.000000
1.228683 0.224148 0.275443 155.000000
1.227432 0.220029 0.275062 137.000000
1.225202 0.215749 0.274490 143.000000
1.225858 0.211989 0.274490 116.000000
1.223599 0.207731 0.273919 120.000000
1.224231 0.203976 0.273919 110.000000
1.224851 0.200219 0.273919 152.000000
1.220614 0.195679 0.272967 111.000000
1.218299 0.191473 0.272395 133.000000
1.218881 0.187735 0.272395 130.000000
1.206834 0.182078 0.269919 105.000000
1.198648 0.177075 0.268205 92.000000
1.184613 0.171276 0.265348 72.000000
1.184162 0.167502 0.265157 77.000000
1.181753 0.163462 0.264586 79.000000
1.174467 0.158776 0.263062 99.000000
1.167164 0.154136 0.261539 102.000000
1.165684 0.150302 0.261158 109.000000
1.164192 0.146478 0.260777 114.000000
1.162687 0.142664 0.260396 125.000000
1.154198 0.130841 0.258491 81.000000
1.156545 0.127517 0.258872 88.000000
1.152051 0.123440 0.257920 87.000000
1.146566 0.119290 0.256777 113.000000
1.135207 0.114577 0.254491 168.000000
1.129692 0.110514 0.253349 189.000000
1.128071 0.106860 0.252968 168.000000
1.127416 0.103308 0.252777 192.000000
1.129683 0.100024 0.253158 174.000000
1.129007 0.096473 0.252968 175.000000
1.133211 0.093335 0.253729 198.000000
1.132513 0.089780 0.253539 158.000000
1.130826 0.086154 0.253158 154.000000
1.133043 0.082829 0.253539 147.000000
1.125155 0.068374 0.251825 75.000000
1.121440 0.064691 0.251063 58.000000
1.130455 0.061741 0.252777 89.000000
1.128678 0.058170 0.252396 124.000000
1.121988 0.054367 0.251063 141.000000
1.121169 0.050879 0.250873 162.000000
1.119358 0.047354 0.250492 192.000000
1.119498 0.043920 0.250492 187.000000
1.119627 0.040485 0.250492 193.000000
1.119746 0.037050 0.250492 169.000000
1.120836 0.033645 0.250682 176.000000
1.122897 0.030261 0.251063 187.000000
1.121022 0.026767 0.250682 204.000000
1.124043 0.023392 0.251253 184.000000
1.123128 0.019924 0.251063 154.000000
1.123183 0.016479 0.251063 165.000000
1.122247 0.013020 0.250873 179.000000
1.120318 0.009558 0.250492 155.000000
1.119361 0.006115 0.250301 199.000000
1.123301 0.002694 0.251063 149.000000
1.120359 -0.000753 0.250492 165.000000
1.119370 -0.004188 0.250301 169.000000
1.121315 -0.007633 0.250682 162.000000
1.122268 -0.011082 0.250873 166.000000
1.123210 -0.014537 0.251063 166.000000
1.123160 -0.017982 0.251063 128.000000
1.120155 -0.021375 0.250492 165.000000
1.118122 -0.024770 0.250111 157.000000
1.120003 -0.028248 0.250492 181.000000
1.117949 -0.031630 0.250111 147.000000
1.117846 -0.035060 0.250111 119.000000
1.117733 -0.038489 0.250111 111.000000
1.119572 -0.041990 0.250492 87.000000
1.122381 -0.045541 0.251063 124.000000
1.125178 -0.049109 0.251634 117.000000
1.126003 -0.052606 0.251825 103.000000
1.126817 -0.056108 0.252015 87.000000
1.127620 -0.059616 0.252206 84.000000
1.127432 -0.063075 0.252206 88.000000
1.130173 -0.066704 0.252777 97.000000
1.122124 -0.069692 0.251253 165.000000
1.122885 -0.073197 0.251444 157.000000
1.123634 -0.076708 0.251634 160.000000
1.126331 -0.080361 0.252206 162.000000
1.130975 -0.084176 0.253158 156.000000
1.129732 -0.087570 0.252968 171.000000
1.134351 -0.091425 0.253920 162.000000
1.138957 -0.095309 0.254872 129.000000
1.124966 -0.097629 0.252206 78.000000
1.126617 -0.101253 0.252587 68.000000
1.127279 -0.104799 0.252777 68.000000
1.129884 -0.108536 0.253349 66.000000
1.134430 -0.112481 0.254301 65.000000
1.154591 -0.118037 0.258301 126.000000
1.149341 -0.121069 0.257348 88.000000
1.160677 -0.125853 0.259634 100.000000
1.167116 -0.130168 0.260967 98.000000
1.174514 -0.134635 0.262491 107.000000
1.177996 -0.138693 0.263253 98.000000
1.179515 -0.142540 0.263634 90.000000
1.184918 -0.146877 0.264777 94.000000
1.190306 -0.151248 0.265919 81.000000
1.194704 -0.155528 0.266872 77.000000
1.198114 -0.159708 0.267634 75.000000
1.207347 -0.164701 0.269538 86.000000
1.217532 -0.169886 0.271633 111.000000
1.223809 -0.174585 0.272967 96.000000
1.229097 -0.179183 0.274109 74.000000
1.236310 -0.184102 0.275633 105.000000
1.235740 -0.187894 0.275633 131.000000
1.232247 -0.191236 0.275062 150.000000
1.228745 -0.194557 0.274490 184.000000
1.228142 -0.198326 0.274490 176.000000
1.224622 -0.201617 0.273919 139.000000
1.224966 -0.205535 0.274109 135.000000
1.226265 -0.209621 0.274490 106.000000
1.225616 -0.213382 0.274490 132.000000
1.224956 -0.217141 0.274490 109.000000
1.226216 -0.221245 0.274871 98.000000
1.227463 -0.225359 0.275252 105.000000
1.228696 -0.229482 0.275633 113.000000
1.231845 -0.233980 0.276395 85.000000
1.237870 -0.239055 0.277728 59.000000
1.238094 -0.243040 0.277919 52.000000
1.236380 -0.246646 0.277728 64.000000
1.250052 -0.253350 0.280585 35.000000
1.246383 -0.256592 0.280014 35.000000
1.233096 -0.257815 0.277538 21.000000
1.209248 -0.256726 0.272967 8.000000
1.245948 0.272530 0.264862 65.000000
1.241006 0.267464 0.263790 79.000000
1.235084 0.262227 0.262540 118.000000
1.236845 0.258638 0.262718 111.000000
1.232814 0.253851 0.261825 102.000000
1.230694 0.249482 0.261289 88.000000
1.231454 0.245705 0.261289 118.000000
1.234133 0.242305 0.261646 161.000000
1.230040 0.237586 0.260753 146.000000
1.229796 0.233628 0.260575 149.000000
1.225671 0.228952 0.259681 115.000000
1.226368 0.225190 0.259681 151.000000
1.227053 0.221427 0.259681 152.000000
1.227726 0.217661 0.259681 161.000000
1.225480 0.213388 0.259145 161.000000
1.227099 0.209793 0.259324 173.000000
1.229678 0.206352 0.259681 153.000000
1.228363 0.202260 0.259324 166.000000
1.230921 0.198803 0.259681 181.000000
1.230553 0.194872 0.259503 176.000000
1.227256 0.190494 0.258788 150.000000
1.230753 0.187171 0.259324 167.000000
1.218669 0.181513 0.257002 129.000000
1.200721 0.175082 0.253608 98.000000
1.194434 0.170427 0.252358 97.000000
1.189104 0.165947 0.251286 102.000000
1.181808 0.161237 0.249857 105.000000
1.178396 0.157092 0.249142 101.000000
1.173018 0.152716 0.248070 112.000000
1.173481 0.149116 0.248070 108.000000
1.171003 0.145153 0.247535 107.000000
1.166559 0.140971 0.246641 115.000000
1.162100 0.136818 0.245748 106.000000
1.161537 0.133140 0.245570 117.000000
1.156072 0.128924 0.244498 131.000000
1.154506 0.125165 0.244141 106.000000
1.148035 0.120903 0.242890 115.000000
1.145464 0.117081 0.242354 170.000000
1.141901 0.113180 0.241640 172.000000
1.139304 0.109395 0.241104 186.000000
1.136695 0.105627 0.240568 177.000000
1.136034 0.102051 0.240389 203.000000
1.131441 0.098142 0.239496 162.000000
1.131736 0.094670 0.239496 181.000000
1.123195 0.090490 0.237888 141.000000
1.126410 0.087270 0.238424 115.000000
1.123729 0.083596 0.237888 85.000000
1.123980 0.080148 0.237888 80.000000
1.123239 0.076633 0.237710 98.000000
1.127396 0.073441 0.238424 109.000000
1.124670 0.069800 0.237888 140.000000
1.129790 0.066637 0.238782 116.000000
1.125077 0.062898 0.237888 75.000000
1.119369 0.059136 0.236817 54.000000
1.121511 0.055799 0.237174 73.000000
1.122659 0.052404 0.237353 60.000000
1.121832 0.048917 0.237174 70.000000
1.127876 0.045712 0.238246 107.000000
1.123094 0.042069 0.237353 92.000000
1.122235 0.038589 0.237174 131.000000
1.122348 0.035146 0.237174 165.000000
1.121467 0.031675 0.236995 188.000000
1.119591 0.028186 0.236638 173.000000
1.119804 0.017880 0.236638 165.000000
1.116902 0.014407 0.236102 172.000000
1.116941 0.010981 0.236102 195.000000
1.119921 0.007573 0.236638 196.000000
1.119939 0.004137 0.236638 190.000000
1.122898 0.000702 0.237174 162.000000
1.122895 -0.002743 0.237174 160.000000
1.125833 -0.006205 0.237710 184.000000
1.125808 -0.009659 0.237710 148.000000
1.125773 -0.013113 0.237710 121.000000
1.119825 -0.016478 0.236638 89.000000
1.116818 -0.019860 0.236102 77.000000
1.119703 -0.023349 0.236638 84.000000
1.116382 -0.036989 0.236102 142.000000
1.117247 -0.040450 0.236281 140.000000
1.123999 -0.044150 0.237531 76.000000
1.121892 -0.047514 0.237174 65.000000
1.130587 -0.051361 0.238782 82.000000
1.132390 -0.054925 0.239139 108.000000
1.133199 -0.058450 0.239318 86.000000
1.136944 -0.062142 0.240032 105.000000
1.136748 -0.065630 0.240032 126.000000
1.129666 -0.068697 0.238782 150.000000
1.127487 -0.072036 0.238424 188.000000
1.130205 -0.075693 0.238960 156.000000
1.131931 -0.079298 0.239318 184.000000
1.134626 -0.082987 0.239853 163.000000
1.138290 -0.086768 0.240568 157.000000
1.139980 -0.090416 0.240925 165.000000
1.146562 -0.094481 0.242176 137.000000
1.150187 -0.098335 0.242890 77.000000
1.149880 -0.101863 0.242890 108.000000
1.153481 -0.105751 0.243605 126.000000
1.153152 -0.109289 0.243605 109.000000
1.161624 -0.113692 0.245212 120.000000
1.162248 -0.117354 0.245391 110.000000
1.164819 -0.121226 0.245927 105.000000
1.167376 -0.125115 0.246463 102.000000
1.171877 -0.129236 0.247356 94.000000
1.177340 -0.133498 0.248428 137.000000
1.180834 -0.137566 0.249142 111.000000
1.185291 -0.141774 0.250035 103.000000
1.190710 -0.146131 0.251107 88.000000
1.196113 -0.150522 0.252179 115.000000
1.203452 -0.155200 0.253608 106.000000
1.209798 -0.159796 0.254858 108.000000
1.217102 -0.164564 0.256287 115.000000
1.223414 -0.169243 0.257538 132.000000
1.227760 -0.173686 0.258431 101.000000
1.232090 -0.178158 0.259324 115.000000
1.233484 -0.182225 0.259681 131.000000
1.234865 -0.186303 0.260039 134.000000
1.234287 -0.190090 0.260039 249.000000
1.237586 -0.194488 0.260753 230.000000
1.236012 -0.198128 0.260575 205.000000
1.233457 -0.201601 0.260217 180.000000
1.232832 -0.205384 0.260217 171.000000
1.233166 -0.209331 0.260396 163.000000
1.231549 -0.212945 0.260217 161.000000
1.231859 -0.216893 0.260396 173.000000
1.231187 -0.220672 0.260396 167.000000
1.230505 -0.224448 0.260396 171.000000
1.230778 -0.228402 0.260575 123.000000
1.227171 -0.231628 0.260039 137.000000
1.225488 -0.235206 0.259860 119.000000
1.237314 -0.241418 0.262182 76.000000
1.236568 -0.245213 0.262182 61.000000
1.234845 -0.248811 0.262004 65.000000
1.245642 -0.254970 0.264147 41.000000
1.242928 -0.258389 0.263790 45.000000
1.246943 -0.263218 0.264683 40.000000
1.224965 -0.262501 0.260753 21.000000
1.211656 -0.263535 0.258431 13.000000
1.211802 -0.267464 0.258610 9.000000
1.198495 -0.268381 0.256287 6.000000
1.164087 -0.264418 0.250035 6.000000
1.166146 -0.268652 0.250571 12.000000
1.167233 -0.272676 0.250929 8.000000
1.109095 -0.266263 0.240389 9.000000
1.256606 0.277425 0.251399 55.000000
1.251672 0.272306 0.250397 65.000000
1.249610 0.267842 0.249897 71.000000
1.247532 0.263393 0.249396 71.000000
1.241578 0.258154 0.248227 83.000000
1.237536 0.253350 0.247393 95.000000
1.233475 0.248574 0.246558 92.000000
1.231331 0.244210 0.246057 98.000000
1.230140 0.240052 0.245723 102.000000
1.228934 0.235903 0.245389 136.000000
1.229652 0.232132 0.245389 106.000000
1.228420 0.227997 0.245055 128.000000
1.229114 0.224227 0.245055 121.000000
1.230766 0.220630 0.245222 125.000000
1.229496 0.216509 0.244888 130.000000
1.229183 0.212567 0.244722 119.000000
1.228857 0.208629 0.244555 139.000000
1.229491 0.204858 0.244555 137.000000
1.233033 0.201565 0.245055 131.000000
1.232672 0.197624 0.244888 130.000000
1.230351 0.193379 0.244388 126.000000
1.231913 0.189755 0.244555 107.000000
1.229565 0.185530 0.244054 133.000000
1.217450 0.179872 0.241884 110.000000
1.197507 0.173153 0.238378 92.000000
1.187295 0.167949 0.236541 66.000000
1.187805 0.164305 0.236541 95.000000
1.182442 0.159862 0.235540 97.000000
1.179994 0.155843 0.235039 75.000000
1.174601 0.151460 0.234037 97.000000
1.172125 0.147484 0.233536 92.000000
1.169637 0.143524 0.233036 84.000000
1.153671 0.127197 0.230031 91.000000
1.151115 0.123339 0.229530 120.000000
1.145605 0.119189 0.228528 128.000000
1.141061 0.115173 0.227694 173.000000
1.134541 0.110993 0.226525 150.000000
1.132913 0.107324 0.226191 163.000000
1.132255 0.103757 0.226024 178.000000
1.129622 0.100019 0.225523 165.000000
1.128941 0.096467 0.225356 159.000000
1.127267 0.092840 0.225022 165.000000
1.121649 0.088907 0.224021 122.000000
1.122900 0.085541 0.224188 99.000000
1.121190 0.081950 0.223854 89.000000
1.110303 0.067455 0.221851 80.000000
1.104599 0.063702 0.220849 68.000000
1.103984 0.056871 0.220682 77.000000
1.104154 0.053484 0.220682 84.000000
1.098403 0.049822 0.219680 57.000000
1.108401 0.046879 0.221350 88.000000
1.113465 0.043677 0.222184 65.000000
1.115565 0.040334 0.222518 63.000000
1.122581 0.037146 0.223687 110.000000
1.110864 0.033335 0.221684 185.000000
1.109975 0.029899 0.221517 169.000000
1.108091 0.026444 0.221183 168.000000
1.105209 0.022980 0.220682 192.000000
1.106260 0.019608 0.220849 187.000000
1.104344 0.016183 0.220515 158.000000
1.102416 0.012770 0.220181 171.000000
1.101464 0.009378 0.220014 183.000000
1.103460 0.006011 0.220348 189.000000
1.107417 0.002640 0.221016 177.000000
1.108406 -0.000758 0.221183 195.000000
1.109384 -0.004161 0.221350 172.000000
1.111338 -0.007576 0.221684 167.000000
1.112296 -0.010994 0.221851 171.000000
1.100426 -0.014265 0.219847 92.000000
1.103334 -0.017686 0.220348 90.000000
1.112147 -0.021231 0.221851 59.000000
1.086447 -0.024102 0.217510 52.000000
1.109039 -0.027983 0.221350 91.000000
1.109933 -0.031412 0.221517 142.000000
1.112789 -0.034907 0.222018 120.000000
1.112676 -0.038321 0.222018 144.000000
1.114524 -0.041806 0.222351 128.000000
1.115376 -0.045264 0.222518 148.000000
1.114246 -0.048644 0.222351 125.000000
1.117047 -0.052197 0.222852 102.000000
1.117866 -0.055672 0.223019 98.000000
1.114736 -0.058948 0.222518 84.000000
1.120457 -0.062692 0.223520 107.000000
1.120259 -0.066129 0.223520 162.000000
1.120051 -0.069566 0.223520 138.000000
1.124752 -0.073317 0.224355 161.000000
1.122555 -0.076635 0.224021 166.000000
1.126248 -0.080355 0.224689 160.000000
1.127963 -0.083955 0.225022 158.000000
1.130650 -0.087640 0.225523 161.000000
1.134307 -0.091422 0.226191 140.000000
1.138934 -0.095307 0.227026 137.000000
1.138636 -0.098801 0.227026 108.000000
1.144220 -0.102817 0.228027 83.000000
1.146845 -0.106598 0.228528 112.000000
1.149457 -0.110396 0.229029 85.000000
1.156963 -0.114692 0.230365 99.000000
1.164454 -0.119035 0.231700 118.000000
1.169967 -0.123221 0.232702 83.000000
1.177426 -0.127652 0.234037 86.000000
1.182909 -0.131914 0.235039 104.000000
1.187397 -0.136099 0.235874 91.000000
1.194808 -0.140656 0.237209 75.000000
1.201224 -0.145142 0.238378 91.000000
1.204687 -0.149308 0.239046 99.000000
1.210093 -0.153743 0.240047 102.000000
1.215482 -0.158213 0.241049 114.000000
1.219878 -0.162588 0.241884 89.000000
1.228167 -0.167521 0.243386 83.000000
1.231554 -0.171829 0.244054 76.000000
1.233950 -0.176022 0.244555 68.000000
1.235356 -0.180089 0.244888 80.000000
1.241625 -0.184888 0.246057 122.000000
1.237152 -0.188108 0.245389 229.000000
1.232671 -0.191301 0.244722 233.000000
1.236949 -0.195848 0.245556 169.000000
1.231474 -0.198861 0.244722 123.000000
1.226966 -0.202001 0.244054 110.000000
1.230231 -0.206413 0.244722 116.000000
1.228620 -0.210021 0.244555 106.000000
1.226998 -0.213622 0.244388 105.000000
1.230221 -0.218070 0.245055 115.000000
1.231487 -0.222191 0.245389 124.000000
1.230800 -0.225968 0.245389 105.000000
1.232039 -0.230104 0.245723 117.000000
1.231328 -0.233882 0.245723 101.000000
1.232541 -0.238031 0.246057 90.000000
1.234708 -0.242378 0.246558 86.000000
1.235893 -0.246549 0.246892 75.000000
1.239963 -0.251315 0.247726 67.000000
1.245947 -0.256503 0.248895 56.000000
1.243224 -0.259923 0.248561 31.000000
1.250138 -0.265366 0.249897 38.000000
1.244498 -0.268166 0.249062 36.000000
1.176232 -0.257300 0.237376 12.000000
1.249209 0.277035 0.234305 58.000000
1.239436 0.270884 0.232601 88.000000
1.243159 0.267703 0.233066 88.000000
1.237208 0.262455 0.231982 122.000000
1.238008 0.258658 0.231982 105.000000
1.236860 0.254461 0.231672 133.000000
1.237635 0.250665 0.231672 129.000000
1.238398 0.246867 0.231672 142.000000
1.238180 0.242877 0.231517 131.000000
1.235039 0.238329 0.230898 132.000000
1.239647 0.235275 0.231517 130.000000
1.242306 0.231832 0.231827 158.000000
1.243983 0.228198 0.231982 138.000000
1.245649 0.224555 0.232137 133.000000
1.246333 0.220733 0.232137 154.000000
1.249924 0.217415 0.232601 126.000000
1.252533 0.213911 0.232911 142.000000
1.254158 0.210230 0.233066 146.000000
1.256746 0.206702 0.233376 125.000000
1.258350 0.203002 0.233531 121.000000
1.257991 0.198987 0.233376 123.000000
1.253714 0.194371 0.232601 125.000000
1.248444 0.189635 0.231672 173.000000
1.244134 0.185079 0.230898 124.000000
1.223187 0.178136 0.227490 92.000000
1.209056 0.172296 0.225167 87.000000
1.202730 0.167633 0.224083 85.000000
1.199322 0.163410 0.223463 104.000000
1.193942 0.158950 0.222534 87.000000
1.186586 0.154270 0.221295 93.000000
1.180193 0.149760 0.220211 89.000000
1.176725 0.145655 0.219591 125.000000
1.175205 0.141808 0.219282 113.000000
1.169747 0.137511 0.218352 111.000000
1.167219 0.133586 0.217888 106.000000
1.163695 0.129568 0.217268 118.000000
1.159176 0.125468 0.216494 119.000000
1.151695 0.121087 0.215255 147.000000
1.148130 0.117153 0.214635 149.000000
1.142585 0.113049 0.213706 152.000000
1.137026 0.108979 0.212776 168.000000
1.137355 0.105490 0.212776 146.000000
1.129801 0.101297 0.211537 182.000000
1.131091 0.097916 0.211692 179.000000
1.129417 0.094281 0.211383 189.000000
1.125762 0.090501 0.210763 205.000000
1.128989 0.087274 0.211228 185.000000
1.127281 0.083664 0.210918 154.000000
1.119649 0.079647 0.209679 128.000000
1.119887 0.076212 0.209679 107.000000
1.117158 0.072584 0.209214 139.000000
1.116390 0.069096 0.209059 131.000000
1.112652 0.065440 0.208440 137.000000
1.124684 0.062682 0.210298 84.000000
1.115005 0.058715 0.208750 113.000000
1.108273 0.054954 0.207665 97.000000
1.112384 0.051736 0.208285 117.000000
1.109576 0.048195 0.207820 100.000000
1.102809 0.044514 0.206736 108.000000
1.106889 0.041276 0.207356 131.000000
1.098125 0.037579 0.205962 219.000000
1.106135 0.034454 0.207201 196.000000
1.109198 0.031142 0.207665 164.000000
1.109288 0.027739 0.207665 144.000000
1.116498 0.010784 0.208750 148.000000
1.121465 0.007390 0.209524 165.000000
1.121483 0.003949 0.209524 153.000000
1.120502 0.000508 0.209369 126.000000
1.118522 -0.002923 0.209059 168.000000
1.115544 -0.006337 0.208595 177.000000
1.113544 -0.009742 0.208285 206.000000
1.112521 -0.013146 0.208130 222.000000
1.113463 -0.016574 0.208285 190.000000
1.109456 -0.019918 0.207665 175.000000
1.107414 -0.023279 0.207356 141.000000
1.112276 -0.026797 0.208130 125.000000
1.117657 -0.044091 0.209059 88.000000
1.107646 -0.047097 0.207510 100.000000
1.113418 -0.050767 0.208440 89.000000
1.108323 -0.053941 0.207665 109.000000
1.108152 -0.057341 0.207665 132.000000
1.123754 -0.061611 0.210143 189.000000
1.125532 -0.065173 0.210453 169.000000
1.126313 -0.068686 0.210608 188.000000
1.128069 -0.072268 0.210918 154.000000
1.127842 -0.075729 0.210918 165.000000
1.131546 -0.079467 0.211537 160.000000
1.141150 -0.083664 0.213086 106.000000
1.138917 -0.087013 0.212776 140.000000
1.143569 -0.090900 0.213551 127.000000
1.147223 -0.094735 0.214170 107.000000
1.154801 -0.098931 0.215409 94.000000
1.156461 -0.102649 0.215719 88.000000
1.161059 -0.106650 0.216494 131.000000
1.166627 -0.110774 0.217423 109.000000
1.168248 -0.114546 0.217733 99.000000
1.176737 -0.119027 0.219127 100.000000
1.181279 -0.123150 0.219901 96.000000
1.190719 -0.127832 0.221450 95.000000
1.194248 -0.131919 0.222069 104.000000
1.197765 -0.136030 0.222689 98.000000
1.205191 -0.140622 0.223928 105.000000
1.212602 -0.145262 0.225167 122.000000
1.219014 -0.149827 0.226251 114.000000
1.227369 -0.154681 0.227645 123.000000
1.237666 -0.159841 0.229349 131.000000
1.237170 -0.163637 0.229349 100.000000
1.245473 -0.168627 0.230743 116.000000
1.246907 -0.172719 0.231053 111.000000
1.245393 -0.176405 0.230898 110.000000
1.249734 -0.180934 0.231672 164.000000
1.235492 -0.182740 0.229504 244.000000
1.264230 -0.190965 0.234150 360.000000
1.239229 -0.191071 0.230278 215.000000
1.231806 -0.193796 0.229194 164.000000
1.231206 -0.197574 0.229194 173.000000
1.232543 -0.201670 0.229504 194.000000
1.231919 -0.205450 0.229504 170.000000
1.232257 -0.209395 0.229659 164.000000
1.230635 -0.213005 0.229504 158.000000
1.232895 -0.217295 0.229968 154.000000
1.232222 -0.221077 0.229968 158.000000
1.232510 -0.225034 0.230123 144.000000
1.233756 -0.229175 0.230433 139.000000
1.234989 -0.233327 0.230743 133.000000
1.238147 -0.237861 0.231362 117.000000
1.240321 -0.242228 0.231827 121.000000
1.239572 -0.246032 0.231827 113.000000
1.244621 -0.251007 0.232756 94.000000
1.246749 -0.255420 0.233221 101.000000
1.244992 -0.259042 0.233066 102.000000
1.245158 -0.263065 0.233221 73.000000
1.246277 -0.267299 0.233531 89.000000
1.241590 -0.270280 0.232911 54.000000
1.227250 -0.271100 0.230743 34.000000
1.191710 -0.267075 0.225167 6.000000
1.191849 -0.270949 0.225322 10.000000
1.163230 -0.271951 0.220985 9.000000
1.157584 -0.274378 0.220211 15.000000
1.157697 -0.278159 0.220366 8.000000
1.152999 -0.280773 0.219746 10.000000
1.151173 -0.284072 0.219591 7.000000
1.153172 -0.288323 0.220056 9.000000
1.199598 0.268866 0.211494 26.000000
1.227472 0.271188 0.215498 36.000000
1.244735 0.271015 0.217928 45.000000
1.239756 0.265944 0.217070 63.000000
1.241534 0.262345 0.217213 69.000000
1.240395 0.258130 0.216927 72.000000
1.241181 0.254323 0.216927 70.000000
1.242926 0.250710 0.217070 82.000000
1.243689 0.246896 0.217070 105.000000
1.249297 0.244032 0.217785 105.000000
1.248096 0.239823 0.217499 112.000000
1.250770 0.236362 0.217785 102.000000
1.254408 0.233069 0.218214 113.000000
1.253171 0.228862 0.217928 143.000000
1.256789 0.225543 0.218357 104.000000
1.252602 0.220823 0.217642 121.000000
1.255224 0.217318 0.217928 112.000000
1.257836 0.213800 0.218214 115.000000
1.256534 0.209612 0.217928 87.000000
1.259124 0.206078 0.218214 111.000000
1.260728 0.202372 0.218357 89.000000
1.257432 0.197884 0.217785 81.000000
1.253143 0.193266 0.217070 113.000000
1.263515 0.190908 0.218500 189.000000
1.232769 0.182367 0.213925 91.000000
1.220591 0.176728 0.212066 103.000000
1.217208 0.172424 0.211494 66.000000
1.214791 0.168278 0.211065 64.000000
1.207456 0.163481 0.209922 93.000000
1.204028 0.159253 0.209350 59.000000
1.198622 0.154792 0.208492 78.000000
1.194182 0.150490 0.207777 75.000000
1.185798 0.145731 0.206490 86.000000
1.160939 0.128208 0.202630 111.000000
1.150503 0.123473 0.201057 123.000000
1.144971 0.119321 0.200199 118.000000
1.144347 0.115707 0.200056 128.000000
1.139772 0.111708 0.199342 110.000000
1.138139 0.108022 0.199056 142.000000
1.133537 0.104072 0.198341 155.000000
1.130894 0.100329 0.197912 180.000000
1.131196 0.096859 0.197912 192.000000
1.125571 0.092893 0.197054 193.000000
1.123877 0.089281 0.196768 187.000000
1.124146 0.085832 0.196768 175.000000
1.119469 0.082016 0.196053 177.000000
1.111501 0.067721 0.194766 122.000000
1.105775 0.063962 0.193909 142.000000
1.103990 0.060459 0.193623 154.000000
1.100217 0.056863 0.193051 186.000000
1.098409 0.053389 0.192765 153.000000
1.098567 0.050019 0.192765 167.000000
1.093772 0.046433 0.192050 145.000000
1.089953 0.042917 0.191478 129.000000
1.090080 0.039573 0.191478 126.000000
1.093164 0.036331 0.191907 94.000000
1.087335 0.032791 0.191049 71.000000
1.080505 0.029260 0.190048 44.000000
1.078611 0.025895 0.189762 42.000000
1.088580 0.022804 0.191192 63.000000
1.094582 0.019577 0.192050 61.000000
1.099630 0.012924 0.192765 72.000000
1.103623 0.009588 0.193337 111.000000
1.099688 0.006176 0.192765 80.000000
1.098712 0.002799 0.192622 52.000000
1.096736 -0.000573 0.192336 63.000000
1.093760 -0.003930 0.191907 40.000000
1.084836 -0.007236 0.190620 48.000000
1.096684 -0.010667 0.192336 102.000000
1.097636 -0.014043 0.192479 107.000000
1.096599 -0.017396 0.192336 96.000000
1.097530 -0.020778 0.192479 82.000000
1.101419 -0.024228 0.193051 108.000000
1.101339 -0.027607 0.193051 106.000000
1.102239 -0.031013 0.193194 99.000000
1.106095 -0.034513 0.193766 115.000000
1.108952 -0.038005 0.194194 113.000000
1.113775 -0.041587 0.194909 141.000000
1.113642 -0.045003 0.194909 126.000000
1.119432 -0.048672 0.195767 170.000000
1.120266 -0.052151 0.195910 161.000000
1.121090 -0.055635 0.196053 152.000000
1.120914 -0.059075 0.196053 169.000000
1.121715 -0.062567 0.196196 161.000000
1.124482 -0.066180 0.196625 155.000000
1.125262 -0.069689 0.196768 146.000000
1.126031 -0.073205 0.196911 152.000000
1.127776 -0.076791 0.197197 120.000000
1.129509 -0.080389 0.197483 83.000000
1.129257 -0.083854 0.197483 95.000000
1.135903 -0.087845 0.198484 99.000000
1.143521 -0.091957 0.199627 108.000000
1.143234 -0.095464 0.199627 79.000000
1.154769 -0.099984 0.201343 98.000000
1.155442 -0.103614 0.201486 104.000000
1.160047 -0.107610 0.202201 92.000000
1.164638 -0.111636 0.202916 115.000000
1.163305 -0.115112 0.202773 89.000000
1.167870 -0.119178 0.203488 85.000000
1.170452 -0.123068 0.203917 80.000000
1.175973 -0.127291 0.204775 85.000000
1.183447 -0.131767 0.205918 81.000000
1.190905 -0.136290 0.207062 92.000000
1.198346 -0.140859 0.208206 99.000000
1.208718 -0.145829 0.209779 73.000000
1.217106 -0.150622 0.211065 95.000000
1.229404 -0.155962 0.212924 76.000000
1.238735 -0.161000 0.214354 75.000000
1.243142 -0.165448 0.215069 77.000000
1.251455 -0.170455 0.216356 81.000000
1.257789 -0.175243 0.217356 71.000000
1.261165 -0.179656 0.217928 69.000000
1.262567 -0.183808 0.218214 83.000000
1.263956 -0.187970 0.218500 144.000000
1.250651 -0.189927 0.216641 202.000000
1.258866 -0.195119 0.217928 139.000000
1.261194 -0.199441 0.218357 103.000000
1.255690 -0.202526 0.217642 75.000000
1.256040 -0.206537 0.217785 96.000000
1.256377 -0.210552 0.217928 93.000000
1.248894 -0.213246 0.216927 96.000000
1.244333 -0.216402 0.216356 104.000000
1.240739 -0.219704 0.215927 112.000000
1.237137 -0.222985 0.215498 96.000000
1.237421 -0.226957 0.215641 95.000000
1.239638 -0.231294 0.216070 96.000000
1.239895 -0.235280 0.216213 108.000000
1.244999 -0.240202 0.217070 79.000000
1.247170 -0.244590 0.217499 83.000000
1.247385 -0.248607 0.217642 63.000000
1.244676 -0.252042 0.217356 70.000000
1.240018 -0.255065 0.216784 60.000000
1.241168 -0.259271 0.217070 59.000000
1.211315 -0.256944 0.212781 37.000000
1.190199 -0.256304 0.209779 14.000000
1.181670 -0.258271 0.208635 14.000000
1.172174 -0.259975 0.207348 14.000000
1.159781 -0.260974 0.205632 10.000000
1.150289 -0.262557 0.204346 6.000000
1.137905 -0.263418 0.202630 8.000000
1.030816 -0.275687 0.188047 8.000000
1.035668 -0.339225 0.191335 5.000000
1.040140 -0.347763 0.192336 6.000000
1.189779 0.267706 0.195294 60.000000
1.199306 0.265984 0.196474 55.000000
1.213676 0.265262 0.198308 58.000000
1.210608 0.260704 0.197784 72.000000
1.220131 0.258837 0.198964 101.000000
1.221889 0.255295 0.199095 86.000000
1.228493 0.252742 0.199881 109.000000
1.207886 0.244649 0.196998 102.000000
1.222243 0.243652 0.198833 140.000000
1.223957 0.240091 0.198964 164.000000
1.221768 0.235772 0.198571 144.000000
1.236122 0.234607 0.200405 185.000000
1.245607 0.232447 0.201585 165.000000
1.252166 0.229696 0.202371 180.000000
1.247010 0.224800 0.201585 159.000000
1.247694 0.220973 0.201585 143.000000
1.238598 0.215448 0.200274 117.000000
1.247072 0.212980 0.201322 116.000000
1.247719 0.209153 0.201322 103.000000
1.261073 0.207412 0.203026 91.000000
1.266597 0.204330 0.203681 93.000000
1.275052 0.201680 0.204730 93.000000
1.258030 0.195039 0.202371 86.000000
1.239019 0.188207 0.199750 177.000000
1.233706 0.183531 0.198964 163.000000
1.213661 0.176751 0.196212 100.000000
1.228920 0.175120 0.198177 87.000000
1.226506 0.170940 0.197784 87.000000
1.222113 0.166508 0.197129 87.000000
1.218687 0.162236 0.196605 75.000000
1.214263 0.157859 0.195950 81.000000
1.208841 0.153386 0.195163 84.000000
1.207338 0.149434 0.194901 65.000000
1.203853 0.145255 0.194377 85.000000
1.193462 0.140291 0.192936 93.000000
1.196842 0.136967 0.193329 97.000000
1.186418 0.132091 0.191887 101.000000
1.177947 0.127493 0.190708 111.000000
1.163543 0.122329 0.188742 108.000000
1.146160 0.116953 0.186383 64.000000
1.144540 0.113241 0.186121 104.000000
1.137974 0.109070 0.185204 73.000000
1.135341 0.105304 0.184811 39.000000
1.143559 0.102526 0.185859 46.000000
1.091519 0.094504 0.178914 154.000000
1.094768 0.091401 0.179307 205.000000
1.096031 0.088121 0.179438 188.000000
1.101239 0.085138 0.180093 190.000000
1.099517 0.081613 0.179831 218.000000
1.099763 0.078239 0.179831 230.000000
1.099008 0.074798 0.179700 218.000000
1.093297 0.071042 0.178914 181.000000
1.091531 0.067566 0.178652 195.000000
1.088764 0.064043 0.178259 234.000000
1.087965 0.060648 0.178127 166.000000
1.083196 0.057051 0.177472 138.000000
1.085346 0.053825 0.177734 139.000000
1.082535 0.050358 0.177341 138.000000
1.102494 0.047890 0.179962 112.000000
1.096692 0.044269 0.179176 98.000000
1.091869 0.040722 0.178521 84.000000
1.091989 0.037372 0.178521 95.000000
1.086153 0.033838 0.177734 120.000000
1.098144 0.030835 0.179307 109.000000
1.088323 0.027222 0.177996 119.000000
1.106418 0.014085 0.180355 108.000000
1.106456 0.010691 0.180355 108.000000
1.099544 0.007253 0.179438 120.000000
1.109475 0.003911 0.180748 112.000000
1.085689 0.000505 0.177603 147.000000
1.095599 -0.002856 0.178914 126.000000
1.098559 -0.006235 0.179307 106.000000
1.092587 -0.009551 0.178521 76.000000
1.094535 -0.012927 0.178783 116.000000
1.084577 -0.016134 0.177472 146.000000
1.095426 -0.019661 0.178914 115.000000
1.092387 -0.022958 0.178521 121.000000
1.082401 -0.026067 0.177210 150.000000
1.082115 -0.036028 0.177210 216.000000
1.091907 -0.039712 0.178521 196.000000
1.092770 -0.043101 0.178652 222.000000
1.092633 -0.046453 0.178652 206.000000
1.096446 -0.049987 0.179176 221.000000
1.097278 -0.053399 0.179307 212.000000
1.097109 -0.056765 0.179307 189.000000
1.096930 -0.060131 0.179307 204.000000
1.101689 -0.063784 0.179962 193.000000
1.099509 -0.067043 0.179700 186.000000
1.108202 -0.070989 0.180879 134.000000
1.096109 -0.073587 0.179307 170.000000
1.095878 -0.076950 0.179307 144.000000
1.113434 -0.081622 0.181666 117.000000
1.112190 -0.084962 0.181535 114.000000
1.133665 -0.090109 0.184418 87.000000
1.139311 -0.094079 0.185204 81.000000
1.118275 -0.095790 0.182452 116.000000
1.144637 -0.101595 0.185990 91.000000
1.145307 -0.105198 0.186121 103.000000
1.158796 -0.110027 0.187956 84.000000
1.164372 -0.114164 0.188742 84.000000
1.167962 -0.118136 0.189266 92.000000
1.168580 -0.121822 0.189397 79.000000
1.173129 -0.125938 0.190053 76.000000
1.185547 -0.130955 0.191756 78.000000
1.174304 -0.133358 0.190315 99.000000
1.165028 -0.135923 0.189135 114.000000
1.175432 -0.140797 0.190577 107.000000
1.210417 -0.148768 0.195294 93.000000
1.204053 -0.151735 0.194508 100.000000
1.217346 -0.157210 0.196343 98.000000
1.245359 -0.164723 0.200143 90.000000
1.252707 -0.169609 0.201191 92.000000
1.268874 -0.175769 0.203419 77.000000
1.275199 -0.180636 0.204337 85.000000
1.255998 -0.181843 0.201847 100.000000
1.247589 -0.184533 0.200798 181.000000
1.266621 -0.191327 0.203419 266.000000
1.266028 -0.195212 0.203419 128.000000
1.254651 -0.197397 0.201978 88.000000
1.256976 -0.201717 0.202371 141.000000
1.248525 -0.204290 0.201322 118.000000
1.243981 -0.207466 0.200798 108.000000
1.246271 -0.211780 0.201191 119.000000
1.240731 -0.214756 0.200536 131.000000
1.218588 -0.214769 0.197653 106.000000
1.227681 -0.220260 0.198964 142.000000
1.235776 -0.225631 0.200143 155.000000
1.231180 -0.228696 0.199619 150.000000
1.233394 -0.233025 0.200012 122.000000
1.235594 -0.237370 0.200405 132.000000
1.237779 -0.241731 0.200798 141.000000
1.232170 -0.244560 0.200143 115.000000
1.230442 -0.248143 0.200012 121.000000
1.213165 -0.248529 0.197784 96.000000
1.216279 -0.253059 0.198308 74.000000
1.199979 -0.253506 0.196212 81.000000
1.219550 -0.261558 0.198964 46.000000
1.151907 -0.250728 0.189922 27.000000
1.143388 -0.252548 0.188873 16.000000
1.124229 -0.251930 0.186383 11.000000
1.102377 -0.254139 0.183631 16.000000
1.073789 -0.254487 0.179962 12.000000
1.071075 -0.257317 0.179700 13.000000
1.042349 -0.253790 0.175900 11.000000
1.044453 -0.257700 0.176293 8.000000
1.022672 -0.258986 0.173541 7.000000
1.000749 -0.256695 0.170658 11.000000
1.005713 -0.261262 0.171444 13.000000
1.011617 -0.266114 0.172361 8.000000
1.020375 -0.271772 0.173672 8.000000
1.011880 -0.272833 0.172624 10.000000
1.015819 -0.277243 0.173279 11.000000
1.022608 -0.282473 0.174327 6.000000
1.034147 -0.289083 0.176031 11.000000
1.050462 -0.300612 0.178521 9.000000
1.023826 -0.296381 0.174982 13.000000
1.037188 -0.314101 0.177341 8.000000
1.046605 -0.323981 0.178914 8.000000
1.061609 -0.335784 0.181273 4.000000
1.026583 -0.328160 0.176555 8.000000
1.017082 -0.328562 0.175376 5.000000
1.024550 -0.334453 0.176555 4.000000
1.028121 -0.342616 0.177341 8.000000
1.041157 -0.350518 0.179307 7.000000
0.985196 -0.348572 0.172230 6.000000
0.978376 -0.352927 0.171575 9.000000
0.988097 -0.366751 0.173410 5.000000
1.016034 0.384363 0.164403 76.000000
1.015349 0.380545 0.164165 103.000000
1.017443 0.377775 0.164284 108.000000
1.013939 0.372933 0.163689 89.000000
1.021606 0.372207 0.164522 92.000000
1.030212 0.371775 0.165473 130.000000
1.027610 0.367272 0.164998 128.000000
1.031538 0.365115 0.165354 122.000000
1.029844 0.360960 0.164998 127.000000
1.030946 0.357799 0.164998 104.000000
1.032039 0.354634 0.164998 122.000000
1.032183 0.351145 0.164879 117.000000
1.028552 0.346387 0.164284 140.000000
1.026785 0.342285 0.163927 118.000000
1.026888 0.338821 0.163808 145.000000
1.026035 0.335051 0.163571 145.000000
1.022336 0.330370 0.162976 118.000000
1.025236 0.327838 0.163214 134.000000
1.023398 0.323790 0.162857 129.000000
1.021544 0.319756 0.162500 138.000000
1.026313 0.317799 0.162976 142.000000
1.026334 0.314357 0.162857 132.000000
1.028244 0.311496 0.162976 133.000000
1.028244 0.308054 0.162857 136.000000
1.028232 0.304615 0.162738 146.000000
1.028210 0.301178 0.162619 147.000000
1.028175 0.297745 0.162500 148.000000
1.029084 0.294589 0.162500 147.000000
1.030938 0.291702 0.162619 144.000000
1.028004 0.287464 0.162143 142.000000
1.029838 0.284575 0.162262 150.000000
1.031664 0.281676 0.162381 137.000000
1.030607 0.277991 0.162143 145.000000
1.029536 0.274314 0.161906 179.000000
1.029413 0.270900 0.161787 178.000000
1.030239 0.267741 0.161787 152.000000
1.030095 0.264331 0.161668 145.000000
1.031863 0.261414 0.161787 163.000000
1.029771 0.257522 0.161430 175.000000
1.030556 0.254361 0.161430 144.000000
1.031332 0.251198 0.161430 153.000000
1.029202 0.247334 0.161073 144.000000
1.028024 0.243715 0.160835 174.000000
1.026834 0.240105 0.160597 155.000000
1.026599 0.236730 0.160479 141.000000
1.032160 0.234685 0.161073 141.000000
1.029969 0.230863 0.160716 176.000000
1.042304 0.230285 0.162143 133.000000
1.051735 0.228997 0.163214 125.000000
1.042727 0.223676 0.162025 155.000000
1.045351 0.220889 0.162262 156.000000
1.047967 0.218087 0.162500 145.000000
1.043769 0.213869 0.161906 180.000000
1.050259 0.211850 0.162619 147.000000
1.052851 0.209016 0.162857 151.000000
1.055436 0.206168 0.163095 150.000000
1.059963 0.203682 0.163571 135.000000
1.060583 0.200429 0.163571 139.000000
1.057289 0.196445 0.163095 158.000000
1.056910 0.193021 0.162976 146.000000
1.049680 0.188366 0.162025 156.000000
1.043410 0.183930 0.161192 166.000000
1.047882 0.181410 0.161668 154.000000
1.045497 0.177692 0.161311 150.000000
1.043100 0.173990 0.160954 165.000000
1.040690 0.170305 0.160597 195.000000
1.045128 0.167745 0.161073 159.000000
1.045638 0.164538 0.161073 184.000000
1.046138 0.161329 0.161073 162.000000
1.044665 0.157820 0.160835 155.000000
1.042198 0.154175 0.160479 141.000000
1.042666 0.150977 0.160479 164.000000
1.042141 0.147637 0.160360 173.000000
1.038656 0.143890 0.159884 141.000000
1.038108 0.140568 0.159765 177.000000
1.037551 0.137251 0.159646 165.000000
1.036982 0.133939 0.159527 150.000000
1.041328 0.131258 0.160003 136.000000
1.038770 0.127696 0.159646 178.000000
1.042861 0.118470 0.160003 184.000000
1.040259 0.114939 0.159646 127.000000
1.039619 0.111640 0.159527 161.000000
1.037982 0.108242 0.159289 160.000000
1.036334 0.104855 0.159051 156.000000
1.037639 0.101773 0.159170 162.000000
1.036958 0.098494 0.159051 165.000000
1.036266 0.095220 0.158933 181.000000
1.037543 0.092130 0.159051 146.000000
1.037820 0.088946 0.159051 161.000000
1.036109 0.085596 0.158814 154.000000
1.037357 0.082497 0.158933 167.000000
1.036615 0.079237 0.158814 163.000000
1.037844 0.076130 0.158933 151.000000
1.037509 0.066510 0.158814 170.000000
1.037709 0.063327 0.158814 165.000000
1.038889 0.060201 0.158933 171.000000
1.038077 0.056958 0.158814 142.000000
1.037256 0.053721 0.158695 153.000000
1.037416 0.050538 0.158695 172.000000
1.035582 0.047262 0.158457 153.000000
1.037706 0.044172 0.158695 148.000000
1.036845 0.040948 0.158576 164.000000
1.033989 0.037655 0.158219 172.000000
1.034100 0.034482 0.158219 139.000000
1.031224 0.031216 0.157862 181.000000
1.031314 0.028052 0.157862 164.000000
