ply
format ascii 1.0
element vertex 1210
property float x
property float y
property float z
property float intensity
end_header
0.793956 0.073483 -0.110506 437.000000
0.792219 0.070873 -0.110137 458.000000
0.791454 0.068358 -0.109953 445.000000
0.794598 0.066173 -0.110506 430.000000
0.792838 0.063578 -0.110137 400.000000
0.792049 0.061070 -0.109953 452.000000
0.792233 0.058640 -0.109953 439.000000
0.791429 0.056140 -0.109768 471.000000
0.791597 0.053712 -0.109768 462.000000
0.790778 0.051220 -0.109584 404.000000
0.792893 0.048914 -0.109953 469.000000
0.792058 0.046424 -0.109768 440.000000
0.792197 0.043994 -0.109768 429.000000
0.792328 0.041563 -0.109768 439.000000
0.791470 0.039084 -0.109584 451.000000
0.791586 0.036656 -0.109584 438.000000
0.792677 0.034269 -0.109768 467.000000
0.794092 0.022133 -0.109953 452.000000
0.795139 0.019720 -0.110137 445.000000
0.793230 0.017239 -0.109768 456.000000
0.795245 0.014841 -0.110137 527.000000
0.793321 0.012372 -0.109768 500.000000
0.793355 0.009938 -0.109768 448.000000
0.795348 0.007521 -0.110137 485.000000
0.792418 0.005064 -0.109584 484.000000
0.791447 0.002630 -0.109399 465.000000
0.791452 0.000202 -0.109399 441.000000
0.790466 -0.002223 -0.109215 498.000000
0.790455 -0.004648 -0.109215 442.000000
0.792256 -0.016815 -0.109584 448.000000
0.791218 -0.019222 -0.109399 461.000000
0.792138 -0.021676 -0.109584 483.000000
0.793050 -0.024137 -0.109768 420.000000
0.791990 -0.026536 -0.109584 464.000000
0.791905 -0.028966 -0.109584 468.000000
0.794759 -0.031514 -0.110137 459.000000
0.793676 -0.033909 -0.109953 436.000000
0.792587 -0.036299 -0.109768 452.000000
0.791490 -0.038682 -0.109584 412.000000
0.794312 -0.041264 -0.110137 473.000000
0.793200 -0.043646 -0.109953 422.000000
0.793418 -0.055878 -0.110137 428.000000
0.790302 -0.058094 -0.109584 396.000000
0.794040 -0.060821 -0.110322 433.000000
0.793850 -0.063256 -0.110322 450.000000
0.794631 -0.065773 -0.110506 462.000000
0.792467 -0.068042 -0.110137 408.000000
0.795192 -0.070735 -0.110691 442.000000
0.796928 -0.073356 -0.111060 428.000000
0.793764 -0.075520 -0.110506 395.000000
0.796463 -0.078244 -0.111060 468.000000
0.795242 -0.080588 -0.110875 435.000000
0.794013 -0.082925 -0.110691 467.000000
0.792778 -0.085255 -0.110506 402.000000
0.793489 -0.087795 -0.110691 438.000000
0.790287 -0.089894 -0.110137 476.000000
0.791960 -0.092548 -0.110506 411.000000
0.789720 -0.094742 -0.110137 439.000000
0.789426 -0.097164 -0.110137 462.000000
0.790099 -0.099709 -0.110322 473.000000
0.791739 -0.102386 -0.110691 446.000000
0.791421 -0.104814 -0.110691 431.000000
0.791096 -0.107242 -0.110691 478.000000
0.790763 -0.109668 -0.110691 459.000000
0.793342 -0.112509 -0.111244 446.000000
0.792993 -0.114943 -0.111244 458.000000
0.791665 -0.117231 -0.111060 414.000000
0.792273 -0.119806 -0.111244 441.000000
0.791902 -0.122236 -0.111244 438.000000
0.791523 -0.124665 -0.111244 458.000000
0.791137 -0.127093 -0.111244 445.000000
0.789773 -0.129360 -0.111060 441.000000
0.791311 -0.132107 -0.111429 423.000000
0.788965 -0.134204 -0.111060 451.000000
0.788549 -0.136624 -0.111060 426.000000
0.787159 -0.138871 -0.110875 463.000000
0.787696 -0.141460 -0.111060 474.000000
0.787258 -0.143875 -0.111060 450.000000
0.788746 -0.146650 -0.111429 466.000000
0.791189 -0.149619 -0.111982 437.000000
0.791691 -0.152231 -0.112166 463.000000
0.792185 -0.154849 -0.112351 443.000000
0.792670 -0.157470 -0.112535 447.000000
0.791220 -0.159706 -0.112351 427.000000
0.790726 -0.162133 -0.112351 421.000000
0.789263 -0.164357 -0.112166 425.000000
0.786832 -0.166371 -0.111798 428.000000
0.784396 -0.168370 -0.111429 402.000000
0.782916 -0.170566 -0.111244 393.000000
0.784308 -0.173393 -0.111613 400.000000
0.781854 -0.175367 -0.111244 385.000000
0.786104 -0.178857 -0.112166 424.000000
0.782679 -0.180604 -0.111613 384.000000
0.784992 -0.183677 -0.112166 397.000000
0.788249 -0.186994 -0.112904 400.000000
0.786716 -0.189181 -0.112720 394.000000
0.788997 -0.192294 -0.113273 402.000000
0.786495 -0.194241 -0.112904 380.000000
0.788755 -0.197370 -0.113458 436.000000
0.789099 -0.200031 -0.113642 419.000000
0.786577 -0.201961 -0.113273 432.000000
0.784052 -0.203878 -0.112904 407.000000
0.785323 -0.206784 -0.113273 401.000000
0.782786 -0.208685 -0.112904 415.000000
0.784040 -0.211599 -0.113273 415.000000
0.784335 -0.214263 -0.113458 408.000000
0.781780 -0.216143 -0.113089 364.000000
0.785845 -0.219867 -0.114011 401.000000
0.782330 -0.221472 -0.113458 366.000000
0.784481 -0.224685 -0.114011 393.000000
0.789451 -0.228734 -0.115118 416.000000
0.790632 -0.231709 -0.115487 432.000000
0.786148 -0.233014 -0.114749 385.000000
0.783547 -0.234860 -0.114380 373.000000
0.783763 -0.237548 -0.114564 389.000000
0.783031 -0.239951 -0.114564 397.000000
0.783230 -0.242644 -0.114749 376.000000
0.784357 -0.245634 -0.115118 421.000000
0.781726 -0.247445 -0.114749 410.000000
0.780027 -0.249542 -0.114564 394.000000
0.781128 -0.252540 -0.114933 398.000000
0.781284 -0.255241 -0.115118 381.000000
0.780497 -0.257637 -0.115118 371.000000
0.779703 -0.260030 -0.115118 392.000000
0.779833 -0.262735 -0.115302 415.000000
0.781814 -0.266078 -0.115856 390.000000
0.783782 -0.269435 -0.116409 379.000000
0.784808 -0.272484 -0.116778 348.000000
0.786750 -0.275867 -0.117331 418.000000
0.785900 -0.278280 -0.117331 401.000000
0.787819 -0.281683 -0.117885 348.000000
0.786027 -0.283765 -0.117700 365.000000
0.785152 -0.286175 -0.117700 340.000000
0.784271 -0.288582 -0.117700 385.000000
0.781539 -0.290302 -0.117331 385.000000
0.780645 -0.292698 -0.117331 355.000000
0.781581 -0.295788 -0.117700 343.000000
0.780670 -0.298185 -0.117700 382.000000
0.783419 -0.301994 -0.118438 390.000000
0.782489 -0.304396 -0.118438 383.000000
0.784296 -0.307874 -0.118992 359.000000
0.786088 -0.311366 -0.119545 329.000000
0.785129 -0.313776 -0.119545 370.000000
0.786897 -0.317287 -0.120098 393.000000
0.781369 -0.317846 -0.119176 351.000000
0.779481 -0.319869 -0.118992 340.000000
0.775772 -0.321129 -0.118438 337.000000
0.776597 -0.324266 -0.118807 335.000000
0.776504 -0.327029 -0.118992 328.000000
0.777306 -0.330179 -0.119361 327.000000
0.779902 -0.334112 -0.120098 351.000000
0.778873 -0.336503 -0.120098 320.000000
0.780540 -0.340070 -0.120652 316.000000
0.779493 -0.342463 -0.120652 299.000000
0.781134 -0.346049 -0.121205 324.000000
0.780069 -0.348444 -0.121205 345.000000
0.778100 -0.350431 -0.121021 338.000000
0.777916 -0.353223 -0.121205 282.000000
0.779509 -0.356837 -0.121759 343.000000
0.778411 -0.359227 -0.121759 299.000000
0.778196 -0.362028 -0.121943 311.000000
0.777971 -0.364832 -0.122128 300.000000
0.778625 -0.368057 -0.122497 311.000000
0.781040 -0.372137 -0.123234 292.000000
0.780781 -0.374957 -0.123419 285.000000
0.781396 -0.378208 -0.123788 280.000000
0.782881 -0.381898 -0.124341 318.000000
0.782588 -0.384732 -0.124526 289.000000
0.784045 -0.388441 -0.125079 266.000000
0.781091 -0.389966 -0.124710 291.000000
0.780769 -0.392802 -0.124895 268.000000
0.780437 -0.395641 -0.125079 306.000000
0.778344 -0.397586 -0.124895 254.000000
0.780615 -0.401772 -0.125632 239.000000
0.781996 -0.405524 -0.126186 257.000000
0.783361 -0.409288 -0.126739 266.000000
0.784710 -0.413064 -0.127293 232.000000
0.783439 -0.415469 -0.127293 252.000000
0.781294 -0.417407 -0.127108 239.000000
0.783471 -0.421667 -0.127846 252.000000
0.781310 -0.423600 -0.127662 227.000000
0.781731 -0.426938 -0.128031 248.000000
0.780418 -0.429334 -0.128031 216.000000
0.782535 -0.433633 -0.128768 233.000000
0.782059 -0.436512 -0.128953 188.000000
0.780716 -0.438909 -0.128953 208.000000
0.776800 -0.439848 -0.128399 194.000000
0.776301 -0.442716 -0.128584 185.000000
0.775791 -0.445586 -0.128768 155.000000
0.772719 -0.446979 -0.128399 152.000000
0.771344 -0.449347 -0.128399 160.000000
0.773352 -0.453703 -0.129137 157.000000
0.771957 -0.456073 -0.129137 103.000000
0.772242 -0.459445 -0.129506 104.000000
0.775044 -0.464339 -0.130429 122.000000
0.771092 -0.465191 -0.129875 90.000000
0.765462 -0.465001 -0.128953 72.000000
0.762355 -0.466321 -0.128584 49.000000
0.770124 -0.474331 -0.130613 26.000000
0.771170 -0.478247 -0.131166 18.000000
0.774700 -0.483736 -0.132273 17.000000
0.776540 -0.488204 -0.133011 21.000000
0.768396 -0.486376 -0.131535 14.000000
0.795693 0.402300 -0.138991 27.000000
0.792544 0.397653 -0.138010 56.000000
0.784988 0.390837 -0.136049 89.000000
0.784427 0.387556 -0.135657 110.000000
0.786492 0.385580 -0.135853 117.000000
0.787671 0.383166 -0.135853 119.000000
0.786195 0.379465 -0.135265 143.000000
0.787356 0.377051 -0.135265 120.000000
0.789394 0.375056 -0.135461 144.000000
0.786109 0.370536 -0.134480 168.000000
0.787242 0.368123 -0.134480 150.000000
0.788367 0.365706 -0.134480 160.000000
0.788595 0.362874 -0.134284 168.000000
0.791488 0.361270 -0.134676 141.000000
0.790807 0.358029 -0.134284 162.000000
0.791902 0.355601 -0.134284 161.000000
0.794780 0.353970 -0.134676 177.000000
0.794965 0.351132 -0.134480 180.000000
0.790653 0.346324 -0.133303 235.000000
0.790813 0.343505 -0.133107 256.000000
0.789163 0.339910 -0.132519 233.000000
0.792906 0.338646 -0.133107 238.000000
0.790331 0.334677 -0.132323 236.000000
0.787740 0.330728 -0.131538 231.000000
0.788751 0.328310 -0.131538 216.000000
0.787942 0.325138 -0.131146 235.000000
0.788936 0.322719 -0.131146 257.000000
0.787198 0.319188 -0.130558 304.000000
0.786355 0.316037 -0.130166 274.000000
0.783679 0.312167 -0.129381 279.000000
0.785544 0.310122 -0.129577 271.000000
0.784667 0.306994 -0.129185 238.000000
0.786519 0.304941 -0.129381 264.000000
0.787450 0.302526 -0.129381 268.000000
0.786543 0.299409 -0.128989 257.000000
0.786541 0.296647 -0.128793 290.000000
0.792956 0.296299 -0.129969 309.000000
0.788346 0.291815 -0.128793 239.000000
0.791998 0.290412 -0.129381 253.000000
0.791043 0.287309 -0.128989 319.000000
0.790999 0.284547 -0.128793 294.000000
0.790945 0.281789 -0.128597 251.000000
0.791805 0.279361 -0.128597 294.000000
0.788958 0.275631 -0.127812 245.000000
0.788873 0.272888 -0.127616 279.000000
0.789707 0.270466 -0.127616 286.000000
0.790533 0.268042 -0.127616 284.000000
0.791352 0.265616 -0.127616 278.000000
0.787512 0.261634 -0.126635 304.000000
0.787380 0.258909 -0.126439 298.000000
0.788171 0.256492 -0.126439 303.000000
0.788021 0.253771 -0.126243 283.000000
0.787862 0.251053 -0.126047 306.000000
0.788628 0.248635 -0.126047 252.000000
0.788452 0.245921 -0.125851 292.000000
0.792012 0.244372 -0.126439 281.000000
0.791821 0.241654 -0.126243 281.000000
0.790682 0.238654 -0.125851 264.000000
0.791410 0.236227 -0.125851 275.000000
0.789311 0.232961 -0.125263 268.000000
0.786258 0.229435 -0.124478 252.000000
0.786017 0.226748 -0.124282 272.000000
0.785766 0.224065 -0.124086 279.000000
0.783619 0.220852 -0.123498 235.000000
0.786182 0.218975 -0.123890 262.000000
0.784960 0.216039 -0.123498 293.000000
0.785619 0.213630 -0.123498 279.000000
0.785324 0.210963 -0.123301 278.000000
0.784073 0.208047 -0.122909 267.000000
0.783759 0.205391 -0.122713 291.000000
0.782488 0.202491 -0.122321 261.000000
0.784055 0.200334 -0.122517 250.000000
0.786567 0.198410 -0.122909 274.000000
0.786221 0.195757 -0.122713 274.000000
0.786817 0.193344 -0.122713 279.000000
0.789312 0.191394 -0.123105 280.000000
0.786082 0.188054 -0.122321 258.000000
0.788564 0.186094 -0.122713 252.000000
0.785312 0.182779 -0.121929 289.000000
0.783958 0.179928 -0.121536 254.000000
0.785462 0.177740 -0.121732 280.000000
0.783134 0.174684 -0.121144 246.000000
0.783666 0.172281 -0.121144 272.000000
0.785149 0.170085 -0.121340 297.000000
0.782791 0.167057 -0.120752 277.000000
0.786178 0.165264 -0.121340 261.000000
0.788601 0.163252 -0.121732 278.000000
0.789098 0.160832 -0.121732 272.000000
0.791510 0.158798 -0.122125 284.000000
0.790070 0.155987 -0.121732 307.000000
0.790545 0.153562 -0.121732 294.000000
0.789087 0.150765 -0.121340 285.000000
0.787618 0.147979 -0.120948 285.000000
0.786141 0.145203 -0.120556 287.000000
0.785618 0.142614 -0.120360 290.000000
0.786052 0.140203 -0.120360 290.000000
0.784547 0.137449 -0.119967 274.000000
0.784965 0.135042 -0.119967 306.000000
0.786342 0.132797 -0.120164 302.000000
0.785779 0.130222 -0.119967 279.000000
0.784239 0.127494 -0.119575 281.000000
0.783659 0.124931 -0.119379 317.000000
0.781133 0.122068 -0.118791 286.000000
0.779565 0.119371 -0.118398 266.000000
0.780897 0.117126 -0.118595 293.000000
0.780283 0.114586 -0.118398 300.000000
0.778690 0.111909 -0.118006 270.000000
0.785482 0.098172 -0.118987 305.000000
0.784806 0.095642 -0.118791 290.000000
0.788017 0.093585 -0.119379 305.000000
0.785379 0.090825 -0.118791 309.000000
0.785653 0.088415 -0.118791 312.000000
0.787156 0.083698 -0.118987 288.000000
0.786434 0.081180 -0.118791 308.000000
0.783753 0.078470 -0.118202 316.000000
0.783014 0.075969 -0.118006 288.000000
0.784219 0.073659 -0.118202 251.000000
0.784442 0.071253 -0.118202 280.000000
0.783665 0.056657 -0.117810 285.000000
0.781878 0.054115 -0.117418 302.000000
0.782041 0.051716 -0.117418 324.000000
0.782196 0.049316 -0.117418 319.000000
0.783462 0.044573 -0.117614 295.000000
0.780658 0.042007 -0.117026 257.000000
0.778825 0.039509 -0.116633 330.000000
0.780901 0.037216 -0.117026 310.000000
0.781012 0.034820 -0.117026 300.000000
0.780135 0.032381 -0.116830 296.000000
0.782501 0.020465 -0.117222 302.000000
0.782560 0.018064 -0.117222 281.000000
0.781631 0.015642 -0.117026 295.000000
0.781675 0.013244 -0.117026 298.000000
0.781712 0.010846 -0.117026 316.000000
0.781742 0.008448 -0.117026 288.000000
0.781764 0.006049 -0.117026 286.000000
0.780798 0.003645 -0.116830 314.000000
0.779825 0.001246 -0.116633 318.000000
0.781787 -0.001146 -0.117026 289.000000
0.781780 -0.003545 -0.117026 311.000000
0.782745 -0.005949 -0.117222 264.000000
0.778801 -0.008314 -0.116437 285.000000
0.779753 -0.010716 -0.116633 296.000000
0.778736 -0.013093 -0.116437 269.000000
0.778692 -0.015482 -0.116437 288.000000
0.778641 -0.017871 -0.116437 258.000000
0.778582 -0.020260 -0.116437 276.000000
0.778516 -0.022648 -0.116437 256.000000
0.781384 -0.025127 -0.117026 315.000000
0.781303 -0.027524 -0.117026 226.000000
0.780235 -0.029885 -0.116830 277.000000
0.781119 -0.032317 -0.117026 276.000000
0.781996 -0.034756 -0.117222 307.000000
0.780906 -0.037110 -0.117026 284.000000
0.779809 -0.039457 -0.116830 289.000000
0.780664 -0.041900 -0.117026 298.000000
0.779553 -0.044241 -0.116830 314.000000
0.781371 -0.046747 -0.117222 293.000000
0.783181 -0.049264 -0.117614 303.000000
0.783027 -0.051666 -0.117614 285.000000
0.784821 -0.054201 -0.118006 274.000000
0.785629 -0.056677 -0.118202 258.000000
0.785452 -0.059087 -0.118202 275.000000
0.787222 -0.061647 -0.118595 296.000000
0.785074 -0.063906 -0.118202 288.000000
0.784875 -0.066314 -0.118202 259.000000
0.781737 -0.068469 -0.117614 295.000000
0.780546 -0.070780 -0.117418 278.000000
0.781302 -0.073265 -0.117614 305.000000
0.782049 -0.075754 -0.117810 321.000000
0.782789 -0.078249 -0.118006 295.000000
0.782545 -0.080651 -0.118006 290.000000
0.785220 -0.083357 -0.118595 313.000000
0.786910 -0.085976 -0.118987 306.000000
0.786643 -0.088390 -0.118987 299.000000
0.786368 -0.090803 -0.118987 310.000000
0.786086 -0.093215 -0.118987 287.000000
0.784823 -0.095509 -0.118791 311.000000
0.784526 -0.097917 -0.118791 313.000000
0.781303 -0.099954 -0.118202 291.000000
0.780993 -0.102351 -0.118202 260.000000
0.780675 -0.104746 -0.118202 242.000000
0.780350 -0.107141 -0.118202 295.000000
0.780018 -0.109534 -0.118202 290.000000
0.781620 -0.112203 -0.118595 307.000000
0.782242 -0.114741 -0.118791 309.000000
0.784797 -0.117572 -0.119379 296.000000
0.784432 -0.119979 -0.119379 267.000000
0.784060 -0.122385 -0.119379 278.000000
0.782713 -0.124637 -0.119183 305.000000
0.783295 -0.127194 -0.119379 306.000000
0.780965 -0.129279 -0.118987 257.000000
0.778631 -0.131351 -0.118595 243.000000
0.779191 -0.133904 -0.118791 296.000000
0.778776 -0.136293 -0.118791 280.000000
0.780286 -0.139023 -0.119183 313.000000
0.779856 -0.141417 -0.119183 247.000000
0.779418 -0.143808 -0.119183 310.000000
0.778009 -0.146019 -0.118987 320.000000
0.777558 -0.148406 -0.118987 307.000000
0.778062 -0.150976 -0.119183 264.000000
0.777595 -0.153362 -0.119183 270.000000
0.776159 -0.155556 -0.118987 280.000000
0.776639 -0.158131 -0.119183 282.000000
0.779032 -0.161104 -0.119771 328.000000
0.776614 -0.163093 -0.119379 259.000000
0.778029 -0.165881 -0.119771 251.000000
0.781351 -0.169091 -0.120556 279.000000
0.780828 -0.171488 -0.120556 272.000000
0.780299 -0.173882 -0.120556 264.000000
0.782632 -0.176920 -0.121144 273.000000
0.781129 -0.179102 -0.120948 262.000000
0.778665 -0.181057 -0.120556 284.000000
0.778106 -0.183445 -0.120556 284.000000
0.775632 -0.185378 -0.120164 319.000000
0.776966 -0.188216 -0.120556 264.000000
0.776385 -0.190599 -0.120556 280.000000
0.778652 -0.193685 -0.121144 245.000000
0.778054 -0.196073 -0.121144 257.000000
0.780300 -0.199183 -0.121732 281.000000
0.782535 -0.202308 -0.122321 286.000000
0.783808 -0.205202 -0.122713 276.000000
0.782227 -0.207356 -0.122517 280.000000
0.782535 -0.210008 -0.122713 284.000000
0.781887 -0.212407 -0.122713 282.000000
0.781231 -0.214805 -0.122713 268.000000
0.781514 -0.217462 -0.122909 266.000000
0.780843 -0.219859 -0.122909 271.000000
0.777334 -0.221452 -0.122321 292.000000
0.779479 -0.224646 -0.122909 269.000000
0.777844 -0.226763 -0.122713 278.000000
0.776204 -0.228873 -0.122517 263.000000
0.777378 -0.231811 -0.122909 268.000000
0.778542 -0.234758 -0.123301 262.000000
0.778757 -0.237430 -0.123498 238.000000
0.780837 -0.240681 -0.124086 262.000000
0.781031 -0.243366 -0.124282 256.000000
0.780281 -0.245761 -0.124282 251.000000
0.781393 -0.248746 -0.124674 272.000000
0.782494 -0.251740 -0.125066 234.000000
0.778919 -0.253233 -0.124478 269.000000
0.777207 -0.255317 -0.124282 285.000000
0.775488 -0.257393 -0.124086 230.000000
0.774695 -0.259771 -0.124086 243.000000
0.776682 -0.263086 -0.124674 274.000000
0.774943 -0.265152 -0.124478 265.000000
0.775053 -0.267847 -0.124674 290.000000
0.774228 -0.270223 -0.124674 268.000000
0.776171 -0.273571 -0.125263 297.000000
0.778101 -0.276934 -0.125851 241.000000
0.777248 -0.279320 -0.125851 256.000000
0.776387 -0.281703 -0.125851 276.000000
0.776440 -0.284420 -0.126047 235.000000
0.775564 -0.286800 -0.126047 255.000000
0.775600 -0.289520 -0.126243 258.000000
0.775626 -0.292243 -0.126439 255.000000
0.774726 -0.294621 -0.126439 259.000000
0.774734 -0.297346 -0.126635 249.000000
0.774733 -0.300075 -0.126832 248.000000
0.774723 -0.302806 -0.127028 224.000000
0.776528 -0.306257 -0.127616 264.000000
0.777408 -0.309360 -0.128008 281.000000
0.776455 -0.311744 -0.128008 257.000000
0.777314 -0.314858 -0.128400 257.000000
0.776344 -0.317242 -0.128400 263.000000
0.777182 -0.320367 -0.128793 261.000000
0.777101 -0.323125 -0.128989 248.000000
0.775201 -0.325129 -0.128793 276.000000
0.777815 -0.329029 -0.129577 257.000000
0.781314 -0.333332 -0.130558 278.000000
0.781189 -0.336114 -0.130754 250.000000
0.781954 -0.339287 -0.131146 259.000000
0.780010 -0.341292 -0.130950 286.000000
0.780755 -0.344473 -0.131342 286.000000
0.781487 -0.347661 -0.131734 265.000000
0.777731 -0.348857 -0.131146 254.000000
0.774870 -0.350436 -0.130754 259.000000
0.775576 -0.353623 -0.131146 257.000000
0.775379 -0.356409 -0.131342 264.000000
0.776063 -0.359608 -0.131734 257.000000
0.777623 -0.363228 -0.132323 242.000000
0.773842 -0.364363 -0.131734 267.000000
0.776266 -0.368412 -0.132519 245.000000
0.777787 -0.372058 -0.133107 239.000000
0.774875 -0.373593 -0.132715 253.000000
0.777255 -0.377678 -0.133500 233.000000
0.778736 -0.381351 -0.134088 255.000000
0.777563 -0.383739 -0.134088 283.000000
0.779017 -0.387429 -0.134676 239.000000
0.776948 -0.389379 -0.134480 245.000000
0.775750 -0.391760 -0.134480 246.000000
0.775419 -0.394582 -0.134676 241.000000
0.774204 -0.396959 -0.134676 204.000000
0.772983 -0.399333 -0.134676 227.000000
0.773495 -0.402605 -0.135068 197.000000
0.773994 -0.405885 -0.135461 191.000000
0.774481 -0.409171 -0.135853 209.000000
0.776686 -0.413384 -0.136637 161.000000
0.776279 -0.416227 -0.136834 195.000000
0.778452 -0.420466 -0.137618 188.000000
0.778021 -0.423320 -0.137814 211.000000
0.776718 -0.425705 -0.137814 198.000000
0.778845 -0.429977 -0.138599 173.000000
0.779237 -0.433315 -0.138991 148.000000
0.777048 -0.435226 -0.138795 128.000000
0.776564 -0.438088 -0.138991 127.000000
0.772656 -0.439019 -0.138402 147.000000
0.770454 -0.440901 -0.138206 157.000000
0.770798 -0.444240 -0.138599 168.000000
0.765188 -0.444147 -0.137618 114.000000
0.764669 -0.446986 -0.137814 104.000000
0.761603 -0.448338 -0.137422 96.000000
0.765289 -0.453666 -0.138599 67.000000
0.767264 -0.458017 -0.139383 60.000000
0.767537 -0.461377 -0.139775 58.000000
0.794662 -0.480957 -0.146443 33.000000
0.787848 0.400145 -0.148127 92.000000
0.789946 0.398166 -0.148334 109.000000
0.789413 0.394866 -0.147919 123.000000
0.791497 0.392877 -0.148127 109.000000
0.790944 0.389583 -0.147711 125.000000
0.791256 0.386725 -0.147503 110.000000
0.789798 0.383016 -0.146880 140.000000
0.787443 0.378897 -0.146049 129.000000
0.791250 0.377742 -0.146672 151.000000
0.793289 0.375731 -0.146880 150.000000
0.794439 0.373296 -0.146880 147.000000
0.797354 0.371682 -0.147296 159.000000
0.795826 0.368004 -0.146672 129.000000
0.804955 0.369227 -0.148542 164.000000
0.809646 0.368375 -0.149373 193.000000
0.808097 0.364683 -0.148750 210.000000
0.808319 0.361803 -0.148542 218.000000
0.804060 0.356943 -0.147296 212.000000
0.802465 0.353293 -0.146672 240.000000
0.799959 0.349265 -0.145841 225.000000
0.796537 0.344868 -0.144803 221.000000
0.796692 0.342037 -0.144595 228.000000
0.797738 0.339591 -0.144595 238.000000
0.796072 0.336003 -0.143972 268.000000
0.798002 0.333936 -0.144179 231.000000
0.794504 0.329614 -0.143141 255.000000
0.795511 0.327175 -0.143141 261.000000
0.796511 0.324733 -0.143141 289.000000
0.796597 0.321921 -0.142933 330.000000
0.793948 0.318023 -0.142102 292.000000
0.793101 0.314864 -0.141687 320.000000
0.791332 0.311356 -0.141063 317.000000
0.792284 0.308927 -0.141063 296.000000
0.792315 0.306143 -0.140856 323.000000
0.791423 0.303012 -0.140440 331.000000
0.790520 0.299889 -0.140025 327.000000
0.793268 0.298150 -0.140440 323.000000
0.793262 0.295374 -0.140232 326.000000
0.795082 0.293277 -0.140440 356.000000
0.793221 0.289831 -0.139817 331.000000
0.791347 0.286398 -0.139194 314.000000
0.792222 0.283969 -0.139194 310.000000
0.791245 0.280884 -0.138778 345.000000
0.791180 0.278131 -0.138570 338.000000
0.791106 0.275381 -0.138363 332.000000
0.790097 0.272316 -0.137947 369.000000
0.790929 0.269891 -0.137947 345.000000
0.790826 0.267150 -0.137739 375.000000
0.789787 0.264103 -0.137324 363.000000
0.789664 0.261372 -0.137116 353.000000
0.787673 0.258036 -0.136493 319.000000
0.786600 0.255016 -0.136078 323.000000
0.787379 0.252601 -0.136078 334.000000
0.788150 0.250185 -0.136078 312.000000
0.787981 0.247473 -0.135870 332.000000
0.788736 0.245054 -0.135870 345.000000
0.787614 0.242059 -0.135454 352.000000
0.788353 0.239642 -0.135454 367.000000
0.789084 0.237222 -0.135454 337.000000
0.786995 0.233965 -0.134831 357.000000
0.787709 0.231549 -0.134831 382.000000
0.788416 0.229132 -0.134831 325.000000
0.789115 0.226712 -0.134831 342.000000
0.787925 0.223756 -0.134416 356.000000
0.790491 0.221866 -0.134831 298.000000
0.791168 0.219439 -0.134831 357.000000
0.791838 0.217011 -0.134831 344.000000
0.793444 0.214836 -0.135039 356.000000
0.794100 0.212401 -0.135039 387.000000
0.790964 0.208966 -0.134208 342.000000
0.794441 0.207278 -0.134831 356.000000
0.793179 0.204352 -0.134416 333.000000
0.792854 0.201677 -0.134208 359.000000
0.795366 0.199719 -0.134623 385.000000
0.795026 0.197043 -0.134416 365.000000
0.794676 0.194371 -0.134208 362.000000
0.791465 0.191016 -0.133377 383.000000
0.792999 0.188813 -0.133585 348.000000
0.789765 0.185487 -0.132754 379.000000
0.791283 0.183283 -0.132961 397.000000
0.787073 0.179768 -0.131923 330.000000
0.788576 0.177567 -0.132130 385.000000
0.789117 0.175147 -0.132130 371.000000
0.787739 0.172308 -0.131715 335.000000
0.791133 0.170507 -0.132338 380.000000
0.794523 0.168687 -0.132961 395.000000
0.792164 0.165649 -0.132338 390.000000
0.792669 0.163218 -0.132338 375.000000
0.796042 0.161367 -0.132961 400.000000
0.793655 0.158352 -0.132338 356.000000
0.794137 0.155916 -0.132338 364.000000
0.792691 0.153109 -0.131923 378.000000
0.794118 0.150858 -0.132130 413.000000
0.793615 0.148242 -0.131923 405.000000
0.791180 0.145278 -0.131300 396.000000
0.790659 0.142677 -0.131092 361.000000
0.796873 0.141272 -0.132338 416.000000
0.794411 0.138325 -0.131715 392.000000
0.795796 0.136051 -0.131923 394.000000
0.801033 0.134416 -0.132961 442.000000
0.799511 0.131641 -0.132546 413.000000
0.796049 0.128566 -0.131715 388.000000
0.796439 0.126123 -0.131715 399.000000
0.795856 0.123529 -0.131507 430.000000
0.794297 0.120794 -0.131092 400.000000
0.791761 0.117925 -0.130469 387.000000
0.795023 0.115918 -0.131092 424.000000
0.794406 0.113340 -0.130884 415.000000
0.793782 0.110768 -0.130676 394.000000
0.796056 0.108596 -0.131092 419.000000
0.794446 0.105895 -0.130676 388.000000
0.793797 0.103332 -0.130469 378.000000
0.794111 0.100896 -0.130469 380.000000
0.793446 0.098339 -0.130261 391.000000
0.794715 0.096021 -0.130469 381.000000
0.794034 0.093469 -0.130261 392.000000
0.793345 0.090921 -0.130053 370.000000
0.795565 0.088703 -0.130469 401.000000
0.797778 0.086472 -0.130884 408.000000
0.799986 0.084228 -0.131300 435.000000
0.796347 0.081377 -0.130469 420.000000
0.790753 0.078357 -0.129222 365.000000
0.795858 0.076396 -0.130261 424.000000
0.793167 0.073684 -0.129638 378.000000
0.797286 0.071598 -0.130469 435.000000
0.792629 0.068732 -0.129430 388.000000
0.793811 0.066381 -0.129638 388.000000
0.794011 0.063945 -0.129638 390.000000
0.795179 0.061584 -0.129845 395.000000
0.794389 0.059072 -0.129638 394.000000
0.793590 0.056565 -0.129430 396.000000
0.795712 0.054263 -0.129845 411.000000
0.791970 0.051569 -0.129014 379.000000
0.795054 0.049319 -0.129638 391.000000
0.793248 0.046766 -0.129222 396.000000
0.789481 0.044115 -0.128391 348.000000
0.789613 0.041693 -0.128391 369.000000
0.790714 0.039318 -0.128599 388.000000
0.788877 0.036802 -0.128183 372.000000
0.788986 0.034382 -0.128183 364.000000
0.791376 0.022329 -0.128599 400.000000
0.791441 0.019901 -0.128599 413.000000
0.792476 0.017494 -0.128807 422.000000
0.789592 0.015009 -0.128183 398.000000
0.793547 0.012647 -0.129014 431.000000
0.790647 0.010176 -0.128391 406.000000
0.790675 0.007750 -0.128391 372.000000
0.794608 0.005349 -0.129222 437.000000
0.792664 0.002905 -0.128807 403.000000
0.794625 0.000473 -0.129222 444.000000
0.792667 -0.001959 -0.128807 406.000000
0.797548 -0.004421 -0.129845 437.000000
0.791518 -0.016528 -0.128599 405.000000
0.794398 -0.019028 -0.129222 423.000000
0.795313 -0.021492 -0.129430 449.000000
0.791333 -0.023813 -0.128599 400.000000
0.792234 -0.026273 -0.128807 403.000000
0.793127 -0.028740 -0.129014 415.000000
0.794990 -0.031250 -0.129430 437.000000
0.796845 -0.033773 -0.129845 424.000000
0.795760 -0.036173 -0.129638 428.000000
0.797599 -0.038710 -0.130053 433.000000
0.799431 -0.041258 -0.130469 456.000000
0.799300 -0.043711 -0.130469 482.000000
0.792681 -0.055553 -0.129222 405.000000
0.792507 -0.057985 -0.129222 406.000000
0.792325 -0.060416 -0.129222 425.000000
0.790186 -0.062691 -0.128807 419.000000
0.789990 -0.065115 -0.128807 414.000000
0.789787 -0.067538 -0.128807 406.000000
0.789576 -0.069961 -0.128807 389.000000
0.794228 -0.072832 -0.129845 430.000000
0.789132 -0.074804 -0.128807 374.000000
0.790845 -0.077416 -0.129222 374.000000
0.790604 -0.079842 -0.129222 385.000000
0.792301 -0.082471 -0.129638 392.000000
0.791072 -0.084797 -0.129430 385.000000
0.788864 -0.087008 -0.129014 411.000000
0.788593 -0.089427 -0.129014 405.000000
0.788315 -0.091846 -0.129014 384.000000
0.787058 -0.094148 -0.128807 395.000000
0.788707 -0.096801 -0.129222 411.000000
0.786466 -0.098975 -0.128807 387.000000
0.785188 -0.101262 -0.128599 366.000000
0.789722 -0.104313 -0.129638 413.000000
0.786491 -0.106341 -0.129014 394.000000
0.789067 -0.109157 -0.129638 408.000000
0.787760 -0.111440 -0.129430 407.000000
0.786447 -0.113716 -0.129222 371.000000
0.789965 -0.116702 -0.130053 421.000000
0.787668 -0.118832 -0.129638 368.000000
0.787300 -0.121248 -0.129638 366.000000
0.786924 -0.123663 -0.129638 391.000000
0.788473 -0.126387 -0.130053 395.000000
0.788082 -0.128805 -0.130053 401.000000
0.789612 -0.131545 -0.130469 416.000000
0.787276 -0.133639 -0.130053 387.000000
0.785899 -0.135886 -0.129845 395.000000
0.788368 -0.138807 -0.130469 395.000000
0.788901 -0.141398 -0.130676 400.000000
0.787502 -0.143642 -0.130469 402.000000
0.789942 -0.146594 -0.131092 421.000000
0.784683 -0.148107 -0.130053 380.000000
0.782304 -0.150144 -0.129638 328.000000
0.784720 -0.153107 -0.130261 373.000000
0.782327 -0.155132 -0.129845 337.000000
0.782807 -0.157725 -0.130053 393.000000
0.784235 -0.160519 -0.130469 376.000000
0.786612 -0.163523 -0.131092 407.000000
0.786107 -0.165936 -0.131092 401.000000
0.785594 -0.168347 -0.131092 372.000000
0.787941 -0.171381 -0.131715 364.000000
0.787411 -0.173798 -0.131715 339.000000
0.790692 -0.177070 -0.132546 396.000000
0.790145 -0.179495 -0.132546 398.000000
0.786732 -0.181258 -0.131923 374.000000
0.788077 -0.184116 -0.132338 396.000000
0.790363 -0.187211 -0.132961 423.000000
0.785981 -0.188720 -0.132130 404.000000
0.785398 -0.191130 -0.132130 399.000000
0.783859 -0.193304 -0.131923 380.000000
0.784211 -0.195946 -0.132130 372.000000
0.788347 -0.199553 -0.133169 422.000000
0.785836 -0.201484 -0.132754 394.000000
0.787108 -0.204386 -0.133169 381.000000
0.787423 -0.207050 -0.133377 388.000000
0.786784 -0.209464 -0.133377 374.000000
0.788026 -0.212387 -0.133792 387.000000
0.784540 -0.214030 -0.133169 370.000000
0.785765 -0.216958 -0.133585 388.000000
0.786980 -0.219895 -0.134000 347.000000
0.784419 -0.221775 -0.133585 390.000000
0.782795 -0.223911 -0.133377 384.000000
0.780225 -0.225767 -0.132961 393.000000
0.777652 -0.227609 -0.132546 348.000000
0.779763 -0.230828 -0.133169 361.000000
0.780925 -0.233781 -0.133585 335.000000
0.780204 -0.236176 -0.133585 327.000000
0.782282 -0.239429 -0.134208 360.000000
0.784346 -0.242696 -0.134831 375.000000
0.783598 -0.245101 -0.134831 326.000000
0.785640 -0.248390 -0.135454 355.000000
0.784874 -0.250799 -0.135454 345.000000
0.781309 -0.252303 -0.134831 330.000000
0.783321 -0.255611 -0.135454 358.000000
0.779746 -0.257092 -0.134831 332.000000
0.777098 -0.258864 -0.134416 296.000000
0.779081 -0.262184 -0.135039 345.000000
0.778273 -0.264573 -0.135039 348.000000
0.779308 -0.267596 -0.135454 332.000000
0.781255 -0.270949 -0.136078 346.000000
0.780420 -0.273344 -0.136078 355.000000
0.781422 -0.276390 -0.136493 360.000000
0.783334 -0.279775 -0.137116 317.000000
0.782472 -0.282177 -0.137116 337.000000
0.782521 -0.284911 -0.137324 348.000000
0.781643 -0.287310 -0.137324 339.000000
0.781675 -0.290048 -0.137532 355.000000
0.782613 -0.293132 -0.137947 330.000000
0.778966 -0.294492 -0.137324 288.000000
0.778059 -0.296881 -0.137324 315.000000
0.775319 -0.298562 -0.136909 313.000000
0.777134 -0.302004 -0.137532 309.000000
0.777114 -0.304744 -0.137739 327.000000
0.777085 -0.307487 -0.137947 324.000000
0.777046 -0.310233 -0.138155 329.000000
0.779720 -0.314079 -0.138986 319.000000
0.779659 -0.316839 -0.139194 309.000000
0.783207 -0.321086 -0.140232 355.000000
0.784026 -0.324236 -0.140648 349.000000
0.783028 -0.326640 -0.140648 282.000000
0.782923 -0.329420 -0.140856 288.000000
0.783710 -0.332586 -0.141271 293.000000
0.780887 -0.334218 -0.140856 329.000000
0.781654 -0.337388 -0.141271 287.000000
0.777925 -0.338613 -0.140648 327.000000
0.778674 -0.341785 -0.141063 285.000000
0.777622 -0.344172 -0.141063 291.000000
0.776562 -0.346556 -0.141063 293.000000
0.777279 -0.349741 -0.141479 333.000000
0.775312 -0.351719 -0.141271 278.000000
0.775118 -0.354503 -0.141479 306.000000
0.774915 -0.357290 -0.141687 273.000000
0.778250 -0.361729 -0.142725 264.000000
0.779793 -0.365361 -0.143349 298.000000
0.780437 -0.368588 -0.143764 271.000000
0.781069 -0.371822 -0.144179 264.000000
0.781688 -0.375064 -0.144595 280.000000
0.781414 -0.377886 -0.144803 276.000000
0.782888 -0.381569 -0.145426 284.000000
0.779080 -0.382674 -0.144803 254.000000
0.777903 -0.385062 -0.144803 268.000000
0.777593 -0.387884 -0.145010 268.000000
0.778147 -0.391147 -0.145426 268.000000
0.777815 -0.393975 -0.145634 281.000000
0.776603 -0.396360 -0.145634 236.000000
0.777123 -0.399636 -0.146049 217.000000
0.777630 -0.402919 -0.146465 201.000000
0.778124 -0.406209 -0.146880 229.000000
0.778605 -0.409506 -0.147296 209.000000
0.780801 -0.413726 -0.148127 198.000000
0.781254 -0.417042 -0.148542 212.000000
0.784277 -0.421755 -0.149581 235.000000
0.784700 -0.425091 -0.149996 229.000000
0.785109 -0.428435 -0.150412 215.000000
0.785505 -0.431785 -0.150827 180.000000
0.783321 -0.433718 -0.150619 161.000000
0.778570 -0.434212 -0.149788 203.000000
0.779792 -0.438037 -0.150412 187.000000
0.775891 -0.438981 -0.149788 124.000000
0.773691 -0.440875 -0.149581 124.000000
0.773183 -0.443734 -0.149788 119.000000
0.774358 -0.447573 -0.150412 128.000000
0.772136 -0.449454 -0.150204 127.000000
0.774128 -0.453801 -0.151035 124.000000
0.771048 -0.455179 -0.150619 85.000000
0.767967 -0.456542 -0.150204 76.000000
0.761528 -0.455879 -0.148958 64.000000
0.758451 -0.457203 -0.148542 66.000000
0.735309 -0.446321 -0.143141 31.000000
0.747287 -0.456743 -0.146465 24.000000
0.745049 -0.458520 -0.146257 19.000000
0.757770 -0.469569 -0.149788 16.000000
0.769601 -0.480182 -0.153112 18.000000
0.786029 0.409423 -0.159358 14.000000
0.806658 0.407688 -0.163303 26.000000
0.804419 0.403458 -0.162426 57.000000
0.801288 0.398808 -0.161330 46.000000
0.791143 0.390717 -0.158481 49.000000
0.795840 0.390010 -0.159358 60.000000
0.792648 0.385427 -0.158262 59.000000
0.786802 0.379593 -0.156509 88.000000
0.792360 0.379289 -0.157604 151.000000
0.795281 0.377696 -0.158043 128.000000
0.795554 0.374837 -0.157824 141.000000
0.795817 0.371980 -0.157604 139.000000
0.798724 0.370360 -0.158043 141.000000
0.795427 0.365864 -0.156947 167.000000
0.798320 0.364234 -0.157385 173.000000
0.799434 0.361783 -0.157385 196.000000
0.800540 0.359329 -0.157385 210.000000
0.798075 0.355279 -0.156509 209.000000
0.797377 0.352038 -0.156070 226.000000
0.801133 0.350768 -0.156728 203.000000
0.795945 0.345580 -0.155194 244.000000
0.797897 0.343523 -0.155413 229.000000
0.796256 0.339921 -0.154755 266.000000
0.795500 0.336714 -0.154317 230.000000
0.793831 0.333135 -0.153659 210.000000
0.793049 0.329946 -0.153221 230.000000
0.789550 0.325645 -0.152125 217.000000
0.787838 0.322110 -0.151468 230.000000
0.786111 0.318588 -0.150810 265.000000
0.785275 0.315445 -0.150372 302.000000
0.785333 0.312672 -0.150153 258.000000
0.786289 0.310262 -0.150153 284.000000
0.787237 0.307848 -0.150153 249.000000
0.785450 0.304370 -0.149495 263.000000
0.787290 0.302310 -0.149715 290.000000
0.789125 0.300241 -0.149934 265.000000
0.788218 0.297128 -0.149495 260.000000
0.789126 0.294708 -0.149495 312.000000
0.788197 0.291606 -0.149057 276.000000
0.788172 0.288850 -0.148838 260.000000
0.787221 0.285762 -0.148400 288.000000
0.786259 0.282683 -0.147961 262.000000
0.787122 0.280269 -0.147961 243.000000
0.787059 0.277527 -0.147742 265.000000
0.786065 0.274465 -0.147304 269.000000
0.785060 0.271412 -0.146865 272.000000
0.785889 0.269002 -0.146865 248.000000
0.786711 0.266590 -0.146865 263.000000
0.784751 0.263240 -0.146208 295.000000
0.784629 0.260523 -0.145989 252.000000
0.784499 0.257808 -0.145770 258.000000
0.785286 0.255400 -0.145770 294.000000
0.785137 0.252690 -0.145550 275.000000
0.784980 0.249982 -0.145331 273.000000
0.783883 0.246984 -0.144893 272.000000
0.781843 0.243703 -0.144235 272.000000
0.781655 0.241014 -0.144016 261.000000
0.782391 0.238615 -0.144016 253.000000
0.779385 0.235081 -0.143140 269.000000
0.780102 0.232689 -0.143140 247.000000
0.781748 0.230572 -0.143359 244.000000
0.780579 0.227624 -0.142920 250.000000
0.784085 0.226043 -0.143578 214.000000
0.784775 0.223636 -0.143578 236.000000
0.784518 0.220961 -0.143359 271.000000
0.786132 0.218816 -0.143578 271.000000
0.787740 0.216664 -0.143797 236.000000
0.785578 0.213474 -0.143140 260.000000
0.787171 0.211317 -0.143359 242.000000
0.785930 0.208399 -0.142920 232.000000
0.784679 0.205489 -0.142482 238.000000
0.781528 0.202099 -0.141605 274.000000
0.783090 0.199943 -0.141825 299.000000
0.781808 0.197060 -0.141386 268.000000
0.783355 0.194897 -0.141605 238.000000
0.779214 0.191323 -0.140510 275.000000
0.781693 0.189393 -0.140948 288.000000
0.780373 0.186538 -0.140510 283.000000
0.782840 0.184593 -0.140948 263.000000
0.784353 0.182413 -0.141167 266.000000
0.785859 0.180226 -0.141386 259.000000
0.784506 0.177381 -0.140948 263.000000
0.787902 0.175614 -0.141605 260.000000
0.785579 0.172564 -0.140948 256.000000
0.788965 0.170776 -0.141605 271.000000
0.787577 0.167945 -0.141167 234.000000
0.787134 0.165326 -0.140948 302.000000
0.785728 0.162512 -0.140510 247.000000
0.787178 0.160297 -0.140729 227.000000
0.782884 0.156916 -0.139633 253.000000
0.783362 0.154513 -0.139633 283.000000
0.780960 0.151547 -0.138975 284.000000
0.781421 0.149150 -0.138975 293.000000
0.783792 0.147115 -0.139414 304.000000
0.782322 0.144353 -0.138975 298.000000
0.782761 0.141952 -0.138975 299.000000
0.782232 0.139377 -0.138756 301.000000
0.783617 0.137147 -0.138975 271.000000
0.782111 0.134409 -0.138537 265.000000
0.782520 0.132008 -0.138537 273.000000
0.781959 0.129446 -0.138318 309.000000
0.781390 0.126889 -0.138099 259.000000
0.781775 0.124491 -0.138099 252.000000
0.783117 0.122244 -0.138318 259.000000
0.784453 0.119990 -0.138537 286.000000
0.783853 0.117436 -0.138318 271.000000
0.785174 0.115174 -0.138537 306.000000
0.786490 0.112905 -0.138756 262.000000
0.786499 0.098164 -0.138318 260.000000
0.784859 0.095512 -0.137880 263.000000
0.784180 0.092988 -0.137660 288.000000
0.787369 0.090921 -0.138318 306.000000
0.786675 0.088395 -0.138099 266.000000
0.787202 0.083566 -0.138099 261.000000
0.786484 0.081049 -0.137880 308.000000
0.787700 0.078735 -0.138099 297.000000
0.786967 0.076222 -0.137880 237.000000
0.786226 0.073715 -0.137660 246.000000
0.785477 0.071213 -0.137441 297.000000
0.782762 0.056456 -0.136565 280.000000
0.783905 0.054123 -0.136784 272.000000
0.784067 0.051718 -0.136784 305.000000
0.784222 0.049312 -0.136784 273.000000
0.783536 0.044443 -0.136565 256.000000
0.783669 0.042039 -0.136565 286.000000
0.782820 0.039583 -0.136345 271.000000
0.782937 0.037182 -0.136345 258.000000
0.782073 0.034735 -0.136126 277.000000
0.781201 0.032293 -0.135907 306.000000
0.780629 0.020280 -0.135688 280.000000
0.781663 0.017909 -0.135907 284.000000
0.780739 0.015490 -0.135688 277.000000
0.779807 0.013076 -0.135469 303.000000
0.782771 0.010728 -0.136126 306.000000
0.783775 0.008339 -0.136345 266.000000
0.783797 0.005934 -0.136345 256.000000
0.783812 0.003529 -0.136345 258.000000
0.783819 0.001125 -0.136345 294.000000
0.785770 -0.001280 -0.136784 290.000000
0.786738 -0.003694 -0.137003 307.000000
0.786723 -0.006108 -0.137003 296.000000
0.784749 -0.008503 -0.136565 277.000000
0.783744 -0.010899 -0.136345 290.000000
0.783707 -0.013303 -0.136345 292.000000
0.783662 -0.015707 -0.136345 291.000000
0.782635 -0.018090 -0.136126 274.000000
0.782576 -0.020491 -0.136126 307.000000
0.781534 -0.022865 -0.135907 304.000000
0.783411 -0.025323 -0.136345 268.000000
0.784304 -0.027759 -0.136565 293.000000
0.783240 -0.030129 -0.136345 293.000000
0.783144 -0.032532 -0.136345 286.000000
0.783041 -0.034935 -0.136345 278.000000
0.783905 -0.037382 -0.136565 276.000000
0.782812 -0.039739 -0.136345 268.000000
0.781712 -0.042089 -0.136126 280.000000
0.780605 -0.044433 -0.135907 291.000000
0.782413 -0.046942 -0.136345 302.000000
0.782265 -0.049342 -0.136345 273.000000
0.781136 -0.051679 -0.136126 262.000000
0.780001 -0.054009 -0.135907 278.000000
0.781778 -0.056540 -0.136345 292.000000
0.782574 -0.059010 -0.136565 305.000000
0.785308 -0.061635 -0.137222 282.000000
0.784142 -0.063966 -0.137003 279.000000
0.784914 -0.066453 -0.137222 263.000000
0.785679 -0.068944 -0.137441 312.000000
0.786436 -0.071441 -0.137660 288.000000
0.786213 -0.073854 -0.137660 256.000000
0.785982 -0.076265 -0.137660 263.000000
0.784774 -0.078580 -0.137441 288.000000
0.784529 -0.080988 -0.137441 287.000000
0.783307 -0.083293 -0.137222 279.000000
0.782077 -0.085591 -0.137003 269.000000
0.779872 -0.087774 -0.136565 263.000000
0.778629 -0.090056 -0.136345 272.000000
0.778349 -0.092444 -0.136345 270.000000
0.778062 -0.094832 -0.136345 270.000000
0.777767 -0.097218 -0.136345 258.000000
0.779401 -0.099849 -0.136784 298.000000
0.776189 -0.101863 -0.136126 277.000000
0.776840 -0.104372 -0.136345 278.000000
0.776516 -0.106755 -0.136345 270.000000
0.779084 -0.109540 -0.137003 269.000000
0.780676 -0.112205 -0.137441 265.000000
0.779363 -0.114459 -0.137222 270.000000
0.783833 -0.117566 -0.138318 249.000000
0.783469 -0.119970 -0.138318 238.000000
0.785025 -0.122672 -0.138756 256.000000
0.786573 -0.125384 -0.139195 275.000000
0.785221 -0.127642 -0.138975 261.000000
0.784826 -0.130050 -0.138975 276.000000
0.785386 -0.132618 -0.139195 300.000000
0.784975 -0.135027 -0.139195 267.000000
0.785518 -0.137602 -0.139414 249.000000
0.783171 -0.139671 -0.138975 275.000000
0.780818 -0.141728 -0.138537 241.000000
0.779420 -0.143947 -0.138318 270.000000
0.780893 -0.146695 -0.138756 246.000000
0.777564 -0.148545 -0.138099 248.000000
0.778062 -0.151114 -0.138318 295.000000
0.777595 -0.153500 -0.138318 261.000000
0.779991 -0.156457 -0.138975 290.000000
0.779507 -0.158849 -0.138975 264.000000
0.779016 -0.161240 -0.138975 254.000000
0.778518 -0.163629 -0.138975 282.000000
0.782785 -0.167028 -0.140071 291.000000
0.781315 -0.169223 -0.139852 271.000000
0.782699 -0.172036 -0.140290 270.000000
0.782167 -0.174436 -0.140290 233.000000
0.781628 -0.176835 -0.140290 304.000000
0.780131 -0.179016 -0.140071 277.000000
0.778627 -0.181188 -0.139852 255.000000
0.777118 -0.183354 -0.139633 270.000000
0.777501 -0.185962 -0.139852 280.000000
0.775978 -0.188118 -0.139633 247.000000
0.774449 -0.190267 -0.139414 283.000000
0.774809 -0.192876 -0.139633 274.000000
0.777053 -0.195964 -0.140290 289.000000
0.776448 -0.198347 -0.140290 267.000000
0.775836 -0.200728 -0.140290 273.000000
0.775217 -0.203108 -0.140290 275.000000
0.775533 -0.205734 -0.140510 278.000000
0.779612 -0.209371 -0.141605 258.000000
0.779908 -0.212016 -0.141825 256.000000
0.780195 -0.214665 -0.142044 255.000000
0.777652 -0.216537 -0.141605 279.000000
0.776984 -0.218922 -0.141605 263.000000
0.780063 -0.222369 -0.142482 245.000000
0.780315 -0.225030 -0.142701 285.000000
0.780558 -0.227695 -0.142920 238.000000
0.779856 -0.230089 -0.142920 294.000000
0.782888 -0.233591 -0.143797 256.000000
0.784036 -0.236553 -0.144235 239.000000
0.786108 -0.239807 -0.144893 233.000000
0.781637 -0.241073 -0.144016 265.000000
0.779030 -0.242891 -0.143578 269.000000
0.781074 -0.246156 -0.144235 251.000000
0.779386 -0.248256 -0.144016 281.000000
0.780479 -0.251242 -0.144455 265.000000
0.781561 -0.254236 -0.144893 263.000000
0.777995 -0.255722 -0.144235 257.000000
0.779060 -0.258721 -0.144674 234.000000
0.779188 -0.261418 -0.144893 242.000000
0.776533 -0.263184 -0.144455 274.000000
0.776645 -0.265880 -0.144674 272.000000
0.773981 -0.267626 -0.144235 258.000000
0.775921 -0.270961 -0.144893 247.000000
0.776927 -0.273986 -0.145331 265.000000
0.779761 -0.277673 -0.146208 244.000000
0.780743 -0.280721 -0.146646 256.000000
0.779878 -0.283115 -0.146646 267.000000
0.780839 -0.286175 -0.147085 269.000000
0.781788 -0.289244 -0.147523 263.000000
0.780897 -0.291641 -0.147523 238.000000
0.777259 -0.293007 -0.146865 276.000000
0.776356 -0.295390 -0.146865 242.000000
0.774535 -0.297422 -0.146646 256.000000
0.772708 -0.299446 -0.146427 250.000000
0.771786 -0.301815 -0.146427 238.000000
0.771764 -0.304538 -0.146646 241.000000
0.771734 -0.307264 -0.146865 255.000000
0.774411 -0.311080 -0.147742 225.000000
0.772548 -0.313089 -0.147523 231.000000
0.773391 -0.316194 -0.147961 280.000000
0.773320 -0.318936 -0.148180 241.000000
0.773239 -0.321681 -0.148400 243.000000
0.772249 -0.324051 -0.148400 242.000000
0.774847 -0.327935 -0.149276 317.000000
0.772939 -0.329929 -0.149057 267.000000
0.771027 -0.331914 -0.148838 253.000000
0.770900 -0.334665 -0.149057 271.000000
0.771659 -0.337809 -0.149495 266.000000
0.771512 -0.340568 -0.149715 242.000000
0.770463 -0.342933 -0.149715 262.000000
0.771189 -0.346092 -0.150153 233.000000
0.771903 -0.349258 -0.150591 243.000000
0.769939 -0.351221 -0.150372 258.000000
0.768858 -0.353581 -0.150372 292.000000
0.769541 -0.356757 -0.150810 240.000000
0.771096 -0.360352 -0.151468 256.000000
0.770870 -0.363130 -0.151687 232.000000
0.772399 -0.366745 -0.152345 243.000000
0.775673 -0.371213 -0.153440 221.000000
0.775410 -0.374014 -0.153659 231.000000
0.775137 -0.376817 -0.153879 239.000000
0.774854 -0.379621 -0.154098 242.000000
0.772810 -0.381566 -0.153879 238.000000
0.772510 -0.384368 -0.154098 252.000000
0.771327 -0.386736 -0.154098 239.000000
0.771009 -0.389540 -0.154317 242.000000
0.771550 -0.392786 -0.154755 239.000000
0.772948 -0.396484 -0.155413 176.000000
0.773462 -0.399747 -0.155851 204.000000
0.775696 -0.403916 -0.156728 186.000000
0.774453 -0.406294 -0.156728 184.000000
0.775793 -0.410033 -0.157385 201.000000
0.774531 -0.412411 -0.157385 190.000000
0.778425 -0.417545 -0.158700 194.000000
0.778858 -0.420857 -0.159139 225.000000
0.778421 -0.423710 -0.159358 204.000000
0.777117 -0.426096 -0.159358 165.000000
0.775806 -0.428478 -0.159358 173.000000
0.775341 -0.431330 -0.159577 147.000000
0.775718 -0.434658 -0.160015 154.000000
0.771830 -0.435600 -0.159358 208.000000
0.768792 -0.437004 -0.158919 189.000000
0.771685 -0.441779 -0.160015 171.000000
0.775401 -0.447062 -0.161330 140.000000
0.778248 -0.451883 -0.162426 123.000000
0.784444 -0.458691 -0.164399 93.000000
0.767047 -0.451710 -0.160234 53.000000
0.739621 -0.438666 -0.153440 19.000000
0.779856 0.384127 -0.166214 42.000000
0.776659 0.379599 -0.165061 71.000000
0.786577 0.381456 -0.167368 106.000000
0.792128 0.381149 -0.168521 124.000000
0.795050 0.379554 -0.168983 155.000000
0.798850 0.378362 -0.169675 141.000000
0.796484 0.374255 -0.168752 135.000000
0.799392 0.372631 -0.169214 141.000000
0.799648 0.369769 -0.168983 159.000000
0.799010 0.366504 -0.168521 160.000000
0.799245 0.363648 -0.168291 156.000000
0.796808 0.359595 -0.167368 185.000000
0.796131 0.356354 -0.166906 210.000000
0.792773 0.351938 -0.165753 233.000000
0.792068 0.348721 -0.165291 242.000000
0.792242 0.345900 -0.165061 197.000000
0.791513 0.342696 -0.164599 220.000000
0.790772 0.339499 -0.164138 228.000000
0.789124 0.335929 -0.163445 224.000000
0.787461 0.332373 -0.162753 210.000000
0.787579 0.329580 -0.162523 250.000000
0.786789 0.326417 -0.162061 257.000000
0.786887 0.323632 -0.161830 246.000000
0.786974 0.320850 -0.161600 253.000000
0.787053 0.318069 -0.161369 253.000000
0.788025 0.315653 -0.161369 293.000000
0.787181 0.312517 -0.160907 291.000000
0.789041 0.310456 -0.161138 301.000000
0.786363 0.306622 -0.160215 271.000000
0.787300 0.304208 -0.160215 275.000000
0.786412 0.301096 -0.159754 300.000000
0.789152 0.299371 -0.160215 302.000000
0.791889 0.297633 -0.160677 328.000000
0.790062 0.294184 -0.159984 280.000000
0.791874 0.292095 -0.160215 283.000000
0.792766 0.289665 -0.160215 279.000000
0.793651 0.287231 -0.160215 306.000000
0.796361 0.285451 -0.160677 352.000000
0.790813 0.280730 -0.159062 305.000000
0.789835 0.277658 -0.158600 332.000000
0.785168 0.273317 -0.157216 278.000000
0.786923 0.271224 -0.157446 321.000000
0.784067 0.267553 -0.156524 343.000000
0.785807 0.265457 -0.156754 332.000000
0.785694 0.262737 -0.156524 305.000000
0.785573 0.260020 -0.156293 311.000000
0.787292 0.257911 -0.156524 316.000000
0.785302 0.254596 -0.155831 310.000000
0.784226 0.251592 -0.155370 349.000000
0.784067 0.248890 -0.155139 378.000000
0.783898 0.246193 -0.154908 341.000000
0.784650 0.243787 -0.154908 335.000000
0.785394 0.241378 -0.154908 346.000000
0.784269 0.238402 -0.154447 324.000000
0.784996 0.235995 -0.154447 290.000000
