ply
format ascii 1.0
element vertex 1255
property float x
property float y
property float z
property float intensity
end_header
3.745790 -0.999298 0.880139 35.000000
3.737991 -1.009513 0.879071 49.000000
3.737703 -1.021749 0.879712 38.000000
3.734551 -1.033211 0.879712 37.000000
3.729482 -1.044137 0.879285 46.000000
3.730021 -1.056638 0.880139 44.000000
3.722066 -1.066732 0.879071 42.000000
3.717837 -1.077875 0.878858 34.000000
3.720138 -1.090924 0.880139 44.000000
3.715837 -1.102054 0.879926 41.000000
3.718053 -1.115131 0.881207 35.000000
3.720225 -1.128232 0.882488 33.000000
3.717680 -1.139927 0.882702 30.000000
3.718831 -1.152772 0.883769 32.000000
3.713412 -1.163592 0.883342 20.000000
3.709825 -1.174979 0.883342 25.000000
3.713647 -1.188735 0.885051 33.000000
3.715560 -1.201926 0.886332 38.000000
3.711855 -1.213319 0.886332 9.000000
3.802000 -0.372990 0.819198 18.000000
3.838843 -0.388503 0.827060 46.000000
3.836658 -0.400177 0.826858 55.000000
3.831517 -0.411527 0.826052 55.000000
3.830237 -0.423280 0.826052 50.000000
3.826001 -0.434697 0.825447 73.000000
3.821730 -0.446092 0.824842 53.000000
3.817426 -0.457465 0.824238 48.000000
3.805311 -0.467858 0.822020 83.000000
3.808717 -0.480144 0.823028 50.000000
3.809169 -0.492078 0.823431 48.000000
3.803757 -0.503247 0.822625 45.000000
3.802195 -0.514915 0.822625 55.000000
3.803508 -0.526981 0.823230 41.000000
3.804783 -0.539060 0.823834 49.000000
3.803111 -0.550730 0.823834 50.000000
3.802373 -0.562539 0.824036 52.000000
3.797724 -0.573763 0.823431 51.000000
3.794977 -0.585262 0.823230 47.000000
3.792196 -0.596749 0.823028 55.000000
3.790348 -0.608381 0.823028 47.000000
3.785563 -0.619532 0.822423 47.000000
3.785577 -0.631465 0.822826 36.000000
3.782656 -0.642912 0.822625 34.000000
3.780666 -0.654514 0.822625 31.000000
3.780570 -0.666450 0.823028 39.000000
3.777543 -0.677873 0.822826 55.000000
3.776409 -0.689635 0.823028 34.000000
3.779091 -0.702113 0.824036 39.000000
3.779806 -0.714249 0.824641 32.000000
3.778559 -0.726027 0.824842 39.000000
3.776313 -0.737616 0.824842 30.000000
3.774993 -0.749389 0.825044 41.000000
3.775557 -0.761548 0.825649 45.000000
3.770324 -0.772538 0.825044 38.000000
3.766978 -0.783902 0.824842 43.000000
3.762638 -0.795050 0.824439 49.000000
3.760181 -0.806590 0.824439 49.000000
3.759603 -0.818539 0.824842 52.000000
3.756118 -0.829858 0.824641 46.000000
3.749731 -0.840520 0.823834 42.000000
3.747135 -0.852020 0.823834 38.000000
3.742594 -0.863072 0.823431 37.000000
3.740883 -0.874773 0.823633 34.000000
3.741040 -0.886924 0.824238 32.000000
3.743063 -0.899542 0.825245 42.000000
3.745044 -0.912181 0.826253 53.000000
3.747933 -0.925075 0.827463 55.000000
3.746978 -0.937045 0.827866 40.000000
3.747884 -0.949498 0.828673 42.000000
3.744953 -0.960992 0.828673 46.000000
3.739143 -0.971738 0.828068 53.000000
3.732355 -0.982207 0.827261 40.000000
3.730271 -0.993905 0.827463 46.000000
3.729095 -1.005856 0.827866 46.000000
3.727882 -1.017808 0.828269 47.000000
3.726630 -1.029762 0.828673 27.000000
3.725339 -1.041718 0.829076 45.000000
3.728723 -1.055009 0.830487 31.000000
3.732060 -1.068331 0.831898 36.000000
3.725943 -1.078959 0.831293 26.000000
3.724495 -1.090935 0.831696 48.000000
3.723948 -1.103192 0.832301 35.000000
3.720545 -1.114612 0.832301 44.000000
3.716171 -1.125737 0.832100 53.000000
3.714573 -1.137706 0.832503 25.000000
3.710129 -1.148807 0.832301 41.000000
3.712196 -1.161940 0.833511 37.000000
3.709547 -1.173619 0.833712 47.000000
3.717124 -1.188575 0.836131 29.000000
3.714392 -1.200275 0.836333 32.000000
3.709761 -1.211361 0.836131 16.000000
3.791876 -0.373222 0.772369 17.000000
3.806340 -0.386435 0.775417 30.000000
3.810996 -0.398722 0.776560 32.000000
3.811707 -0.410622 0.776941 44.000000
3.812380 -0.422529 0.777321 32.000000
3.813017 -0.434445 0.777702 51.000000
3.810691 -0.446028 0.777512 47.000000
3.806381 -0.457366 0.776941 52.000000
3.803985 -0.468922 0.776750 51.000000
3.799607 -0.480222 0.776179 55.000000
3.799089 -0.492002 0.776369 45.000000
3.794642 -0.503269 0.775798 54.000000
3.792108 -0.514777 0.775607 45.000000
3.791483 -0.526543 0.775798 27.000000
3.791794 -0.538448 0.776179 29.000000
3.788181 -0.549797 0.775798 35.000000
3.789389 -0.561848 0.776369 44.000000
3.786677 -0.573324 0.776179 49.000000
3.787811 -0.585388 0.776750 39.000000
3.787937 -0.597311 0.777131 32.000000
3.780271 -0.607996 0.775988 47.000000
3.782263 -0.620225 0.776750 40.000000
3.785184 -0.632634 0.777702 45.000000
3.780322 -0.643750 0.777131 46.000000
3.777362 -0.655177 0.776941 50.000000
3.773400 -0.666422 0.776560 48.000000
3.770371 -0.677822 0.776369 47.000000
3.771172 -0.689916 0.776941 50.000000
3.769037 -0.701482 0.776941 27.000000
3.764938 -0.712677 0.776560 32.000000
3.767554 -0.725151 0.777512 49.000000
3.768202 -0.737271 0.778083 34.000000
3.762071 -0.748063 0.777321 40.000000
3.760720 -0.759796 0.777512 51.000000
3.757410 -0.771133 0.777321 61.000000
3.758871 -0.783457 0.778083 52.000000
3.760292 -0.795797 0.778845 25.000000
3.755913 -0.806918 0.778464 44.000000
3.757256 -0.819273 0.779226 54.000000
3.755683 -0.831008 0.779417 46.000000
3.752159 -0.842311 0.779226 33.000000
3.747642 -0.853383 0.778845 50.000000
3.744050 -0.864656 0.778655 41.000000
3.738512 -0.875468 0.778083 44.000000
3.735808 -0.886934 0.778083 31.000000
3.734024 -0.898620 0.778274 30.000000
3.733157 -0.910537 0.778655 45.000000
3.732252 -0.922456 0.779036 46.000000
3.733214 -0.934855 0.779798 49.000000
3.733184 -0.947027 0.780369 42.000000
3.733113 -0.959208 0.780940 51.000000
3.733003 -0.971397 0.781512 35.000000
3.727157 -0.982096 0.780940 41.000000
3.724127 -0.993526 0.780940 48.000000
3.722009 -1.005202 0.781131 49.000000
3.718907 -1.016617 0.781131 44.000000
3.714825 -1.027760 0.780940 36.000000
3.711654 -1.039152 0.780940 45.000000
3.707504 -1.050267 0.780750 44.000000
3.706152 -1.062177 0.781131 52.000000
3.700047 -1.072723 0.780559 53.000000
3.700507 -1.085173 0.781321 38.000000
3.696219 -1.096242 0.781131 39.000000
3.700361 -1.109831 0.782655 37.000000
3.696939 -1.121178 0.782655 35.000000
3.696298 -1.133377 0.783226 34.000000
3.692803 -1.144712 0.783226 24.000000
3.693959 -1.157503 0.784178 34.000000
3.692262 -1.169422 0.784559 42.000000
3.691462 -1.181641 0.785131 26.000000
3.684083 -1.191754 0.784369 33.000000
3.683209 -1.203965 0.784940 30.000000
3.682294 -1.216182 0.785512 6.000000
3.842689 -0.376986 0.734303 11.000000
3.810189 -0.385600 0.728586 38.000000
3.807031 -0.397084 0.728229 48.000000
3.805795 -0.408762 0.728229 22.000000
3.798656 -0.419787 0.727157 27.000000
3.803216 -0.432106 0.728229 46.000000
3.802849 -0.443886 0.728408 48.000000
3.803423 -0.455785 0.728765 38.000000
3.803960 -0.467692 0.729122 41.000000
3.805436 -0.479730 0.729658 51.000000
3.804922 -0.491529 0.729837 44.000000
3.800470 -0.502812 0.729301 38.000000
3.793059 -0.513677 0.728229 44.000000
3.790491 -0.525176 0.728051 52.000000
3.789836 -0.536941 0.728229 45.000000
3.785250 -0.548142 0.727693 40.000000
3.781603 -0.559464 0.727336 52.000000
3.781815 -0.571358 0.727693 38.000000
3.782962 -0.583407 0.728229 47.000000
3.784070 -0.595470 0.728765 38.000000
3.781254 -0.606920 0.728586 49.000000
3.774519 -0.617723 0.727693 30.000000
3.777458 -0.630110 0.728586 41.000000
3.775508 -0.641696 0.728586 43.000000
3.771582 -0.652941 0.728229 29.000000
3.766654 -0.663996 0.727693 29.000000
3.766536 -0.675896 0.728051 41.000000
3.763477 -0.687272 0.727872 48.000000
3.761351 -0.698815 0.727872 48.000000
3.761123 -0.710717 0.728229 43.000000
3.756992 -0.721881 0.727872 46.000000
3.754760 -0.733404 0.727872 32.000000
3.754422 -0.745303 0.728229 29.000000
3.751153 -0.756623 0.728051 49.000000
3.752670 -0.768919 0.728765 37.000000
3.752220 -0.780829 0.729122 40.000000
3.750769 -0.792541 0.729301 39.000000
3.748320 -0.804044 0.729301 48.000000
3.743913 -0.815121 0.728944 29.000000
3.743316 -0.827028 0.729301 34.000000
3.736921 -0.837647 0.728586 33.000000
3.732414 -0.848672 0.728229 43.000000
3.728835 -0.859897 0.728051 42.000000
3.724263 -0.870885 0.727693 34.000000
3.726360 -0.883442 0.728586 42.000000
3.730329 -0.896480 0.729837 42.000000
3.728517 -0.908154 0.730015 36.000000
3.729534 -0.920532 0.730730 35.000000
3.727647 -0.932208 0.730909 49.000000
3.724769 -0.943640 0.730909 35.000000
3.721857 -0.955063 0.730909 40.000000
3.717005 -0.965982 0.730551 34.000000
3.709266 -0.976129 0.729658 31.000000
3.710057 -0.988518 0.730373 34.000000
3.709857 -1.000664 0.730909 45.000000
3.709617 -1.012819 0.731445 34.000000
3.712182 -1.025768 0.732516 48.000000
3.713755 -1.038477 0.733409 39.000000
3.711498 -1.050134 0.733588 36.000000
3.714880 -1.063412 0.734838 45.000000
3.710655 -1.074530 0.734660 45.000000
3.710174 -1.086739 0.735196 33.000000
3.704936 -1.097558 0.734838 40.000000
3.706264 -1.110331 0.735732 45.000000
3.699073 -1.120555 0.735017 31.000000
3.690914 -1.130458 0.734124 23.000000
3.689308 -1.142358 0.734481 46.000000
3.682969 -1.152789 0.733945 34.000000
3.677539 -1.163489 0.733588 27.000000
3.675827 -1.175366 0.733945 25.000000
3.668458 -1.185427 0.733231 32.000000
3.669481 -1.198204 0.734124 26.000000
3.633085 -1.198663 0.727872 11.000000
3.837752 -0.377723 0.686447 8.000000
3.808127 -0.386616 0.681606 28.000000
3.801039 -0.397683 0.680604 42.000000
3.804703 -0.409869 0.681439 24.000000
3.796568 -0.420782 0.680270 36.000000
3.787422 -0.431537 0.678935 48.000000
3.787059 -0.443269 0.679102 45.000000
3.790576 -0.455472 0.679936 32.000000
3.781332 -0.466137 0.678601 32.000000
3.782819 -0.478105 0.679102 41.000000
3.782312 -0.489835 0.679268 27.000000
3.778836 -0.501178 0.678935 34.000000
3.780212 -0.513166 0.679435 43.000000
3.775690 -0.524355 0.678935 45.000000
3.771135 -0.535521 0.678434 43.000000
3.771426 -0.547371 0.678768 40.000000
3.767778 -0.558650 0.678434 35.000000
3.767022 -0.570354 0.678601 51.000000
3.764280 -0.581758 0.678434 49.000000
3.760529 -0.592998 0.678100 41.000000
3.759666 -0.604688 0.678267 34.000000
3.755847 -0.615902 0.677933 52.000000
3.755884 -0.627746 0.678267 37.000000
3.756857 -0.639762 0.678768 43.000000
3.756820 -0.651621 0.679102 25.000000
3.750919 -0.662459 0.678434 59.000000
3.752751 -0.674660 0.679102 38.000000
3.749693 -0.685993 0.678935 47.000000
3.747571 -0.697494 0.678935 33.000000
3.747351 -0.709354 0.679268 35.000000
3.741284 -0.720103 0.678601 41.000000
3.740993 -0.731956 0.678935 39.000000
3.740664 -0.743814 0.679268 20.000000
3.733532 -0.754311 0.678434 43.000000
3.728302 -0.765168 0.677933 32.000000
3.720145 -0.775398 0.676931 47.000000
3.719678 -0.787215 0.677265 46.000000
3.718210 -0.798830 0.677432 34.000000
3.713815 -0.809814 0.677098 39.000000
3.712276 -0.821417 0.677265 32.000000
3.709738 -0.832802 0.677265 42.000000
3.711011 -0.845054 0.677933 45.000000
3.711283 -0.857100 0.678434 42.000000
3.708636 -0.868482 0.678434 36.000000
3.711711 -0.881220 0.679435 40.000000
3.711866 -0.893295 0.679936 44.000000
3.711982 -0.905379 0.680437 29.000000
3.710144 -0.916999 0.680604 46.000000
3.706356 -0.928138 0.680437 39.000000
3.704447 -0.939746 0.680604 41.000000
3.700592 -0.950862 0.680437 31.000000
3.695748 -0.961715 0.680103 37.000000
3.691827 -0.972798 0.679936 37.000000
3.694541 -0.985643 0.680938 39.000000
3.693404 -0.997486 0.681272 50.000000
3.694131 -1.009852 0.681940 42.000000
3.690065 -1.020918 0.681773 44.000000
3.686916 -1.032234 0.681773 43.000000
3.687526 -1.044614 0.682440 38.000000
3.689991 -1.057551 0.683442 34.000000
3.686729 -1.068866 0.683442 38.000000
3.685325 -1.080726 0.683776 25.000000
3.687665 -1.093708 0.684778 40.000000
3.688070 -1.106148 0.685445 40.000000
3.685602 -1.117744 0.685612 34.000000
3.684042 -1.129623 0.685946 30.000000
3.677733 -1.140045 0.685445 28.000000
3.674218 -1.151323 0.685445 27.000000
3.670668 -1.162590 0.685445 32.000000
3.660511 -1.171744 0.684277 23.000000
3.650331 -1.180847 0.683108 21.000000
3.662624 -1.197243 0.685946 35.000000
3.616800 -1.194572 0.678434 17.000000
3.859229 -0.379288 0.641647 6.000000
3.795143 -0.384742 0.631734 20.000000
3.785101 -0.395459 0.630341 35.000000
3.785835 -0.407281 0.630650 42.000000
3.784567 -0.418894 0.630650 33.000000
3.783264 -0.430503 0.630650 44.000000
3.780944 -0.441993 0.630495 34.000000
3.779571 -0.453591 0.630495 50.000000
3.777181 -0.465063 0.630341 38.000000
3.777696 -0.476897 0.630650 32.000000
3.777195 -0.488612 0.630805 41.000000
3.773720 -0.499938 0.630495 53.000000
3.773147 -0.511646 0.630650 42.000000
3.773517 -0.523491 0.630960 46.000000
3.769937 -0.534788 0.630650 38.000000
3.768278 -0.546351 0.630650 41.000000
3.769516 -0.558344 0.631115 28.000000
3.767785 -0.569906 0.631115 54.000000
3.769925 -0.582066 0.631734 35.000000
3.767145 -0.593476 0.631580 36.000000
3.762381 -0.604560 0.631115 31.000000
3.759533 -0.615940 0.630960 40.000000
3.755677 -0.627146 0.630650 36.000000
3.749840 -0.638002 0.630031 41.000000
3.745918 -0.649166 0.629721 35.000000
3.742936 -0.660483 0.629566 33.000000
3.739919 -0.671788 0.629411 45.000000
3.739784 -0.683615 0.629721 39.000000
3.741554 -0.695808 0.630341 30.000000
3.743285 -0.708018 0.630960 22.000000
3.739155 -0.719126 0.630650 29.000000
3.736931 -0.730594 0.630650 41.000000
3.735641 -0.742248 0.630805 30.000000
3.738188 -0.754683 0.631580 34.000000
3.734887 -0.765950 0.631425 34.000000
3.728651 -0.776598 0.630805 42.000000
3.725285 -0.787829 0.630650 33.000000
3.722850 -0.799255 0.630650 32.000000
3.717484 -0.810041 0.630186 36.000000
3.713053 -0.821016 0.629876 46.000000
3.707625 -0.831754 0.629411 37.000000
3.708908 -0.844002 0.630031 27.000000
3.706302 -0.855377 0.630031 41.000000
3.705584 -0.867194 0.630341 46.000000
3.704829 -0.879015 0.630650 40.000000
3.704996 -0.891071 0.631115 38.000000
3.705124 -0.903136 0.631580 31.000000
3.700418 -0.914024 0.631270 37.000000
3.696638 -0.925133 0.631115 33.000000
3.697612 -0.937441 0.631734 49.000000
3.696633 -0.949273 0.632044 27.000000
3.694659 -0.960858 0.632199 32.000000
3.690738 -0.971937 0.632044 47.000000
3.692512 -0.984528 0.632819 38.000000
3.690428 -0.996110 0.632974 39.000000
3.687355 -1.007427 0.632974 35.000000
3.682342 -1.018208 0.632664 31.000000
3.676347 -1.028702 0.632199 23.000000
3.676025 -1.040783 0.632664 23.000000
3.677563 -1.053417 0.633438 33.000000
3.677161 -1.065520 0.633903 26.000000
3.681458 -1.079020 0.635142 29.000000
3.680973 -1.091152 0.635607 35.000000
3.681393 -1.103575 0.636226 35.000000
3.680826 -1.115724 0.636691 38.000000
3.672663 -1.125564 0.635916 40.000000
3.666362 -1.135949 0.635452 43.000000
3.660974 -1.146601 0.635142 41.000000
3.651788 -1.156038 0.634213 30.000000
3.651988 -1.168440 0.634832 32.000000
3.658726 -1.182983 0.636536 26.000000
3.661652 -1.196351 0.637620 37.000000
3.664531 -1.209748 0.638704 46.000000
3.664551 -1.222235 0.639324 36.000000
3.665465 -1.235050 0.640098 35.000000
3.661659 -1.246289 0.640098 14.000000
3.779737 -0.347966 0.582227 12.000000
3.771754 -0.358906 0.581226 24.000000
3.770635 -0.370476 0.581226 33.000000
3.765542 -0.381644 0.580654 25.000000
3.763369 -0.393092 0.580511 47.000000
3.764114 -0.404847 0.580797 46.000000
3.765805 -0.416719 0.581226 40.000000
3.765492 -0.428382 0.581369 46.000000
3.761211 -0.439589 0.580940 34.000000
3.762793 -0.451479 0.581369 37.000000
3.763355 -0.463262 0.581655 42.000000
3.763880 -0.475053 0.581941 37.000000
3.764368 -0.486851 0.582227 40.000000
3.757950 -0.497750 0.581512 45.000000
3.751502 -0.508613 0.580797 41.000000
3.750904 -0.520256 0.580940 48.000000
3.742430 -0.530790 0.579939 32.000000
3.744703 -0.542836 0.580511 41.000000
3.744978 -0.554612 0.580797 41.000000
3.741301 -0.565803 0.580511 52.000000
3.748352 -0.578635 0.581798 32.000000
3.750470 -0.590747 0.582370 33.000000
3.747662 -0.602094 0.582227 38.000000
3.751658 -0.614547 0.583085 33.000000
3.743897 -0.625077 0.582227 38.000000
3.743913 -0.636892 0.582513 31.000000
3.736090 -0.647363 0.581655 40.000000
3.736036 -0.659166 0.581941 35.000000
3.732048 -0.670275 0.581655 36.000000
3.725106 -0.680833 0.580940 38.000000
3.723000 -0.692259 0.580940 45.000000
3.721831 -0.703861 0.581083 44.000000
3.722570 -0.715836 0.581512 46.000000
3.724241 -0.728012 0.582084 40.000000
3.721020 -0.739241 0.581941 41.000000
3.721645 -0.751240 0.582370 36.000000
3.722232 -0.763250 0.582799 42.000000
3.716965 -0.774062 0.582370 34.000000
3.712636 -0.785053 0.582084 48.000000
3.710210 -0.796439 0.582084 31.000000
3.703881 -0.806977 0.581512 42.000000
3.703321 -0.818763 0.581798 38.000000
3.695962 -0.829039 0.581083 48.000000
3.694367 -0.840594 0.581226 49.000000
3.694664 -0.852591 0.581655 34.000000
3.692031 -0.863922 0.581655 37.000000
3.687437 -0.874788 0.581369 42.000000
3.685698 -0.886328 0.581512 35.000000
3.682000 -0.897398 0.581369 39.000000
3.682112 -0.909401 0.581798 43.000000
3.681225 -0.921173 0.582084 36.000000
3.682220 -0.933434 0.582656 42.000000
3.683173 -0.945710 0.583228 51.000000
3.682170 -0.957503 0.583514 29.000000
3.683044 -0.969802 0.584086 25.000000
3.681008 -0.981351 0.584229 46.000000
3.681802 -0.993670 0.584801 38.000000
3.678736 -1.004961 0.584801 39.000000
3.676590 -1.016506 0.584944 51.000000
3.674407 -1.028047 0.585087 33.000000
3.675998 -1.040662 0.585801 38.000000
3.672788 -1.051935 0.585801 52.000000
3.668592 -1.062923 0.585658 37.000000
3.663414 -1.073617 0.585373 43.000000
3.659155 -1.084570 0.585230 46.000000
3.659602 -1.096926 0.585801 36.000000
3.657167 -1.108436 0.585944 25.000000
3.650910 -1.118781 0.585515 20.000000
3.649352 -1.130562 0.585801 35.000000
3.646810 -1.142048 0.585944 37.000000
3.646120 -1.154126 0.586373 31.000000
3.644448 -1.165910 0.586659 43.000000
3.646505 -1.178910 0.587517 24.000000
3.651339 -1.192855 0.588804 29.000000
3.650482 -1.204982 0.589233 37.000000
3.653341 -1.218366 0.590234 43.000000
3.657090 -1.232094 0.591377 34.000000
3.685153 -1.254140 0.596239 5.000000
3.793939 -0.349374 0.537716 10.000000
3.769163 -0.358755 0.534571 27.000000
3.768045 -0.370317 0.534571 24.000000
3.765904 -0.381775 0.534440 54.000000
3.769646 -0.393843 0.535095 40.000000
3.773348 -0.405937 0.535750 57.000000
3.773070 -0.417620 0.535881 24.000000
3.769801 -0.428970 0.535619 48.000000
3.766498 -0.440303 0.535357 46.000000
3.762176 -0.451502 0.534964 45.000000
3.763726 -0.463405 0.535357 33.000000
3.757368 -0.474329 0.534702 45.000000
3.756878 -0.485981 0.534833 45.000000
3.752421 -0.497114 0.534440 38.000000
3.748914 -0.508357 0.534178 44.000000
3.747336 -0.519856 0.534178 26.000000
3.742779 -0.530933 0.533784 45.000000
3.743095 -0.542698 0.534047 42.000000
3.738471 -0.553743 0.533653 41.000000
3.736754 -0.565209 0.533653 36.000000
3.738922 -0.577276 0.534178 46.000000
3.737133 -0.588745 0.534178 47.000000
3.741182 -0.601151 0.534964 34.000000
3.738342 -0.612466 0.534833 40.000000
3.734489 -0.623605 0.534571 39.000000
3.737445 -0.635892 0.535226 40.000000
3.732547 -0.646847 0.534833 39.000000
3.730544 -0.658295 0.534833 38.000000
3.727531 -0.669562 0.534702 30.000000
3.721559 -0.680281 0.534178 46.000000
3.719454 -0.691696 0.534178 46.000000
3.719263 -0.703472 0.534440 35.000000
3.718060 -0.715067 0.534571 48.000000
3.718768 -0.727041 0.534964 28.000000
3.714575 -0.738060 0.534702 41.000000
3.715209 -0.750042 0.535095 33.000000
3.711919 -0.761237 0.534964 28.000000
3.709566 -0.772621 0.534964 37.000000
3.705239 -0.783588 0.534702 33.000000
3.704756 -0.795368 0.534964 43.000000
3.702298 -0.806731 0.534964 29.000000
3.702710 -0.818728 0.535357 41.000000
3.701148 -0.830301 0.535488 34.000000
3.698583 -0.841652 0.535488 28.000000
3.696949 -0.853218 0.535619 33.000000
3.699141 -0.865686 0.536274 48.000000
3.698396 -0.877489 0.536536 48.000000
3.695687 -0.888831 0.536536 32.000000
3.692943 -0.900165 0.536536 30.000000
3.690164 -0.911490 0.536536 27.000000
3.691197 -0.923771 0.537061 39.000000
3.688345 -0.935091 0.537061 32.000000
3.681618 -0.945415 0.536536 43.000000
3.678700 -0.956706 0.536536 30.000000
3.670955 -0.966725 0.535881 40.000000
3.673719 -0.979515 0.536667 53.000000
3.671654 -0.991040 0.536798 40.000000
3.668596 -1.002300 0.536798 34.000000
3.666459 -1.013815 0.536929 38.000000
3.670014 -1.026929 0.537847 37.000000
3.670661 -1.039264 0.538371 35.000000
3.673174 -1.052159 0.539157 44.000000
3.666120 -1.062320 0.538633 40.000000
3.660941 -1.073004 0.538371 25.000000
3.660483 -1.085076 0.538764 31.000000
3.659036 -1.096871 0.539026 36.000000
3.652808 -1.107229 0.538633 30.000000
3.649394 -1.118430 0.538633 55.000000
3.653521 -1.131969 0.539681 30.000000
3.650031 -1.143172 0.539681 45.000000
3.651232 -1.155861 0.540337 47.000000
3.647669 -1.167058 0.540337 31.000000
3.646901 -1.179159 0.540730 45.000000
3.647035 -1.191574 0.541254 31.000000
3.642421 -1.202446 0.541123 25.000000
3.642476 -1.214870 0.541647 12.000000
3.767930 -0.369550 0.487757 5.000000
3.761839 -0.380610 0.487162 24.000000
3.762630 -0.392354 0.487400 42.000000
3.764369 -0.404213 0.487757 51.000000
3.760151 -0.415434 0.487400 45.000000
3.758859 -0.426968 0.487400 36.000000
3.761476 -0.438957 0.487876 49.000000
3.757154 -0.450142 0.487519 45.000000
3.754770 -0.461545 0.487400 49.000000
3.747425 -0.472320 0.486687 39.000000
3.740050 -0.483053 0.485973 50.000000
3.738550 -0.494525 0.485973 47.000000
3.735048 -0.505727 0.485735 45.000000
3.732495 -0.517047 0.485616 38.000000
3.731874 -0.528635 0.485735 47.000000
3.729252 -0.539940 0.485616 32.000000
3.727578 -0.551378 0.485616 50.000000
3.726851 -0.562960 0.485735 53.000000
3.727069 -0.574693 0.485973 44.000000
3.723326 -0.585817 0.485735 49.000000
3.727394 -0.598179 0.486449 44.000000
3.727501 -0.609932 0.486687 48.000000
3.726592 -0.621528 0.486806 40.000000
3.720752 -0.632294 0.486330 51.000000
3.715859 -0.643199 0.485973 42.000000
3.711913 -0.654252 0.485735 35.000000
3.703047 -0.664411 0.484903 50.000000
3.702944 -0.676125 0.485141 42.000000
3.701829 -0.687663 0.485260 50.000000
3.701653 -0.699385 0.485497 54.000000
3.707291 -0.712235 0.486449 55.000000
3.706063 -0.723795 0.486568 42.000000
3.704799 -0.735355 0.486687 51.000000
3.709339 -0.748090 0.487519 52.000000
3.702163 -0.758471 0.486925 41.000000
3.697874 -0.769422 0.486687 55.000000
3.695496 -0.780763 0.486687 50.000000
3.691142 -0.791681 0.486449 40.000000
3.685785 -0.802369 0.486092 48.000000
3.685245 -0.814101 0.486330 52.000000
3.682730 -0.825403 0.486330 41.000000
3.683085 -0.837357 0.486687 42.000000
3.683401 -0.849321 0.487043 48.000000
3.683679 -0.861295 0.487400 47.000000
3.685850 -0.873736 0.487995 31.000000
3.683152 -0.885040 0.487995 49.000000
3.677525 -0.895631 0.487638 42.000000
3.674760 -0.906910 0.487638 34.000000
3.672924 -0.918420 0.487757 40.000000
3.672977 -0.930415 0.488114 40.000000
3.669143 -0.941432 0.487995 54.000000
3.667199 -0.952934 0.488114 38.000000
3.667139 -0.964938 0.488471 41.000000
3.667040 -0.976950 0.488827 45.000000
3.665943 -0.988712 0.489065 42.000000
3.661934 -0.999693 0.488946 57.000000
3.657893 -1.010659 0.488827 54.000000
3.658600 -1.022944 0.489303 55.000000
3.657356 -1.034704 0.489541 56.000000
3.655119 -1.046193 0.489660 50.000000
3.652846 -1.057677 0.489779 51.000000
3.650536 -1.069158 0.489898 42.000000
3.648191 -1.080634 0.490017 45.000000
3.648664 -1.092960 0.490492 50.000000
3.646244 -1.104437 0.490611 43.000000
3.643788 -1.115908 0.490730 29.000000
3.641295 -1.127375 0.490849 46.000000
3.638767 -1.138838 0.490968 33.000000
3.636203 -1.150295 0.491087 44.000000
3.636440 -1.162654 0.491563 42.000000
3.632856 -1.173805 0.491563 43.000000
3.630182 -1.185253 0.491681 35.000000
3.625585 -1.196073 0.491563 24.000000
3.627551 -1.209073 0.492276 44.000000
3.506188 -1.180627 0.477411 9.000000
3.751244 -0.379629 0.439420 10.000000
3.752039 -0.391342 0.439633 38.000000
3.752798 -0.403064 0.439847 35.000000
3.746602 -0.414029 0.439313 33.000000
3.748278 -0.425858 0.439633 29.000000
3.744979 -0.437125 0.439420 52.000000
3.745595 -0.448849 0.439633 41.000000
3.739265 -0.459731 0.439099 45.000000
3.731919 -0.470454 0.438459 32.000000
3.724541 -0.481137 0.437818 46.000000
3.723048 -0.492561 0.437818 49.000000
3.721519 -0.503981 0.437818 50.000000
3.717001 -0.514987 0.437498 37.000000
3.711466 -0.525829 0.437070 45.000000
3.710819 -0.537356 0.437177 45.000000
3.710136 -0.548884 0.437284 42.000000
3.707452 -0.560115 0.437177 59.000000
3.705716 -0.571487 0.437177 37.000000
3.703945 -0.582853 0.437177 40.000000
3.705085 -0.594687 0.437498 48.000000
3.708149 -0.606854 0.438031 44.000000
3.707250 -0.618392 0.438138 51.000000
3.707296 -0.630096 0.438352 52.000000
3.706326 -0.641637 0.438459 44.000000
3.706298 -0.653350 0.438672 30.000000
3.705254 -0.664893 0.438779 42.000000
3.701241 -0.675900 0.438565 41.000000
3.704038 -0.688161 0.439099 44.000000
3.701909 -0.699521 0.439099 41.000000
3.697793 -0.710500 0.438886 38.000000
3.696571 -0.722032 0.438993 48.000000
3.692388 -0.732982 0.438779 39.000000
3.691097 -0.744503 0.438886 39.000000
3.687821 -0.755624 0.438779 30.000000
3.683539 -0.766530 0.438565 40.000000
3.682142 -0.778033 0.438672 47.000000
3.680711 -0.789534 0.438779 41.000000
3.681185 -0.801458 0.439099 48.000000
3.680651 -0.813177 0.439313 53.000000
3.679109 -0.824683 0.439420 47.000000
3.676562 -0.835966 0.439420 37.000000
3.673980 -0.847242 0.439420 50.000000
3.667490 -0.857603 0.438993 47.000000
3.667744 -0.869539 0.439313 44.000000
3.665060 -0.880788 0.439313 46.000000
3.665238 -0.892734 0.439633 43.000000
3.666343 -0.904928 0.440060 40.000000
3.670301 -0.917861 0.440808 62.000000
3.673251 -0.930583 0.441449 37.000000
3.674231 -0.942837 0.441876 39.000000
3.669397 -0.953604 0.441662 39.000000
3.668377 -0.965364 0.441876 51.000000
3.666358 -0.976870 0.441983 40.000000
3.663344 -0.988113 0.441983 49.000000
3.657418 -0.998562 0.441662 41.000000
3.654337 -1.009778 0.441662 35.000000
3.653137 -1.021520 0.441876 35.000000
3.652856 -1.033535 0.442196 34.000000
3.649668 -1.044737 0.442196 35.000000
3.642626 -1.054823 0.441769 46.000000
3.641281 -1.066552 0.441983 43.000000
3.638945 -1.078001 0.442089 41.000000
3.636573 -1.089446 0.442196 46.000000
3.634165 -1.100886 0.442303 56.000000
3.638375 -1.114360 0.443157 29.000000
3.637789 -1.126400 0.443478 34.000000
3.632418 -1.136961 0.443264 43.000000
3.628913 -1.148100 0.443264 45.000000
3.629161 -1.160439 0.443691 49.000000
3.627477 -1.172180 0.443905 30.000000
3.624809 -1.183612 0.444011 37.000000
3.623992 -1.195662 0.444332 30.000000
3.620307 -1.206774 0.444332 31.000000
3.626953 -1.221367 0.445506 16.000000
3.711076 -0.376141 0.390558 14.000000
3.724757 -0.389071 0.391983 32.000000
3.728495 -0.401028 0.392457 38.000000
3.724278 -0.412137 0.392172 45.000000
3.721018 -0.423337 0.391983 37.000000
3.722668 -0.435096 0.392267 38.000000
3.725270 -0.446988 0.392647 56.000000
3.723881 -0.458415 0.392647 47.000000
3.724432 -0.470086 0.392837 57.000000
3.721985 -0.481383 0.392742 47.000000
3.719504 -0.492669 0.392647 39.000000
3.721920 -0.504612 0.393027 35.000000
3.714439 -0.515210 0.392457 45.000000
3.707912 -0.525906 0.391983 69.000000
3.707266 -0.537421 0.392078 49.000000
3.702646 -0.548356 0.391793 50.000000
3.699962 -0.559564 0.391698 67.000000
3.698228 -0.570913 0.391698 41.000000
3.697442 -0.582411 0.391793 40.000000
3.697604 -0.594067 0.391983 51.000000
3.691834 -0.604766 0.391603 44.000000
3.687997 -0.615762 0.391413 52.000000
3.685109 -0.626907 0.391318 52.000000
3.684150 -0.638380 0.391413 42.000000
3.689037 -0.650888 0.392078 57.000000
3.688982 -0.662554 0.392267 37.000000
3.689870 -0.674405 0.392552 53.000000
3.691699 -0.686449 0.392932 50.000000
3.688597 -0.697587 0.392837 51.000000
3.684484 -0.708524 0.392647 46.000000
3.675454 -0.718490 0.391983 45.000000
3.669326 -0.728988 0.391603 45.000000
3.667073 -0.740242 0.391603 61.000000
3.666735 -0.751888 0.391793 41.000000
3.666360 -0.763540 0.391983 54.000000
3.671793 -0.776429 0.392742 51.000000
3.672313 -0.788317 0.393027 57.000000
3.676687 -0.801061 0.393692 50.000000
3.677128 -0.812981 0.393977 46.000000
3.675588 -0.824476 0.394072 60.000000
3.674982 -0.836189 0.394262 58.000000
3.670460 -0.847013 0.394072 33.000000
3.663966 -0.857364 0.393692 39.000000
3.661319 -0.868601 0.393692 49.000000
3.658637 -0.879829 0.393692 39.000000
3.658822 -0.891756 0.393977 54.000000
3.655102 -0.902739 0.393882 48.000000
3.652315 -0.913948 0.393882 45.000000
3.653354 -0.926126 0.394262 55.000000
3.647603 -0.936588 0.393977 40.000000
3.641822 -0.947024 0.393692 58.000000
3.643713 -0.959458 0.394167 67.000000
3.641714 -0.970889 0.394262 47.000000
3.638719 -0.982057 0.394262 60.000000
3.637609 -0.993740 0.394452 35.000000
3.626867 -1.002775 0.393692 58.000000
3.626650 -1.014701 0.393977 45.000000
3.614898 -1.023385 0.393122 70.000000
3.614613 -1.035292 0.393407 67.000000
3.613332 -1.046930 0.393597 57.000000
3.613925 -1.059129 0.393977 59.000000
3.613522 -1.071059 0.394262 56.000000
3.612126 -1.082712 0.394452 57.000000
3.612599 -1.094942 0.394832 54.000000
3.613030 -1.107186 0.395212 49.000000
3.614371 -1.119737 0.395687 48.000000
3.617569 -1.132901 0.396351 47.000000
3.617873 -1.145194 0.396731 46.000000
3.613394 -1.155985 0.396636 45.000000
3.615515 -1.168901 0.397206 39.000000
3.613804 -1.180606 0.397396 36.000000
3.612056 -1.192311 0.397586 22.000000
3.614048 -1.205275 0.398156 52.000000
3.609390 -1.216039 0.398061 31.000000
3.729009 -0.388938 0.345092 39.000000
3.723834 -0.399950 0.344763 24.000000
3.728533 -0.412030 0.345257 33.000000
3.722301 -0.422904 0.344845 40.000000
3.723955 -0.434669 0.345092 31.000000
3.721614 -0.445973 0.345010 40.000000
3.715283 -0.456780 0.344598 47.000000
3.711887 -0.467927 0.344433 34.000000
3.710434 -0.479313 0.344433 44.000000
3.707958 -0.490563 0.344350 40.000000
3.709398 -0.502338 0.344598 49.000000
3.711788 -0.514264 0.344927 37.000000
3.708219 -0.525369 0.344763 37.000000
3.710535 -0.537315 0.345092 36.000000
3.712813 -0.549280 0.345422 27.000000
3.704212 -0.559625 0.344845 39.000000
3.704448 -0.571291 0.345010 44.000000
3.704647 -0.582964 0.345175 34.000000
3.698905 -0.593694 0.344845 33.000000
3.694115 -0.604556 0.344598 42.000000
3.687328 -0.615067 0.344185 44.000000
3.686407 -0.626543 0.344268 41.000000
3.682503 -0.637510 0.344103 43.000000
3.680530 -0.648805 0.344103 55.000000
3.677541 -0.659917 0.344020 41.000000
3.673538 -0.670838 0.343856 35.000000
3.670483 -0.681923 0.343773 31.000000
3.669353 -0.693366 0.343856 39.000000
3.663294 -0.703868 0.343526 30.000000
3.662096 -0.715294 0.343608 33.000000
3.659884 -0.726526 0.343608 42.000000
3.656660 -0.737554 0.343526 31.000000
3.658286 -0.749570 0.343856 42.000000
3.661823 -0.762008 0.344350 37.000000
3.663368 -0.774064 0.344680 29.000000
3.660976 -0.785299 0.344680 29.000000
3.664392 -0.797800 0.345175 33.000000
3.665819 -0.809898 0.345505 35.000000
3.664290 -0.821359 0.345587 33.000000
3.662725 -0.832818 0.345670 30.000000
3.656268 -0.843155 0.345340 38.000000
3.654634 -0.854596 0.345422 32.000000
3.657814 -0.867184 0.345917 32.000000
3.654167 -0.878169 0.345835 42.000000
3.654360 -0.890083 0.346082 35.000000
3.649678 -0.900813 0.345917 30.000000
3.643996 -0.911280 0.345670 37.000000
3.646013 -0.923679 0.346082 47.000000
3.637371 -0.933374 0.345587 41.000000
3.632561 -0.944028 0.345422 44.000000
3.634466 -0.956436 0.345835 44.000000
3.640182 -0.969892 0.346577 36.000000
3.641038 -0.982094 0.346907 47.000000
3.649544 -0.996411 0.347896 37.000000
3.651273 -1.008931 0.348308 33.000000
3.651040 -1.020933 0.348556 35.000000
3.647890 -1.032130 0.348556 39.000000
3.644706 -1.043317 0.348556 32.000000
3.629045 -1.050888 0.347484 42.000000
3.628672 -1.062858 0.347731 39.000000
3.626350 -1.074269 0.347814 29.000000
3.622082 -1.085103 0.347731 30.000000
3.624459 -1.097944 0.348226 44.000000
3.623932 -1.109935 0.348473 36.000000
3.621462 -1.121343 0.348556 50.000000
3.623711 -1.134235 0.349051 44.000000
3.623065 -1.146249 0.349298 32.000000
3.615734 -1.156144 0.348968 45.000000
3.619756 -1.169684 0.349628 24.000000
3.612361 -1.179546 0.349298 25.000000
3.605886 -1.189686 0.349051 42.000000
3.602219 -1.200743 0.349051 29.000000
3.594741 -1.210516 0.348721 21.000000
3.617427 -1.230528 0.351030 7.000000
3.708350 -0.388666 0.299067 19.000000
3.752762 -0.404950 0.302316 13.000000
3.715810 -0.412510 0.299774 25.000000
3.731376 -0.425825 0.300974 19.000000
3.718163 -0.435881 0.300127 18.000000
3.724731 -0.448237 0.300692 22.000000
3.719931 -0.470833 0.300551 11.000000
3.747158 -0.485955 0.302599 10.000000
3.730816 -0.495484 0.301539 15.000000
3.757944 -0.510815 0.303587 8.000000
3.834414 -0.533171 0.309167 7.000000
3.882141 -0.551938 0.312698 6.000000
3.931762 -0.571289 0.316371 6.000000
4.024718 -0.597381 0.323151 8.000000
4.084016 -0.618977 0.327530 17.000000
4.035764 -0.624349 0.324211 36.000000
4.061419 -0.641074 0.326188 33.000000
4.078146 -0.656539 0.327530 30.000000
4.077097 -0.669208 0.327601 27.000000
4.094702 -0.685000 0.329013 36.000000
4.057179 -0.691535 0.326471 22.000000
4.034400 -0.700402 0.324987 29.000000
4.147163 -0.733059 0.333251 59.000000
4.160604 -0.748600 0.334381 68.000000
4.152400 -0.760285 0.333957 54.000000
4.158874 -0.774663 0.334593 56.000000
4.174120 -0.790755 0.335864 63.000000
4.154042 -0.800166 0.334593 43.000000
4.173105 -0.817118 0.336147 44.000000
4.149055 -0.825640 0.334593 36.000000
4.081969 -0.825336 0.329931 10.000000
4.149092 -0.865419 0.335158 9.000000
4.132755 -0.875255 0.334169 11.000000
4.158333 -0.894002 0.336217 8.000000
4.126332 -0.900384 0.334098 16.000000
4.152769 -0.919500 0.336217 42.000000
4.155768 -0.933547 0.336641 75.000000
4.141213 -0.943636 0.335793 52.000000
4.132467 -0.954991 0.335370 66.000000
4.121748 -0.965846 0.334805 83.000000
4.109060 -0.976184 0.334098 51.000000
4.099257 -0.987153 0.333604 51.000000
4.110746 -1.003268 0.334663 80.000000
4.108616 -1.016114 0.334734 69.000000
4.106447 -1.028957 0.334805 57.000000
4.107139 -1.042531 0.335087 74.000000
4.101989 -1.054630 0.334946 73.000000
4.080391 -1.062439 0.333604 48.000000
4.045281 -1.066569 0.331273 37.000000
4.058375 -1.083344 0.332474 45.000000
4.080071 -1.102549 0.334310 51.000000
4.068971 -1.112958 0.333745 49.000000
3.995354 -1.106028 0.328589 23.000000
3.909330 -1.095163 0.322515 8.000000
3.871400 -1.097369 0.319973 8.000000
4.208941 -0.636680 0.282944 10.000000
4.199038 -0.661561 0.282595 21.000000
4.179246 -0.671588 0.281550 39.000000
4.183077 -0.685375 0.281898 32.000000
4.177016 -0.697547 0.281666 41.000000
4.181745 -0.711532 0.282072 88.000000
4.169706 -0.722652 0.281492 58.000000
4.172385 -0.736309 0.281782 60.000000
4.169124 -0.748930 0.281724 53.000000
4.158950 -0.760280 0.281259 57.000000
4.161506 -0.773949 0.281550 65.000000
4.151265 -0.785228 0.281085 109.000000
4.151777 -0.798526 0.281259 56.000000
4.154207 -0.812218 0.281550 38.000000
4.154633 -0.825543 0.281724 42.000000
4.164801 -0.840855 0.282479 66.000000
4.168070 -0.854832 0.282828 64.000000
4.161518 -0.866801 0.282595 57.000000
4.144189 -0.876464 0.281724 39.000000
4.131720 -0.887078 0.281143 34.000000
4.124102 -0.898687 0.280853 30.000000
4.123275 -0.911766 0.280969 21.000000
4.113639 -0.922882 0.280562 23.000000
4.125390 -0.938822 0.281434 115.000000
4.125409 -0.952148 0.281608 55.000000
4.133160 -0.967303 0.282247 72.000000
4.118517 -0.977212 0.281550 40.000000
4.115500 -0.989843 0.281550 34.000000
4.119233 -1.004120 0.281956 51.000000
4.120979 -1.017951 0.282247 62.000000
4.124615 -1.032286 0.282653 54.000000
4.126267 -1.046162 0.282944 60.000000
4.126906 -1.059810 0.283176 76.000000
4.132330 -1.074729 0.283699 39.000000
4.143494 -1.091217 0.284570 35.000000
4.135304 -1.102637 0.284280 37.000000
4.155997 -1.121825 0.285732 12.000000
4.157350 -1.135886 0.286022 10.000000
4.243619 -0.683887 0.234397 15.000000
4.231644 -0.695286 0.233935 21.000000
4.203874 -0.703983 0.232733 52.000000
4.192832 -0.715367 0.232317 39.000000
4.172901 -0.725154 0.231485 63.000000
4.164754 -0.736910 0.231207 53.000000
4.142811 -0.746148 0.230282 37.000000
4.141485 -0.759034 0.230329 68.000000
4.125388 -0.769177 0.229681 50.000000
4.117120 -0.780715 0.229404 47.000000
4.111762 -0.792776 0.229265 42.000000
4.110291 -0.805579 0.229311 34.000000
4.107800 -0.818185 0.229311 40.000000
4.107230 -0.831179 0.229404 47.000000
4.095853 -0.841969 0.228988 28.000000
4.094228 -0.854734 0.229034 33.000000
4.084746 -0.865843 0.228710 22.000000
4.079141 -0.877741 0.228572 21.000000
4.074476 -0.889826 0.228479 35.000000
4.072703 -0.902538 0.228525 30.000000
4.065042 -0.913934 0.228294 20.000000
4.097282 -0.934388 0.229959 77.000000
4.073956 -0.942232 0.228988 50.000000
4.068129 -0.954043 0.228849 40.000000
4.062267 -0.965827 0.228710 20.000000
4.070939 -0.981091 0.229265 33.000000
4.085378 -0.997837 0.230097 61.000000
4.100723 -1.014921 0.230976 51.000000
4.124722 -1.034292 0.232270 69.000000
4.121529 -1.046942 0.232270 39.000000
4.130875 -1.062814 0.232872 54.000000
4.141129 -1.079005 0.233519 40.000000
4.101093 -1.082031 0.231762 6.000000
4.224104 -0.692855 0.180637 16.000000
4.203229 -0.702679 0.179994 28.000000
4.188246 -0.713388 0.179554 24.000000
4.166343 -0.722815 0.178877 30.000000
4.134582 -0.730376 0.177861 27.000000
4.121501 -0.741110 0.177489 43.000000
4.106428 -0.751412 0.177049 41.000000
4.092313 -0.761810 0.176642 41.000000
4.081119 -0.772688 0.176338 29.000000
4.070878 -0.783693 0.176067 47.000000
4.067474 -0.795986 0.176033 29.000000
4.068933 -0.809241 0.176168 21.000000
4.070350 -0.822513 0.176304 28.000000
4.065849 -0.834595 0.176236 23.000000
4.058378 -0.846044 0.176067 38.000000
4.054785 -0.858284 0.176033 54.000000
4.055064 -0.871350 0.176135 50.000000
4.042608 -0.881657 0.175796 41.000000
4.035005 -0.892975 0.175627 26.000000
4.032246 -0.905350 0.175627 21.000000
4.037245 -0.919492 0.175898 23.000000
4.041221 -0.933449 0.176135 26.000000
4.047096 -0.947895 0.176439 48.000000
4.056810 -0.963310 0.176879 35.000000
4.066467 -0.978793 0.177319 17.000000
4.081892 -0.995766 0.177963 30.000000
4.094342 -1.012124 0.178504 33.000000
4.104790 -1.028081 0.178978 39.000000
4.108397 -1.042390 0.179215 48.000000
4.110020 -1.056234 0.179384 38.000000
4.114497 -1.070853 0.179655 45.000000
4.233437 -0.694069 0.128697 14.000000
4.202690 -0.702283 0.128069 23.000000
4.200515 -0.715173 0.128069 21.000000
4.170718 -0.723281 0.127463 31.000000
4.150757 -0.732949 0.127074 36.000000
4.133729 -0.743031 0.126749 46.000000
4.116677 -0.753015 0.126425 46.000000
4.105501 -0.763998 0.126230 46.000000
4.091349 -0.774362 0.125970 43.000000
4.080118 -0.785212 0.125775 38.000000
4.071803 -0.796576 0.125646 48.000000
4.064436 -0.808091 0.125537 35.000000
4.058018 -0.819766 0.125451 39.000000
4.049607 -0.831008 0.125321 33.000000
4.046060 -0.843224 0.125299 21.000000
4.041497 -0.855220 0.125256 25.000000
4.031035 -0.865938 0.125083 31.000000
4.027382 -0.878088 0.125061 27.000000
4.026621 -0.890871 0.125105 37.000000
4.026796 -0.903876 0.125170 54.000000
4.029853 -0.917556 0.125299 49.000000
4.035787 -0.931937 0.125494 41.000000
4.039723 -0.945908 0.125646 38.000000
4.055286 -0.962680 0.126057 24.000000
4.064950 -0.978154 0.126338 25.000000
4.068729 -0.992276 0.126490 47.000000
4.083138 -1.009067 0.126879 40.000000
4.095541 -1.025470 0.127225 36.000000
4.099160 -1.039749 0.127377 31.000000
4.102729 -1.054060 0.127528 26.000000
4.105281 -1.068151 0.127658 29.000000
4.116488 -1.084557 0.127983 12.000000
4.170622 -0.711131 0.075171 18.000000
4.165465 -0.723409 0.075143 28.000000
4.156333 -0.734966 0.075079 29.000000
4.136345 -0.744523 0.074912 41.000000
4.122238 -0.755047 0.074801 31.000000
4.112038 -0.766224 0.074727 28.000000
4.097878 -0.776601 0.074616 37.000000
4.090568 -0.788223 0.074570 56.000000
4.079298 -0.799038 0.074487 43.000000
4.072905 -0.810768 0.074450 55.000000
4.064518 -0.822070 0.074394 46.000000
4.053161 -0.832724 0.074311 29.000000
4.044714 -0.843929 0.074255 39.000000
4.038194 -0.855504 0.074218 39.000000
4.038482 -0.868520 0.074246 21.000000
4.030914 -0.879839 0.074200 30.000000
4.035029 -0.893716 0.074265 23.000000
4.025440 -0.904556 0.074200 34.000000
4.028495 -0.918236 0.074255 50.000000
4.025659 -0.930591 0.074255 81.000000
4.039335 -0.946818 0.074413 46.000000
4.046140 -0.961519 0.074505 45.000000
4.055809 -0.976973 0.074625 57.000000
4.067363 -0.992970 0.074764 53.000000
4.074975 -1.008086 0.074866 46.000000
4.100961 -1.027879 0.075143 27.000000
4.103604 -1.041933 0.075199 38.000000
4.112009 -1.057508 0.075310 25.000000
4.157128 -1.082724 0.075772 14.000000
4.159081 -0.708130 0.022242 15.000000
4.150977 -0.719863 0.022262 13.000000
4.134961 -0.730164 0.022308 32.000000
4.125812 -0.741610 0.022331 25.000000
4.106794 -0.751210 0.022388 34.000000
4.096605 -0.762345 0.022414 52.000000
4.085403 -0.773238 0.022444 36.000000
4.079084 -0.785013 0.022457 46.000000
4.069786 -0.796182 0.022480 45.000000
4.059477 -0.807107 0.022507 27.000000
4.052081 -0.818568 0.022524 54.000000
4.045631 -0.830193 0.022537 59.000000
4.036212 -0.841175 0.022560 40.000000
4.033613 -0.853554 0.022560 57.000000
4.030975 -0.865925 0.022560 67.000000
4.027322 -0.878075 0.022563 62.000000
4.022657 -0.889995 0.022570 95.000000
4.024786 -0.903426 0.022553 69.000000
4.028821 -0.917321 0.022530 51.000000
4.025014 -0.929453 0.022534 96.000000
4.040644 -0.946123 0.022471 36.000000
4.042588 -0.959669 0.022454 51.000000
4.049347 -0.974404 0.022421 49.000000
4.057026 -0.989426 0.022384 27.000000
4.060768 -1.003545 0.022361 53.000000
4.067371 -1.018425 0.022328 55.000000
4.088461 -1.037039 0.022245 47.000000
4.101727 -1.053802 0.022189 41.000000
4.120735 -1.072167 0.022112 20.000000
4.188277 -0.712644 -0.030312 16.000000
4.174249 -0.723440 -0.030124 17.000000
4.148378 -0.732070 -0.029747 28.000000
4.120526 -0.740195 -0.029338 44.000000
4.110367 -0.751394 -0.029213 39.000000
4.090348 -0.760709 -0.028930 57.000000
4.077188 -0.771209 -0.028757 34.000000
4.063021 -0.781447 -0.028569 58.000000
4.051773 -0.792181 -0.028427 42.000000
4.045401 -0.803828 -0.028364 55.000000
4.039975 -0.815641 -0.028317 64.000000
4.036474 -0.827831 -0.028302 54.000000
4.035874 -0.840619 -0.028333 46.000000
4.032297 -0.852790 -0.028317 50.000000
4.030639 -0.865366 -0.028333 68.000000
4.027966 -0.877728 -0.028333 62.000000
4.025254 -0.890082 -0.028333 58.000000
4.026406 -0.903303 -0.028396 63.000000
4.028491 -0.916761 -0.028474 64.000000
4.032479 -0.930691 -0.028584 65.000000
4.042261 -0.946021 -0.028789 60.000000
4.049067 -0.960727 -0.028946 54.000000
4.056795 -0.975718 -0.029118 48.000000
4.066411 -0.991239 -0.029323 52.000000
4.070146 -1.005389 -0.029433 55.000000
4.082561 -1.021757 -0.029684 29.000000
4.097821 -1.038948 -0.029982 38.000000
4.101394 -1.053256 -0.030092 36.000000
4.111690 -1.069359 -0.030312 30.000000
4.119993 -1.085025 -0.030501 25.000000
4.195942 -0.714396 -0.081529 20.000000
4.176001 -0.724196 -0.081029 23.000000
4.161947 -0.734921 -0.080696 21.000000
4.162623 -0.748216 -0.080780 15.000000
4.113108 -0.752363 -0.079448 29.000000
4.096039 -0.762239 -0.079032 31.000000
4.087787 -0.773689 -0.078865 21.000000
4.065761 -0.782454 -0.078310 37.000000
4.056474 -0.793582 -0.078116 38.000000
4.050098 -0.805245 -0.078005 50.000000
4.048589 -0.817864 -0.078033 44.000000
4.039206 -0.828876 -0.077839 46.000000
4.034686 -0.840857 -0.077783 71.000000
4.029154 -0.852612 -0.077700 45.000000
4.021633 -0.863921 -0.077561 50.000000
4.017986 -0.876042 -0.077533 64.000000
4.016255 -0.888581 -0.077561 58.000000
4.018387 -0.901991 -0.077700 52.000000
4.022425 -0.915867 -0.077894 66.000000
4.026414 -0.929776 -0.078088 52.000000
4.035223 -0.944856 -0.078421 55.000000
4.039114 -0.958845 -0.078615 43.000000
4.047816 -0.974036 -0.078948 33.000000
4.052578 -0.988342 -0.079170 39.000000
4.056321 -1.002448 -0.079365 20.000000
4.070682 -1.019253 -0.079864 32.000000
4.087885 -1.036892 -0.080447 49.000000
4.096303 -1.052411 -0.080780 26.000000
4.115307 -1.070756 -0.081418 29.000000
4.124569 -1.086684 -0.081779 25.000000
4.126046 -1.100620 -0.081917 30.000000
4.197221 -0.714166 -0.134928 18.000000
4.180243 -0.724479 -0.134323 23.000000
4.169145 -0.735737 -0.133960 28.000000
4.148182 -0.745166 -0.133194 34.000000
4.127202 -0.754473 -0.132429 27.000000
4.107186 -0.763842 -0.131703 42.000000
4.091078 -0.773838 -0.131139 38.000000
4.076911 -0.784120 -0.130655 55.000000
4.072525 -0.796240 -0.130574 38.000000
4.059283 -0.806587 -0.130131 36.000000
4.055809 -0.818840 -0.130091 52.000000
4.047406 -0.830074 -0.129849 52.000000
4.039949 -0.841468 -0.129647 42.000000
4.036371 -0.853652 -0.129607 51.000000
4.030803 -0.865401 -0.129486 45.000000
4.028128 -0.877764 -0.129486 34.000000
4.029319 -0.890981 -0.129647 39.000000
4.029491 -0.903995 -0.129768 55.000000
4.033518 -0.917906 -0.130051 50.000000
4.036525 -0.931625 -0.130292 48.000000
4.037539 -0.944915 -0.130454 43.000000
4.046288 -0.960067 -0.130937 36.000000
4.054980 -0.975281 -0.131421 39.000000
4.053911 -0.988191 -0.131502 43.000000
4.063470 -1.003739 -0.132026 32.000000
4.071033 -1.018871 -0.132469 25.000000
4.079511 -1.034304 -0.132953 24.000000
4.101480 -1.053278 -0.134001 32.000000
4.101130 -1.066611 -0.134121 37.000000
4.143251 -1.091153 -0.136016 20.000000
4.192017 -1.117765 -0.138192 11.000000
4.198672 -0.703113 -0.186101 22.000000
4.183697 -0.713811 -0.185421 40.000000
4.169680 -0.724595 -0.184793 44.000000
4.155637 -0.735299 -0.184165 27.000000
4.135670 -0.744864 -0.183222 32.000000
4.117648 -0.754672 -0.182385 24.000000
4.103532 -0.765108 -0.181757 27.000000
4.089392 -0.775465 -0.181129 43.000000
4.082089 -0.787063 -0.180867 40.000000
4.074756 -0.798624 -0.180606 49.000000
4.066410 -0.809953 -0.180292 34.000000
4.059990 -0.821633 -0.180082 40.000000
4.052559 -0.833081 -0.179821 35.000000
4.049984 -0.845510 -0.179821 46.000000
4.045417 -0.857518 -0.179716 49.000000
4.039838 -0.869296 -0.179559 46.000000
4.041055 -0.882537 -0.179768 50.000000
4.040279 -0.895362 -0.179873 39.000000
4.040436 -0.908410 -0.180030 57.000000
4.043472 -0.922132 -0.180344 38.000000
4.040624 -0.934533 -0.180344 53.000000
4.037737 -0.946925 -0.180344 32.000000
4.042586 -0.961154 -0.180763 44.000000
4.047386 -0.975421 -0.181181 46.000000
4.052136 -0.989727 -0.181600 42.000000
4.063622 -1.005749 -0.182385 44.000000
4.072142 -1.021123 -0.183013 51.000000
4.080606 -1.036559 -0.183641 37.000000
4.092881 -1.053050 -0.184479 37.000000
4.107994 -1.070381 -0.185473 23.000000
4.103724 -1.082724 -0.185421 24.000000
4.093629 -1.093507 -0.185054 29.000000
4.104716 -1.109967 -0.185839 23.000000
4.191067 -0.699895 -0.238317 18.000000
4.187916 -0.712582 -0.238253 17.000000
4.172928 -0.723211 -0.237412 20.000000
4.151036 -0.732540 -0.236117 21.000000
4.137965 -0.743330 -0.235406 37.000000
4.125849 -0.754226 -0.234759 39.000000
4.119591 -0.766150 -0.234500 52.000000
4.113299 -0.778043 -0.234241 34.000000
4.102074 -0.788962 -0.233659 40.000000
4.099634 -0.801543 -0.233659 37.000000
4.089325 -0.812560 -0.233141 40.000000
4.078010 -0.823324 -0.232559 31.000000
4.074487 -0.835630 -0.232494 23.000000
4.069951 -0.847720 -0.232364 35.000000
4.064402 -0.859582 -0.232170 31.000000
4.062721 -0.872257 -0.232235 43.000000
4.061976 -0.885143 -0.232364 34.000000
4.064113 -0.898678 -0.232688 32.000000
4.065231 -0.912017 -0.232947 42.000000
4.065333 -0.925149 -0.233141 45.000000
4.061503 -0.937392 -0.233076 33.000000
4.057637 -0.949621 -0.233011 26.000000
4.060530 -0.963448 -0.233400 40.000000
4.061436 -0.976835 -0.233659 24.000000
4.064237 -0.990709 -0.234047 31.000000
4.069897 -1.005328 -0.234629 35.000000
4.072602 -1.019263 -0.235017 30.000000
4.084932 -1.035679 -0.236053 26.000000
4.094300 -1.051434 -0.236894 26.000000
4.093953 -1.064744 -0.237088 41.000000
4.114791 -1.083655 -0.238706 20.000000
4.105662 -1.094730 -0.238317 30.000000
4.127333 -1.114085 -0.240000 14.000000
4.208031 -0.691413 -0.289993 17.000000
4.195073 -0.702512 -0.289151 20.000000
4.185035 -0.714039 -0.288539 14.000000
4.169071 -0.724489 -0.287467 21.000000
4.151118 -0.734501 -0.286242 27.000000
4.135108 -0.744763 -0.285171 36.000000
4.134764 -0.757804 -0.285324 22.000000
4.126539 -0.769391 -0.284865 28.000000
4.117301 -0.780749 -0.284329 39.000000
4.109012 -0.792246 -0.283870 35.000000
4.104605 -0.804466 -0.283716 41.000000
4.099184 -0.816471 -0.283487 32.000000
4.093728 -0.828451 -0.283257 45.000000
