ply
format ascii 1.0
element vertex 1244
property float x
property float y
property float z
property float intensity
end_header
3.793102 -0.513569 0.492752 41.000000
3.789541 -0.524932 0.492514 37.000000
3.783980 -0.535999 0.492038 55.000000
3.782318 -0.547606 0.492038 53.000000
3.782585 -0.559497 0.492276 39.000000
3.777905 -0.570656 0.491919 44.000000
3.771230 -0.581488 0.491325 35.000000
3.771390 -0.593364 0.491563 42.000000
3.770532 -0.605088 0.491681 48.000000
3.773558 -0.617453 0.492276 42.000000
3.762831 -0.627560 0.491206 41.000000
3.755014 -0.638105 0.490492 51.000000
3.754017 -0.649791 0.490611 39.000000
3.749072 -0.660789 0.490254 39.000000
3.741163 -0.671238 0.489541 38.000000
3.737133 -0.682357 0.489303 42.000000
3.725259 -0.692008 0.488114 57.000000
3.721167 -0.703066 0.487876 35.000000
3.718992 -0.714479 0.487876 37.000000
3.711910 -0.724935 0.487281 35.000000
3.706747 -0.735741 0.486925 41.000000
3.708366 -0.747894 0.487400 30.000000
3.703135 -0.758670 0.487043 39.000000
3.703707 -0.770634 0.487400 39.000000
3.704240 -0.782607 0.487757 41.000000
3.687258 -0.790849 0.485973 27.000000
3.614957 -0.786973 0.477411 8.000000
3.731859 -0.319917 0.436750 6.000000
3.841707 -0.353104 0.448817 24.000000
3.854463 -0.366207 0.450312 43.000000
3.852332 -0.377933 0.450205 36.000000
3.846209 -0.389249 0.449671 42.000000
3.845985 -0.401151 0.449778 52.000000
3.843748 -0.412842 0.449671 31.000000
3.840486 -0.424414 0.449457 47.000000
3.838178 -0.436082 0.449351 48.000000
3.830897 -0.447163 0.448710 38.000000
3.826545 -0.458558 0.448390 45.000000
3.821173 -0.469810 0.447962 44.000000
3.811822 -0.480536 0.447108 59.000000
3.806386 -0.491718 0.446681 49.000000
3.801902 -0.503002 0.446361 37.000000
3.797385 -0.514263 0.446040 45.000000
3.792835 -0.525501 0.445720 45.000000
3.788252 -0.536716 0.445400 40.000000
3.786587 -0.548336 0.445400 36.000000
3.787838 -0.560387 0.445720 46.000000
3.783151 -0.571560 0.445400 37.000000
3.778432 -0.582708 0.445079 52.000000
3.775644 -0.594143 0.444973 45.000000
3.770859 -0.605251 0.444652 38.000000
3.767022 -0.616495 0.444439 31.000000
3.758248 -0.626904 0.443691 39.000000
3.753366 -0.637931 0.443371 46.000000
3.752371 -0.649613 0.443478 46.000000
3.748402 -0.660776 0.443264 50.000000
3.746357 -0.672273 0.443264 34.000000
3.742321 -0.683406 0.443050 35.000000
3.740206 -0.694884 0.443050 34.000000
3.737080 -0.706171 0.442944 53.000000
3.729038 -0.716507 0.442303 54.000000
3.725846 -0.727753 0.442196 34.000000
3.718719 -0.738212 0.441662 28.000000
3.711564 -0.748634 0.441128 28.000000
3.707302 -0.759618 0.440915 27.000000
3.701060 -0.770178 0.440488 34.000000
3.699652 -0.781734 0.440594 47.000000
3.686543 -0.790786 0.439420 26.000000
3.697701 -0.805055 0.440915 39.000000
3.656380 -0.807812 0.436643 15.000000
3.542313 -0.794005 0.424363 5.000000
3.828705 -0.246092 0.400720 7.000000
3.844327 -0.306367 0.402620 16.000000
3.863212 -0.319797 0.404519 32.000000
3.863204 -0.331732 0.404614 37.000000
3.857210 -0.343143 0.404140 32.000000
3.860105 -0.355339 0.404519 45.000000
3.853050 -0.366616 0.403950 32.000000
3.842990 -0.377562 0.403095 50.000000
3.833890 -0.388550 0.402335 44.000000
3.827730 -0.399795 0.401860 41.000000
3.820547 -0.410899 0.401290 57.000000
3.818278 -0.422510 0.401195 34.000000
3.815975 -0.434110 0.401100 43.000000
3.814625 -0.445815 0.401100 44.000000
3.812251 -0.457398 0.401005 40.000000
3.811818 -0.469213 0.401100 31.000000
3.806410 -0.480407 0.400720 34.000000
3.802943 -0.491828 0.400530 39.000000
3.799443 -0.503232 0.400340 48.000000
3.795908 -0.514620 0.400151 31.000000
3.788395 -0.525444 0.399581 40.000000
3.785779 -0.536925 0.399486 59.000000
3.778203 -0.547682 0.398916 40.000000
3.772566 -0.558689 0.398536 37.000000
3.768865 -0.569963 0.398346 52.000000
3.760212 -0.580462 0.397681 55.000000
3.751529 -0.590913 0.397016 57.000000
3.750682 -0.602578 0.397111 41.000000
3.745868 -0.613600 0.396826 59.000000
3.746913 -0.625580 0.397111 61.000000
3.747921 -0.637572 0.397396 44.000000
3.743985 -0.648729 0.397206 43.000000
3.746880 -0.661075 0.397681 50.000000
3.744834 -0.672567 0.397681 54.000000
3.739815 -0.683517 0.397396 63.000000
3.737700 -0.694988 0.397396 49.000000
3.730660 -0.705528 0.396921 61.000000
3.725544 -0.716407 0.396636 52.000000
3.727237 -0.728596 0.397016 32.000000
3.714243 -0.737897 0.395972 53.000000
3.714890 -0.749879 0.396256 59.000000
3.706720 -0.760075 0.395687 48.000000
3.698523 -0.770227 0.395117 43.000000
3.695169 -0.781365 0.395022 37.000000
3.692754 -0.792698 0.395022 43.000000
3.685441 -0.802965 0.394547 45.000000
3.687821 -0.815341 0.395022 24.000000
3.686273 -0.826869 0.395117 37.000000
3.680807 -0.837513 0.394832 21.000000
3.694711 -0.852602 0.396446 6.000000
3.857136 -0.259251 0.354740 13.000000
3.875211 -0.272413 0.356307 31.000000
3.874357 -0.284301 0.356307 47.000000
3.871479 -0.296033 0.356142 44.000000
3.870553 -0.307909 0.356142 33.000000
3.866610 -0.319536 0.355895 43.000000
3.863626 -0.331227 0.355730 43.000000
3.858621 -0.342726 0.355400 38.000000
3.857551 -0.354562 0.355400 47.000000
3.853469 -0.366112 0.355153 59.000000
3.848360 -0.377543 0.354823 61.000000
3.842226 -0.388846 0.354410 42.000000
3.836059 -0.400114 0.353998 46.000000
3.830850 -0.411455 0.353668 53.000000
3.826598 -0.422877 0.353421 53.000000
3.822312 -0.434277 0.353174 40.000000
3.817992 -0.445655 0.352926 44.000000
3.812649 -0.456892 0.352596 42.000000
3.807273 -0.468100 0.352266 46.000000
3.801863 -0.479279 0.351937 37.000000
3.797410 -0.490557 0.351689 49.000000
3.792923 -0.501813 0.351442 49.000000
3.788403 -0.513046 0.351194 39.000000
3.782863 -0.524118 0.350865 34.000000
3.778277 -0.535302 0.350617 38.000000
3.772672 -0.546319 0.350287 54.000000
3.766049 -0.557161 0.349875 40.000000
3.759395 -0.567968 0.349463 38.000000
3.753695 -0.578891 0.349133 45.000000
3.745994 -0.589474 0.348638 35.000000
3.740232 -0.600332 0.348308 32.000000
3.740339 -0.612126 0.348473 45.000000
3.739427 -0.623762 0.348556 45.000000
3.736513 -0.635065 0.348473 42.000000
3.729638 -0.645675 0.348061 54.000000
3.724694 -0.656595 0.347814 42.000000
3.721682 -0.667843 0.347731 48.000000
3.717655 -0.678899 0.347566 41.000000
3.710655 -0.689391 0.347154 53.000000
3.704606 -0.700031 0.346824 42.000000
3.703419 -0.711582 0.346907 39.000000
3.701219 -0.722940 0.346907 45.000000
3.692141 -0.732933 0.346329 38.000000
3.690852 -0.744454 0.346412 37.000000
3.685622 -0.755174 0.346164 41.000000
3.682312 -0.766274 0.346082 49.000000
3.679944 -0.777568 0.346082 31.000000
3.671694 -0.787599 0.345587 60.000000
3.673156 -0.799709 0.345917 60.000000
3.678470 -0.812695 0.346577 44.000000
3.673042 -0.823322 0.346329 36.000000
3.667583 -0.833924 0.346082 41.000000
3.661124 -0.844276 0.345752 45.000000
3.671131 -0.858455 0.346824 28.000000
3.665571 -0.869024 0.346577 27.000000
3.674515 -0.883061 0.347566 16.000000
3.703742 -0.902116 0.350287 6.000000
3.876337 -0.214686 0.309944 11.000000
3.879643 -0.226809 0.310226 32.000000
3.881916 -0.238894 0.310438 41.000000
3.876188 -0.250482 0.310085 40.000000
3.872415 -0.262172 0.309873 42.000000
3.868608 -0.273840 0.309661 37.000000
3.863770 -0.285415 0.309379 47.000000
3.859893 -0.297039 0.309167 38.000000
3.856974 -0.308721 0.309026 43.000000
3.852033 -0.320223 0.308743 46.000000
3.847057 -0.331698 0.308461 47.000000
3.844034 -0.343322 0.308319 50.000000
3.838989 -0.354748 0.308037 52.000000
3.833911 -0.366146 0.307754 48.000000
3.829791 -0.377614 0.307543 42.000000
3.826630 -0.389160 0.307401 36.000000
3.822442 -0.400587 0.307189 34.000000
3.819211 -0.412099 0.307048 44.000000
3.817929 -0.423814 0.307048 70.000000
3.813637 -0.435187 0.306836 42.000000
3.807330 -0.446306 0.306483 22.000000
3.804953 -0.457866 0.306413 46.000000
3.801550 -0.469293 0.306271 43.000000
3.794155 -0.480204 0.305848 30.000000
3.789696 -0.491459 0.305636 55.000000
3.781248 -0.502166 0.305141 42.000000
3.777713 -0.513496 0.305000 49.000000
3.772168 -0.524535 0.304717 41.000000
3.764615 -0.535265 0.304294 61.000000
3.759006 -0.546239 0.304011 41.000000
3.754353 -0.557331 0.303799 55.000000
3.748680 -0.568250 0.303517 50.000000
3.745933 -0.579596 0.303446 51.000000
3.740196 -0.590464 0.303164 40.000000
3.739351 -0.602094 0.303234 39.000000
3.734534 -0.613080 0.303022 28.000000
3.736571 -0.625192 0.303305 38.000000
3.730701 -0.635983 0.303022 39.000000
3.726767 -0.647085 0.302881 50.000000
3.723782 -0.658342 0.302811 59.000000
3.719781 -0.669411 0.302669 45.000000
3.713785 -0.680102 0.302387 52.000000
3.705797 -0.690398 0.301963 59.000000
3.702681 -0.701579 0.301892 38.000000
3.702470 -0.713312 0.302034 48.000000
3.697328 -0.724093 0.301822 45.000000
3.692154 -0.734850 0.301610 40.000000
3.686949 -0.745582 0.301398 37.000000
3.681712 -0.756288 0.301186 53.000000
3.673516 -0.766360 0.300762 63.000000
3.671147 -0.777626 0.300762 49.000000
3.665818 -0.788257 0.300551 34.000000
3.660459 -0.798863 0.300339 47.000000
3.659939 -0.810520 0.300480 55.000000
3.653542 -0.820871 0.300197 60.000000
3.650033 -0.831855 0.300127 40.000000
3.643576 -0.842152 0.299844 41.000000
3.639033 -0.852872 0.299703 57.000000
3.636399 -0.864032 0.299703 40.000000
3.633731 -0.875184 0.299703 26.000000
3.625214 -0.884911 0.299279 43.000000
3.627324 -0.897225 0.299632 40.000000
3.623587 -0.908107 0.299562 36.000000
3.614016 -0.917504 0.299067 28.000000
3.909829 -0.167222 0.262962 13.000000
3.897330 -0.178667 0.262265 42.000000
3.893772 -0.190476 0.262091 48.000000
3.890179 -0.202266 0.261916 31.000000
3.889540 -0.214200 0.261916 42.000000
3.886871 -0.226015 0.261800 34.000000
3.883170 -0.237756 0.261626 47.000000
3.879434 -0.249476 0.261452 38.000000
3.874666 -0.261107 0.261219 38.000000
3.871855 -0.272853 0.261103 51.000000
3.864030 -0.284217 0.260697 34.000000
3.861150 -0.295918 0.260580 42.000000
3.856243 -0.307444 0.260348 35.000000
3.851302 -0.318944 0.260116 42.000000
3.842348 -0.330073 0.259651 45.000000
3.838334 -0.341594 0.259477 52.000000
3.833292 -0.353002 0.259244 53.000000
3.831197 -0.364666 0.259186 42.000000
3.822112 -0.375636 0.258722 34.000000
3.816969 -0.386957 0.258489 34.000000
3.811792 -0.398250 0.258257 41.000000
3.809560 -0.409836 0.258199 43.000000
3.804316 -0.421082 0.257966 46.000000
3.800030 -0.432413 0.257792 44.000000
3.795711 -0.443721 0.257618 43.000000
3.795323 -0.455483 0.257676 41.000000
3.790935 -0.466758 0.257502 42.000000
3.790476 -0.478512 0.257560 44.000000
3.787010 -0.489882 0.257444 51.000000
3.783510 -0.501236 0.257328 49.000000
3.779976 -0.512573 0.257211 60.000000
3.776408 -0.523892 0.257095 45.000000
3.773794 -0.535335 0.257037 47.000000
3.765219 -0.545907 0.256630 34.000000
3.760563 -0.557017 0.256456 35.000000
3.753902 -0.567805 0.256166 36.000000
3.748195 -0.578709 0.255933 48.000000
3.745416 -0.590050 0.255875 42.000000
3.738660 -0.600746 0.255585 46.000000
3.732858 -0.611567 0.255353 33.000000
3.732934 -0.623346 0.255469 32.000000
3.729036 -0.634460 0.255353 39.000000
3.731006 -0.646580 0.255585 47.000000
3.728022 -0.657850 0.255527 38.000000
3.720091 -0.668224 0.255178 48.000000
3.719005 -0.679814 0.255236 44.000000
3.715920 -0.691038 0.255178 49.000000
3.710840 -0.701878 0.255004 47.000000
3.708670 -0.713259 0.255004 40.000000
3.699605 -0.723293 0.254597 42.000000
3.693453 -0.733861 0.254365 41.000000
3.687269 -0.744398 0.254133 60.000000
3.678123 -0.754302 0.253726 49.000000
3.672859 -0.764972 0.253552 57.000000
3.671472 -0.776443 0.253610 52.000000
3.670048 -0.787913 0.253668 47.000000
3.671515 -0.800020 0.253900 53.000000
3.670993 -0.811711 0.254017 49.000000
3.669460 -0.823189 0.254075 49.000000
3.666917 -0.834442 0.254075 46.000000
3.657531 -0.844116 0.253668 43.000000
3.652980 -0.854878 0.253552 39.000000
3.645483 -0.864929 0.253261 45.000000
3.636989 -0.874707 0.252913 48.000000
3.631378 -0.885152 0.252739 45.000000
3.628646 -0.896289 0.252739 48.000000
3.622005 -0.906447 0.252506 33.000000
3.624046 -0.918782 0.252797 24.000000
3.617342 -0.928903 0.252564 40.000000
3.616408 -0.940499 0.252681 46.000000
3.614470 -0.951844 0.252739 18.000000
3.921894 -0.121438 0.217059 26.000000
3.906528 -0.132964 0.216366 45.000000
3.913089 -0.145206 0.216689 30.000000
3.900647 -0.156733 0.216135 39.000000
3.893162 -0.168399 0.215811 35.000000
3.888636 -0.180159 0.215626 46.000000
3.891058 -0.192235 0.215765 26.000000
3.874488 -0.203339 0.215025 58.000000
3.870854 -0.215059 0.214886 55.000000
3.867184 -0.226759 0.214748 64.000000
3.865474 -0.238561 0.214701 62.000000
3.865720 -0.250484 0.214748 38.000000
3.863937 -0.262275 0.214701 38.000000
3.860125 -0.273917 0.214563 52.000000
3.853289 -0.285317 0.214285 38.000000
3.847416 -0.296755 0.214054 34.000000
3.842504 -0.308239 0.213869 53.000000
3.836563 -0.319613 0.213638 50.000000
3.831583 -0.331039 0.213453 48.000000
3.825575 -0.342349 0.213222 41.000000
3.823511 -0.353993 0.213176 34.000000
3.820419 -0.365532 0.213083 44.000000
3.814309 -0.376761 0.212852 34.000000
3.808166 -0.387957 0.212621 40.000000
3.800997 -0.399015 0.212343 45.000000
3.795782 -0.410246 0.212158 53.000000
3.788548 -0.421229 0.211881 42.000000
3.784261 -0.432510 0.211742 50.000000
3.778947 -0.443654 0.211557 53.000000
3.772609 -0.454649 0.211326 43.000000
3.764257 -0.465365 0.211003 35.000000
3.755874 -0.476035 0.210679 50.000000
3.753405 -0.487427 0.210633 40.000000
3.748922 -0.498546 0.210494 43.000000
3.745395 -0.509776 0.210401 42.000000
3.750739 -0.522227 0.210725 44.000000
3.752086 -0.534153 0.210864 47.000000
3.749441 -0.545518 0.210818 43.000000
3.749726 -0.557312 0.210910 45.000000
3.743060 -0.568065 0.210679 54.000000
3.736364 -0.578783 0.210448 37.000000
3.729637 -0.589465 0.210217 32.000000
3.715976 -0.599001 0.209662 52.000000
3.709192 -0.609590 0.209431 50.000000
3.708290 -0.621131 0.209477 38.000000
3.706367 -0.632505 0.209477 64.000000
3.704409 -0.643873 0.209477 53.000000
3.699465 -0.654714 0.209338 52.000000
3.698422 -0.666237 0.209384 43.000000
3.693413 -0.677041 0.209246 37.000000
3.691318 -0.688369 0.209246 42.000000
3.684282 -0.698762 0.209014 43.000000
3.675254 -0.708740 0.208691 29.000000
3.670121 -0.719436 0.208552 30.000000
3.668876 -0.730888 0.208598 38.000000
3.658784 -0.740557 0.208228 49.000000
3.655516 -0.751578 0.208182 60.000000
3.658082 -0.763809 0.208413 30.000000
3.649858 -0.773787 0.208136 55.000000
3.651374 -0.785820 0.208321 46.000000
3.650898 -0.797444 0.208413 53.000000
3.645508 -0.807994 0.208275 44.000000
3.644961 -0.819612 0.208367 42.000000
3.635612 -0.829238 0.208043 65.000000
3.626237 -0.838814 0.207720 49.000000
3.620729 -0.849252 0.207581 35.000000
3.612275 -0.858971 0.207304 26.000000
3.615450 -0.871452 0.207581 38.000000
3.613730 -0.882777 0.207627 36.000000
3.604217 -0.892182 0.207304 29.000000
3.599524 -0.902749 0.207211 28.000000
3.929087 -0.072202 0.168755 16.000000
3.934842 -0.084385 0.168958 35.000000
3.930569 -0.096358 0.168822 35.000000
3.919265 -0.108113 0.168450 45.000000
3.915918 -0.120044 0.168348 36.000000
3.907540 -0.131787 0.168078 44.000000
3.900126 -0.143517 0.167841 36.000000
3.890680 -0.155122 0.167536 47.000000
3.885193 -0.166843 0.167367 58.000000
3.880670 -0.178578 0.167231 46.000000
3.875112 -0.190237 0.167062 47.000000
3.870518 -0.201916 0.166927 42.000000
3.867885 -0.213679 0.166859 51.000000
3.868209 -0.225603 0.166893 51.000000
3.865504 -0.237347 0.166825 47.000000
3.861765 -0.249012 0.166723 46.000000
3.855000 -0.260453 0.166520 45.000000
3.850195 -0.271997 0.166385 38.000000
3.845356 -0.283514 0.166249 46.000000
3.840482 -0.295003 0.166114 47.000000
3.834578 -0.306386 0.165945 27.000000
3.832623 -0.318066 0.165911 45.000000
3.828643 -0.329565 0.165809 49.000000
3.824627 -0.341043 0.165708 48.000000
3.820577 -0.352499 0.165606 49.000000
3.813508 -0.363649 0.165403 42.000000
3.806407 -0.374759 0.165200 37.000000
3.801262 -0.386031 0.165065 48.000000
3.801054 -0.397795 0.165098 33.000000
3.794847 -0.408919 0.164929 38.000000
3.784635 -0.419568 0.164625 50.000000
3.778365 -0.430610 0.164455 43.000000
3.773055 -0.441735 0.164320 44.000000
3.769698 -0.453070 0.164252 43.000000
3.766306 -0.464388 0.164184 39.000000
3.762881 -0.475690 0.164117 52.000000
3.760413 -0.487103 0.164083 33.000000
3.761873 -0.499032 0.164184 43.000000
3.753391 -0.509629 0.163947 53.000000
3.750820 -0.521005 0.163914 41.000000
3.743268 -0.531666 0.163711 34.000000
3.738652 -0.542716 0.163609 43.000000
3.734003 -0.553744 0.163507 37.000000
3.728334 -0.564598 0.163372 55.000000
3.722634 -0.575422 0.163237 57.000000
3.722825 -0.587152 0.163304 45.000000
3.715086 -0.597618 0.163101 41.000000
3.713235 -0.609013 0.163101 41.000000
3.708392 -0.619907 0.163000 54.000000
3.705487 -0.631114 0.162966 47.000000
3.703534 -0.642479 0.162966 40.000000
3.699577 -0.653490 0.162898 51.000000
3.694604 -0.664307 0.162796 40.000000
3.688616 -0.674918 0.162661 32.000000
3.687511 -0.686415 0.162695 43.000000
3.683423 -0.697353 0.162627 50.000000
3.679304 -0.708272 0.162560 40.000000
3.675152 -0.719172 0.162492 35.000000
3.668027 -0.729469 0.162323 38.000000
3.664792 -0.740521 0.162289 50.000000
3.659566 -0.751158 0.162187 34.000000
3.651374 -0.761157 0.161984 31.000000
3.649022 -0.772356 0.161984 45.000000
3.644681 -0.783127 0.161916 40.000000
3.641285 -0.794092 0.161882 49.000000
3.632977 -0.803963 0.161679 41.000000
3.624642 -0.813791 0.161476 37.000000
3.617256 -0.823797 0.161307 44.000000
3.616659 -0.835341 0.161375 37.000000
3.612134 -0.845977 0.161307 34.000000
3.620217 -0.859596 0.161679 19.000000
3.635052 -0.874910 0.162289 5.000000
3.963959 -0.024021 0.121642 14.000000
3.931876 -0.035900 0.120950 26.000000
3.930748 -0.047951 0.120928 40.000000
3.919586 -0.059845 0.120690 50.000000
3.916385 -0.071816 0.120625 38.000000
3.915146 -0.083810 0.120603 39.000000
3.907875 -0.095652 0.120452 49.000000
3.900567 -0.107450 0.120300 46.000000
3.892225 -0.119174 0.120127 67.000000
3.886845 -0.130947 0.120019 65.000000
3.887424 -0.142908 0.120041 52.000000
3.878975 -0.154518 0.119868 42.000000
3.870492 -0.166077 0.119694 56.000000
3.867967 -0.177860 0.119651 54.000000
3.863408 -0.189531 0.119565 43.000000
3.857817 -0.201124 0.119456 65.000000
3.858180 -0.213013 0.119478 41.000000
3.855512 -0.224733 0.119435 39.000000
3.853806 -0.236500 0.119413 49.000000
3.852065 -0.248258 0.119392 48.000000
3.841310 -0.259404 0.119175 47.000000
3.831521 -0.270557 0.118980 35.000000
3.826684 -0.282018 0.118894 49.000000
3.816829 -0.293071 0.118699 39.000000
3.811925 -0.304462 0.118612 44.000000
3.804995 -0.315661 0.118483 45.000000
3.798032 -0.326821 0.118353 37.000000
3.797012 -0.338472 0.118353 49.000000
3.792969 -0.349844 0.118288 57.000000
3.789887 -0.361290 0.118245 48.000000
3.786770 -0.372721 0.118201 34.000000
3.783620 -0.384135 0.118158 34.000000
3.779440 -0.395430 0.118093 38.000000
3.777215 -0.406917 0.118071 49.000000
3.770981 -0.417954 0.117963 40.000000
3.768687 -0.429408 0.117942 42.000000
3.762387 -0.440389 0.117833 49.000000
3.763997 -0.452286 0.117898 53.000000
3.765568 -0.464198 0.117963 40.000000
3.767102 -0.476124 0.118028 49.000000
3.765623 -0.487679 0.118028 39.000000
3.767083 -0.499623 0.118093 34.000000
3.760579 -0.510507 0.117985 33.000000
3.758995 -0.522042 0.117985 43.000000
3.746487 -0.532029 0.117747 36.000000
3.741869 -0.543090 0.117682 45.000000
3.736228 -0.553982 0.117595 48.000000
3.730557 -0.564845 0.117509 60.000000
3.725843 -0.575830 0.117444 44.000000
3.723071 -0.587103 0.117422 45.000000
3.716316 -0.597730 0.117314 49.000000
3.715452 -0.609290 0.117336 51.000000
3.714551 -0.620851 0.117357 44.000000
3.707701 -0.631406 0.117249 45.000000
3.702791 -0.642267 0.117184 42.000000
3.705726 -0.654491 0.117292 34.000000
3.696813 -0.664621 0.117141 35.000000
3.696723 -0.676319 0.117184 34.000000
3.688733 -0.686561 0.117054 34.000000
3.683662 -0.697318 0.116989 34.000000
3.684451 -0.709182 0.117054 36.000000
3.681276 -0.720291 0.117033 33.000000
3.674146 -0.730608 0.116925 41.000000
3.671887 -0.741877 0.116925 41.000000
3.658821 -0.750931 0.116686 41.000000
3.650627 -0.760930 0.116557 22.000000
3.640450 -0.770473 0.116383 45.000000
3.636114 -0.781219 0.116340 29.000000
3.630769 -0.791732 0.116275 36.000000
3.623442 -0.801789 0.116167 33.000000
3.621941 -0.813121 0.116189 27.000000
3.930807 -0.012611 0.072396 43.000000
3.923750 -0.024626 0.072331 33.000000
3.925657 -0.036683 0.072350 40.000000
3.921526 -0.048676 0.072313 61.000000
3.916359 -0.060629 0.072266 48.000000
3.911156 -0.072551 0.072220 48.000000
3.906916 -0.084463 0.072183 51.000000
3.904639 -0.096399 0.072165 68.000000
3.900326 -0.108267 0.072128 47.000000
3.894979 -0.120078 0.072081 62.000000
3.892593 -0.131959 0.072063 57.000000
3.884176 -0.143604 0.071989 44.000000
3.880719 -0.155400 0.071961 40.000000
3.873231 -0.167002 0.071896 50.000000
3.866707 -0.178607 0.071841 40.000000
3.863145 -0.190321 0.071813 53.000000
3.860546 -0.202068 0.071795 37.000000
3.858909 -0.213855 0.071785 38.000000
3.856239 -0.225576 0.071767 37.000000
3.853532 -0.237283 0.071748 48.000000
3.851788 -0.249040 0.071739 51.000000
3.844023 -0.260382 0.071674 51.000000
3.837221 -0.271749 0.071619 50.000000
3.827394 -0.282856 0.071536 51.000000
3.822520 -0.294290 0.071499 41.000000
3.817612 -0.305696 0.071462 58.000000
3.813667 -0.317158 0.071434 43.000000
3.808691 -0.328513 0.071397 47.000000
3.808661 -0.340285 0.071406 49.000000
3.806603 -0.351876 0.071397 49.000000
3.803515 -0.363362 0.071378 64.000000
3.793427 -0.374146 0.071295 42.000000
3.790271 -0.385579 0.071277 42.000000
3.789070 -0.397206 0.071277 48.000000
3.785846 -0.408614 0.071258 61.000000
3.782586 -0.420006 0.071240 58.000000
3.776313 -0.431041 0.071193 58.000000
3.771000 -0.442158 0.071156 57.000000
3.772604 -0.454084 0.071184 48.000000
3.767223 -0.465166 0.071147 39.000000
3.760818 -0.476093 0.071101 46.000000
3.758348 -0.487500 0.071092 52.000000
3.752870 -0.498501 0.071055 63.000000
3.751323 -0.510012 0.071055 47.000000
3.743798 -0.520692 0.070999 61.000000
3.735253 -0.531189 0.070934 46.000000
3.730637 -0.542214 0.070907 54.000000
3.727967 -0.553510 0.070897 56.000000
3.725263 -0.564795 0.070888 46.000000
3.724501 -0.576374 0.070897 45.000000
3.715801 -0.586706 0.070833 45.000000
3.711022 -0.597625 0.070805 46.000000
3.706211 -0.608522 0.070777 37.000000
3.700382 -0.619229 0.070740 40.000000
3.691564 -0.629401 0.070675 47.000000
3.684690 -0.639868 0.070629 61.000000
3.683694 -0.651343 0.070638 54.000000
3.677742 -0.661933 0.070601 45.000000
3.677661 -0.673573 0.070620 64.000000
3.674594 -0.684670 0.070611 61.000000
3.673459 -0.696126 0.070620 50.000000
3.670325 -0.707204 0.070611 45.000000
3.675006 -0.719807 0.070675 43.000000
3.676704 -0.731860 0.070712 28.000000
3.674441 -0.743136 0.070712 37.000000
3.670185 -0.754003 0.070694 46.000000
3.666875 -0.765055 0.070685 40.000000
3.712444 -0.786461 0.071138 17.000000
3.906480 -0.059649 0.023276 38.000000
3.904279 -0.071597 0.023283 55.000000
3.901042 -0.083512 0.023293 39.000000
3.895769 -0.095359 0.023309 40.000000
3.892459 -0.107229 0.023319 56.000000
3.887114 -0.119019 0.023336 40.000000
3.883732 -0.130844 0.023346 59.000000
3.876317 -0.142503 0.023369 53.000000
3.871865 -0.154237 0.023382 54.000000
3.867377 -0.165944 0.023396 47.000000
3.861855 -0.177580 0.023412 45.000000
3.854300 -0.189087 0.023436 37.000000
3.848709 -0.200652 0.023452 46.000000
3.845080 -0.212294 0.023462 53.000000
3.841415 -0.223916 0.023472 49.000000
3.839712 -0.235639 0.023475 64.000000
3.836975 -0.247290 0.023482 33.000000
3.830212 -0.258658 0.023502 42.000000
3.827405 -0.270268 0.023508 50.000000
3.823566 -0.281789 0.023518 51.000000
3.817698 -0.293137 0.023535 50.000000
3.815784 -0.304769 0.023538 41.000000
3.810845 -0.316145 0.023552 39.000000
3.807864 -0.327664 0.023558 41.000000
3.804849 -0.339168 0.023565 40.000000
3.798811 -0.350382 0.023581 43.000000
3.792742 -0.361562 0.023598 46.000000
3.787633 -0.372805 0.023611 40.000000
3.780502 -0.383820 0.023631 59.000000
3.777318 -0.395209 0.023638 52.000000
3.773104 -0.406475 0.023648 35.000000
3.768858 -0.417719 0.023658 42.000000
3.763584 -0.428828 0.023671 39.000000
3.762251 -0.440373 0.023671 46.000000
3.761875 -0.452032 0.023668 45.000000
3.759478 -0.463449 0.023671 33.000000
3.749109 -0.473855 0.023701 51.000000
3.741687 -0.484586 0.023721 45.000000
3.736218 -0.495539 0.023734 53.000000
3.736662 -0.507267 0.023727 38.000000
3.723201 -0.517082 0.023767 51.000000
3.718627 -0.528081 0.023777 43.000000
3.714020 -0.539057 0.023787 49.000000
3.712349 -0.550449 0.023787 44.000000
3.710643 -0.561836 0.023787 52.000000
3.708902 -0.573217 0.023787 43.000000
3.704162 -0.584127 0.023797 52.000000
3.699390 -0.595013 0.023807 52.000000
3.695574 -0.606037 0.023814 59.000000
3.688766 -0.616549 0.023830 56.000000
3.681927 -0.627025 0.023847 46.000000
3.673089 -0.637124 0.023870 38.000000
3.668163 -0.647869 0.023880 44.000000
3.663205 -0.658590 0.023890 36.000000
3.659199 -0.669466 0.023896 40.000000
3.662045 -0.681603 0.023880 30.000000
3.665832 -0.693949 0.023860 39.000000
3.695111 -0.711230 0.023754 26.000000
3.686041 -0.721222 0.023777 34.000000
3.768164 -0.749273 0.023492 11.000000
4.158928 -0.840121 0.022162 27.000000
4.171025 -0.855888 0.022112 19.000000
4.194813 -0.874182 0.022023 26.000000
4.223420 -0.893663 0.021917 30.000000
4.214792 -0.905357 0.021937 20.000000
3.894363 -0.094790 -0.024767 29.000000
3.884059 -0.106462 -0.024610 41.000000
3.881716 -0.118317 -0.024579 33.000000
3.879335 -0.130158 -0.024548 46.000000
3.872922 -0.141839 -0.024453 40.000000
3.868473 -0.153561 -0.024390 49.000000
3.858993 -0.165043 -0.024249 50.000000
3.851477 -0.176560 -0.024139 40.000000
3.848920 -0.188278 -0.024108 46.000000
3.841334 -0.199721 -0.023998 65.000000
3.842700 -0.211615 -0.024029 54.000000
3.840037 -0.223287 -0.023998 59.000000
3.834343 -0.234761 -0.023919 52.000000
3.833605 -0.246524 -0.023919 47.000000
3.829838 -0.258082 -0.023872 58.000000
3.823043 -0.269408 -0.023778 45.000000
3.816216 -0.280695 -0.023684 47.000000
3.810352 -0.292019 -0.023605 57.000000
3.806448 -0.303469 -0.023558 37.000000
3.807492 -0.315311 -0.023589 52.000000
3.804515 -0.326820 -0.023558 59.000000
3.803494 -0.338490 -0.023558 73.000000
3.793477 -0.349331 -0.023417 44.000000
3.792387 -0.360968 -0.023417 64.000000
3.784296 -0.371916 -0.023307 46.000000
3.778164 -0.383019 -0.023228 40.000000
3.771004 -0.393985 -0.023134 55.000000
3.765801 -0.405124 -0.023071 48.000000
3.763547 -0.416565 -0.023055 61.000000
3.761257 -0.427997 -0.023040 52.000000
3.758934 -0.439418 -0.023024 62.000000
3.756575 -0.450829 -0.023008 49.000000
3.751205 -0.461862 -0.022945 63.000000
3.743818 -0.472617 -0.022851 54.000000
3.734417 -0.483073 -0.022725 55.000000
3.731927 -0.494397 -0.022710 40.000000
3.721475 -0.504634 -0.022568 45.000000
3.716938 -0.515636 -0.022521 38.000000
3.709399 -0.526194 -0.022427 56.000000
3.709747 -0.537859 -0.022458 58.000000
3.706101 -0.548945 -0.022427 46.000000
3.707365 -0.560761 -0.022474 58.000000
3.707604 -0.572438 -0.022506 47.000000
3.705830 -0.583810 -0.022506 45.000000
3.703034 -0.595018 -0.022490 40.000000
3.698231 -0.605890 -0.022443 40.000000
3.690438 -0.616245 -0.022349 45.000000
3.693458 -0.628403 -0.022427 47.000000
3.680676 -0.637852 -0.022254 51.000000
3.700364 -0.652966 -0.022600 41.000000
3.725898 -0.669268 -0.023040 21.000000
3.753334 -0.686093 -0.023511 27.000000
3.821005 -0.710591 -0.024626 18.000000
4.087995 -0.773254 -0.028930 53.000000
4.089531 -0.786548 -0.028993 42.000000
4.089061 -0.799475 -0.029024 20.000000
4.120914 -0.818840 -0.029574 31.000000
4.158565 -0.839595 -0.030218 22.000000
4.174580 -0.856168 -0.030516 28.000000
4.197384 -0.874275 -0.030925 21.000000
4.210333 -0.890460 -0.031176 25.000000
4.215402 -0.905052 -0.031302 26.000000
4.224329 -0.920537 -0.031490 21.000000
4.207817 -0.930469 -0.031270 6.000000
3.872854 -0.142377 -0.070957 30.000000
3.864408 -0.153942 -0.070735 34.000000
3.856927 -0.165499 -0.070541 37.000000
3.851408 -0.177103 -0.070402 56.000000
3.847852 -0.188772 -0.070319 39.000000
3.840266 -0.200214 -0.070125 44.000000
3.834644 -0.211721 -0.069986 48.000000
3.827988 -0.223137 -0.069820 55.000000
3.820301 -0.234454 -0.069625 45.000000
3.817569 -0.246045 -0.069570 44.000000
3.811809 -0.257421 -0.069431 48.000000
3.807013 -0.268834 -0.069320 56.000000
3.801186 -0.280147 -0.069181 47.000000
3.797318 -0.291579 -0.069098 38.000000
3.790427 -0.302751 -0.068932 41.000000
3.791473 -0.314544 -0.068987 31.000000
3.779534 -0.325235 -0.068682 40.000000
3.775532 -0.336563 -0.068599 50.000000
3.770500 -0.347779 -0.068488 40.000000
3.770410 -0.359440 -0.068515 53.000000
3.766305 -0.370713 -0.068432 38.000000
3.768133 -0.382568 -0.068515 43.000000
3.765948 -0.394023 -0.068488 50.000000
3.762733 -0.405361 -0.068432 44.000000
3.756504 -0.416354 -0.068293 50.000000
3.751236 -0.427425 -0.068182 49.000000
3.741965 -0.438005 -0.067961 32.000000
3.742588 -0.449721 -0.068016 54.000000
3.739206 -0.460957 -0.067961 31.000000
3.736783 -0.472301 -0.067933 42.000000
3.733334 -0.483507 -0.067877 48.000000
3.735796 -0.495483 -0.067988 34.000000
3.729306 -0.506271 -0.067850 40.000000
3.720804 -0.516750 -0.067655 43.000000
3.714252 -0.527461 -0.067517 36.000000
3.705692 -0.537851 -0.067322 46.000000
3.702047 -0.548925 -0.067267 40.000000
3.697380 -0.559832 -0.067184 43.000000
3.692681 -0.570716 -0.067100 40.000000
3.699800 -0.583441 -0.067350 46.000000
3.700954 -0.595264 -0.067433 32.000000
3.708974 -0.608230 -0.067711 43.000000
3.719909 -0.621745 -0.068072 47.000000
3.787953 -0.645047 -0.070042 17.000000
3.905137 -0.677300 -0.073399 26.000000
4.042830 -0.713922 -0.077339 41.000000
4.058331 -0.729500 -0.077839 38.000000
4.084591 -0.747155 -0.078643 54.000000
4.088176 -0.760779 -0.078810 39.000000
4.099574 -0.775916 -0.079198 29.000000
4.108954 -0.790753 -0.079531 27.000000
4.106509 -0.803356 -0.079531 43.000000
4.129517 -0.821011 -0.080253 25.000000
4.132858 -0.834863 -0.080419 31.000000
4.145946 -0.850749 -0.080863 28.000000
4.169739 -0.868963 -0.081612 20.000000
4.178791 -0.884232 -0.081945 26.000000
4.200493 -0.902290 -0.082639 28.000000
4.214309 -0.918788 -0.083110 30.000000
4.219279 -0.933438 -0.083332 22.000000
4.240780 -0.951845 -0.084026 13.000000
3.869793 -0.177402 -0.119450 18.000000
3.839291 -0.187806 -0.118241 37.000000
3.830714 -0.199168 -0.117918 57.000000
3.823102 -0.210534 -0.117636 71.000000
3.817450 -0.221972 -0.117435 50.000000
3.814756 -0.233560 -0.117354 42.000000
3.808039 -0.244877 -0.117112 36.000000
3.804279 -0.256357 -0.116991 49.000000
3.800485 -0.267816 -0.116870 46.000000
3.794663 -0.279108 -0.116669 40.000000
3.794785 -0.290825 -0.116709 47.000000
3.790887 -0.302227 -0.116588 54.000000
3.784963 -0.313443 -0.116387 39.000000
3.778011 -0.324540 -0.116145 51.000000
3.775007 -0.335952 -0.116064 63.000000
3.771968 -0.347348 -0.115984 46.000000
3.762928 -0.358161 -0.115661 49.000000
3.758828 -0.369410 -0.115540 51.000000
3.757676 -0.380940 -0.115540 47.000000
3.754503 -0.392259 -0.115460 38.000000
3.754275 -0.403883 -0.115500 51.000000
3.748053 -0.414849 -0.115298 51.000000
3.741798 -0.425780 -0.115097 51.000000
3.739482 -0.437142 -0.115057 56.000000
3.736139 -0.448374 -0.114976 50.000000
3.730779 -0.459346 -0.114815 43.000000
3.726378 -0.470413 -0.114694 38.000000
3.723927 -0.481715 -0.114654 50.000000
3.726394 -0.493663 -0.114815 56.000000
3.718921 -0.504287 -0.114573 51.000000
3.714387 -0.515282 -0.114452 56.000000
3.710810 -0.526394 -0.114371 42.000000
3.708189 -0.537633 -0.114331 54.000000
3.712452 -0.549886 -0.114573 35.000000
3.723591 -0.563217 -0.115097 33.000000
3.716908 -0.573875 -0.114895 48.000000
3.740792 -0.589321 -0.115943 38.000000
3.948108 -0.634423 -0.124488 22.000000
4.094047 -0.670780 -0.130534 43.000000
4.101825 -0.684984 -0.130937 48.000000
4.094779 -0.696726 -0.130736 42.000000
4.106405 -0.711676 -0.131300 62.000000
4.093379 -0.722359 -0.130857 42.000000
4.093110 -0.735268 -0.130937 46.000000
4.095749 -0.748721 -0.131139 48.000000
4.095398 -0.761648 -0.131219 48.000000
4.100896 -0.775696 -0.131542 40.000000
4.107328 -0.789973 -0.131905 54.000000
4.106845 -0.802954 -0.131985 42.000000
4.116124 -0.817887 -0.132469 38.000000
4.126327 -0.833083 -0.132993 28.000000
4.129624 -0.846944 -0.133235 37.000000
4.146570 -0.863686 -0.134041 29.000000
4.158564 -0.879506 -0.134645 32.000000
4.172454 -0.895827 -0.135331 43.000000
4.190187 -0.913094 -0.136177 27.000000
4.201025 -0.928966 -0.136741 20.000000
4.209854 -0.944476 -0.137225 17.000000
3.822159 -0.224133 -0.163649 27.000000
3.810489 -0.235184 -0.163073 43.000000
3.803770 -0.246488 -0.162759 38.000000
3.799010 -0.257887 -0.162550 39.000000
3.791228 -0.269049 -0.162183 39.000000
3.783414 -0.280165 -0.161817 50.000000
3.775567 -0.291235 -0.161451 47.000000
3.771669 -0.302578 -0.161294 51.000000
3.770723 -0.314148 -0.161294 55.000000
3.769741 -0.325715 -0.161294 56.000000
3.766735 -0.337102 -0.161189 48.000000
3.765683 -0.348656 -0.161189 67.000000
3.758631 -0.359639 -0.160875 45.000000
3.754528 -0.370875 -0.160718 35.000000
3.746418 -0.381685 -0.160352 31.000000
3.734304 -0.392034 -0.159776 47.000000
3.732091 -0.403382 -0.159724 63.000000
3.732821 -0.415050 -0.159828 48.000000
3.729546 -0.426274 -0.159724 59.000000
3.728220 -0.437714 -0.159724 55.000000
3.723885 -0.448792 -0.159567 40.000000
3.722491 -0.460215 -0.159567 39.000000
3.721061 -0.471633 -0.159567 52.000000
3.713655 -0.482277 -0.159253 32.000000
3.715128 -0.494062 -0.159410 37.000000
3.712605 -0.505323 -0.159357 33.000000
3.717961 -0.517673 -0.159724 36.000000
3.724265 -0.530201 -0.160142 48.000000
3.743374 -0.544637 -0.161241 27.000000
3.947153 -0.586593 -0.172127 22.000000
4.073693 -0.618140 -0.178931 36.000000
4.130991 -0.639789 -0.182071 52.000000
4.125064 -0.651837 -0.181862 43.000000
4.127975 -0.665282 -0.182123 64.000000
4.125914 -0.677944 -0.182123 41.000000
4.114950 -0.689117 -0.181652 48.000000
4.106910 -0.700732 -0.181338 38.000000
4.101789 -0.712816 -0.181181 45.000000
4.098599 -0.725223 -0.181129 36.000000
4.096355 -0.737794 -0.181129 46.000000
4.098001 -0.751077 -0.181338 37.000000
4.098623 -0.764194 -0.181495 40.000000
4.101166 -0.777694 -0.181757 50.000000
4.106605 -0.791783 -0.182176 45.000000
4.111017 -0.805721 -0.182542 41.000000
4.115382 -0.819693 -0.182908 40.000000
4.120678 -0.833897 -0.183327 42.000000
4.124949 -0.847941 -0.183693 35.000000
4.130149 -0.862223 -0.184112 40.000000
4.142138 -0.877992 -0.184897 42.000000
4.150165 -0.893003 -0.185473 40.000000
4.160090 -0.908498 -0.186153 24.000000
4.172884 -0.924709 -0.186991 24.000000
4.180745 -0.939914 -0.187566 31.000000
4.189526 -0.955397 -0.188194 18.000000
4.192413 -0.969594 -0.188508 12.000000
3.791643 -0.267192 -0.209264 37.000000
3.785830 -0.278457 -0.208941 32.000000
3.776998 -0.289460 -0.208423 48.000000
3.775097 -0.300967 -0.208358 48.000000
3.774156 -0.312547 -0.208358 40.000000
3.769202 -0.323783 -0.208099 36.000000
3.764215 -0.334991 -0.207841 62.000000
3.761183 -0.346354 -0.207711 58.000000
3.756129 -0.357513 -0.207452 45.000000
3.754021 -0.368937 -0.207388 62.000000
3.743936 -0.379546 -0.206805 53.000000
3.736799 -0.390408 -0.206417 50.000000
3.732608 -0.401550 -0.206223 57.000000
3.729374 -0.412779 -0.206094 71.000000
3.727099 -0.424106 -0.206029 61.000000
3.730736 -0.436119 -0.206352 37.000000
3.723436 -0.446848 -0.205964 36.000000
3.727989 -0.459002 -0.206352 55.000000
3.738444 -0.471938 -0.207129 36.000000
3.744896 -0.484430 -0.207647 36.000000
3.805715 -0.504180 -0.211723 30.000000
4.174965 -0.566175 -0.235988 17.000000
4.178151 -0.579667 -0.236312 44.000000
4.169437 -0.591501 -0.235859 38.000000
4.166615 -0.604146 -0.235794 37.000000
4.168691 -0.617512 -0.236053 59.000000
4.157896 -0.628954 -0.235470 51.000000
4.152988 -0.641250 -0.235276 55.000000
4.150016 -0.653833 -0.235212 44.000000
4.149961 -0.666879 -0.235341 45.000000
4.151834 -0.680253 -0.235600 66.000000
4.149728 -0.692988 -0.235600 44.000000
4.144631 -0.705213 -0.235406 39.000000
4.142448 -0.717925 -0.235406 41.000000
4.131382 -0.729069 -0.234823 40.000000
4.128143 -0.741564 -0.234759 48.000000
4.128794 -0.754764 -0.234953 35.000000
4.124496 -0.767063 -0.234823 30.000000
4.122124 -0.779713 -0.234823 38.000000
4.125592 -0.793487 -0.235212 37.000000
4.130973 -0.807673 -0.235729 38.000000
4.136305 -0.821900 -0.236247 38.000000
4.132786 -0.834388 -0.236182 28.000000
4.129229 -0.846863 -0.236117 27.000000
4.127589 -0.859731 -0.236182 27.000000
4.124932 -0.872390 -0.236182 22.000000
4.130041 -0.886717 -0.236700 16.000000
4.125351 -0.898959 -0.236570 25.000000
4.137189 -0.914844 -0.237541 24.000000
4.148968 -0.930811 -0.238512 22.000000
4.154850 -0.945529 -0.239094 35.000000
4.178182 -0.964333 -0.240841 23.000000
4.173261 -0.976692 -0.240712 31.000000
4.210052 -0.998940 -0.243365 10.000000
3.766782 -0.302188 -0.252716 21.000000
3.760869 -0.313330 -0.252333 39.000000
3.750950 -0.324097 -0.251644 38.000000
3.742986 -0.334984 -0.251108 41.000000
3.740948 -0.346374 -0.251032 30.000000
3.740860 -0.357944 -0.251108 30.000000
3.739744 -0.369419 -0.251108 46.000000
3.735618 -0.380588 -0.250879 26.000000
3.735424 -0.392151 -0.250955 42.000000
3.738168 -0.404037 -0.251261 34.000000
3.728983 -0.414624 -0.250649 25.000000
3.731657 -0.426514 -0.250955 34.000000
3.730330 -0.437961 -0.250955 37.000000
3.729959 -0.449522 -0.251032 28.000000
4.001684 -0.494644 -0.272158 5.000000
4.206504 -0.559254 -0.288386 17.000000
4.228480 -0.575376 -0.290223 15.000000
4.214844 -0.586700 -0.289304 22.000000
4.188345 -0.596123 -0.287391 39.000000
4.178603 -0.607823 -0.286778 29.000000
4.172773 -0.620055 -0.286472 36.000000
4.166908 -0.632257 -0.286166 41.000000
4.160022 -0.644276 -0.285783 44.000000
4.155071 -0.656570 -0.285554 36.000000
4.155991 -0.669790 -0.285783 35.000000
4.152932 -0.682375 -0.285707 36.000000
4.148852 -0.694784 -0.285554 38.000000
4.144735 -0.707175 -0.285400 32.000000
4.141564 -0.719717 -0.285324 55.000000
4.132463 -0.731205 -0.284788 27.000000
4.135108 -0.744763 -0.285171 41.000000
4.131822 -0.757266 -0.285094 34.000000
4.134380 -0.770851 -0.285477 22.000000
4.131016 -0.783346 -0.285400 32.000000
4.130551 -0.796393 -0.285554 27.000000
4.135917 -0.810594 -0.286166 25.000000
4.128521 -0.822306 -0.285783 36.000000
4.125979 -0.834968 -0.285783 40.000000
4.116561 -0.846219 -0.285247 26.000000
4.111993 -0.858438 -0.285094 28.000000
4.111291 -0.871462 -0.285247 45.000000
4.112497 -0.884909 -0.285554 33.000000
4.103918 -0.896247 -0.285094 30.000000
4.106990 -0.910126 -0.285554 50.000000
4.110016 -0.924033 -0.286013 43.000000
4.122716 -0.940181 -0.287238 30.000000
4.139242 -0.957312 -0.288768 23.000000
4.129490 -0.968415 -0.288233 40.000000
4.148812 -0.986378 -0.289993 16.000000
3.761070 -0.347662 -0.298846 29.000000
3.757011 -0.358915 -0.298579 37.000000
3.748953 -0.369755 -0.297958 36.000000
3.742846 -0.380750 -0.297515 47.000000
3.735717 -0.391607 -0.296983 58.000000
3.716673 -0.401141 -0.295386 27.000000
3.708495 -0.411771 -0.294764 10.000000
4.245801 -0.564030 -0.343916 14.000000
4.241089 -0.576650 -0.343649 18.000000
4.209704 -0.585540 -0.340988 28.000000
4.201971 -0.597610 -0.340456 28.000000
4.188290 -0.608778 -0.339391 37.000000
4.180490 -0.620747 -0.338859 41.000000
4.168718 -0.632075 -0.337971 49.000000
4.160854 -0.643947 -0.337439 43.000000
4.156891 -0.656398 -0.337262 35.000000
4.153874 -0.668990 -0.337173 41.000000
4.158682 -0.682861 -0.337794 39.000000
4.156568 -0.695617 -0.337794 33.000000
4.155396 -0.708533 -0.337883 44.000000
4.160072 -0.722472 -0.338504 44.000000
4.152932 -0.734364 -0.338060 52.000000
4.153600 -0.747631 -0.338326 46.000000
4.149328 -0.760011 -0.338149 54.000000
4.145018 -0.772373 -0.337971 38.000000
4.151436 -0.786756 -0.338770 22.000000
4.138245 -0.797414 -0.337794 41.000000
4.137733 -0.810490 -0.337971 32.000000
4.133274 -0.822791 -0.337794 30.000000
4.130730 -0.835468 -0.337794 38.000000
4.126196 -0.847736 -0.337616 41.000000
4.118701 -0.859373 -0.337173 33.000000
4.114096 -0.871592 -0.336995 47.000000
4.112377 -0.884419 -0.337084 42.000000
4.103805 -0.895757 -0.336552 29.000000
4.102010 -0.908558 -0.336641 27.000000
4.102119 -0.921794 -0.336907 33.000000
4.106069 -0.935925 -0.337528 34.000000
4.117735 -0.951884 -0.338859 25.000000
4.119644 -0.965650 -0.339302 34.000000
4.144764 -0.984965 -0.341875 17.000000
4.152375 -1.000244 -0.342851 17.000000
4.183154 -1.021249 -0.345956 8.000000
4.238002 -0.575919 -0.397407 16.000000
4.210594 -0.585363 -0.394775 26.000000
4.199914 -0.597021 -0.393864 28.000000
4.181324 -0.607476 -0.392143 51.000000
4.175504 -0.619718 -0.391739 27.000000
4.164730 -0.631186 -0.390827 25.000000
4.167690 -0.644720 -0.391334 46.000000
4.166676 -0.657658 -0.391435 45.000000
4.173478 -0.671859 -0.392346 25.000000
4.177289 -0.685625 -0.392953 30.000000
4.189884 -0.700895 -0.394472 20.000000
4.175945 -0.711744 -0.393257 32.000000
4.172761 -0.724382 -0.393156 45.000000
4.175418 -0.738045 -0.393662 33.000000
4.186842 -0.753314 -0.395079 23.000000
4.191363 -0.767408 -0.395788 28.000000
4.179207 -0.778444 -0.394775 48.000000
4.175822 -0.791077 -0.394674 42.000000
4.160675 -0.801442 -0.393358 22.000000
4.153315 -0.813249 -0.392852 31.000000
4.148849 -0.825599 -0.392650 31.000000
4.137520 -0.836552 -0.391739 28.000000
4.128111 -0.847842 -0.391030 25.000000
4.123543 -0.860097 -0.390827 37.000000
4.116018 -0.871715 -0.390321 38.000000
4.113325 -0.884339 -0.390321 32.000000
4.106704 -0.896107 -0.389916 48.000000
4.099078 -0.907628 -0.389410 41.000000
4.097245 -0.920417 -0.389511 60.000000
4.090521 -0.932100 -0.389107 28.000000
4.096367 -0.946659 -0.390018 28.000000
4.107006 -0.962396 -0.391435 14.000000
4.106937 -0.975680 -0.391739 28.000000
4.109728 -0.989671 -0.392346 25.000000
4.119238 -1.005338 -0.393662 12.000000
4.233686 -0.574893 -0.448062 11.000000
4.227966 -0.587332 -0.447609 19.000000
4.207454 -0.597644 -0.445462 18.000000
4.177086 -0.606407 -0.442184 40.000000
4.176188 -0.619365 -0.442297 32.000000
4.164444 -0.630686 -0.441167 26.000000
4.173291 -0.645130 -0.442410 26.000000
4.164423 -0.656846 -0.441619 38.000000
4.166311 -0.670251 -0.442071 47.000000
4.171099 -0.684156 -0.442862 42.000000
4.171920 -0.697442 -0.443201 43.000000
4.182494 -0.712408 -0.444671 31.000000
4.182247 -0.725576 -0.444897 42.000000
4.188807 -0.739960 -0.445914 31.000000
4.190429 -0.753511 -0.446366 39.000000
4.203734 -0.769227 -0.448175 20.000000
4.200378 -0.781938 -0.448062 13.000000
4.196476 -0.807884 -0.448175 17.000000
4.190078 -0.819991 -0.447723 33.000000
4.175849 -0.830516 -0.446366 31.000000
4.167438 -0.842142 -0.445688 26.000000
4.152182 -0.852325 -0.444219 31.000000
4.139821 -0.863031 -0.443088 34.000000
4.127433 -0.873669 -0.441958 33.000000
4.117933 -0.884866 -0.441167 32.000000
4.114229 -0.897284 -0.441054 35.000000
4.111457 -0.909902 -0.441054 51.000000
4.116401 -0.924253 -0.441958 35.000000
4.117422 -0.937761 -0.442410 27.000000
4.113557 -0.950165 -0.442297 41.000000
4.125133 -0.966181 -0.443993 29.000000
4.125050 -0.979521 -0.444332 31.000000
4.108501 -0.988915 -0.442749 37.000000
4.160468 -1.014942 -0.449192 14.000000
4.215858 -0.599283 -0.499769 23.000000
4.203198 -0.610648 -0.498391 26.000000
4.199343 -0.623249 -0.498140 25.000000
4.193487 -0.635536 -0.497639 17.000000
4.183673 -0.647188 -0.496636 22.000000
4.165007 -0.657395 -0.494505 37.000000
4.161012 -0.669855 -0.494255 30.000000
4.162853 -0.683259 -0.494756 35.000000
4.173459 -0.698152 -0.496385 36.000000
4.179122 -0.712284 -0.497388 34.000000
4.192557 -0.727813 -0.499393 32.000000
4.197145 -0.741879 -0.500271 22.000000
4.201684 -0.755980 -0.501148 37.000000
4.206177 -0.770116 -0.502025 22.000000
4.175729 -0.844266 -0.500020 25.000000
4.162428 -0.854881 -0.498641 21.000000
4.152016 -0.866028 -0.497639 24.000000
4.137691 -0.876299 -0.496135 20.000000
4.127223 -0.887323 -0.495132 25.000000
4.109941 -0.896812 -0.493252 37.000000
4.102327 -0.908346 -0.492625 38.000000
4.093712 -0.919624 -0.491873 49.000000
4.098611 -0.933941 -0.492876 43.000000
4.104427 -0.948519 -0.494004 28.000000
4.113089 -0.963819 -0.495508 28.000000
4.127489 -0.980556 -0.497764 28.000000
4.128320 -0.994143 -0.498265 44.000000
4.155130 -1.014088 -0.502151 21.000000
4.224184 -0.611749 -0.553896 28.000000
4.207590 -0.622530 -0.551834 34.000000
4.196846 -0.634103 -0.550597 30.000000
4.180196 -0.644710 -0.548536 46.000000
4.177220 -0.657377 -0.548398 33.000000
4.173228 -0.669876 -0.548123 36.000000
4.177018 -0.683636 -0.548948 35.000000
4.187602 -0.698568 -0.550735 42.000000
4.196180 -0.713239 -0.552247 38.000000
4.206660 -0.728307 -0.554034 41.000000
4.215136 -0.743102 -0.555545 27.000000
4.212836 -0.756030 -0.555545 35.000000
4.225112 -0.771622 -0.557607 17.000000
4.176782 -0.869224 -0.553621 23.000000
4.167312 -0.880600 -0.552659 20.000000
4.155875 -0.891510 -0.551422 20.000000
4.132796 -0.899829 -0.548536 43.000000
4.126147 -0.911649 -0.547986 31.000000
4.111732 -0.921703 -0.546337 37.000000
4.106954 -0.933873 -0.546062 34.000000
4.109860 -0.947805 -0.546886 45.000000
4.110791 -0.961312 -0.547436 32.000000
4.119388 -0.976662 -0.549086 23.000000
4.122150 -0.990685 -0.549910 29.000000
4.120054 -1.003561 -0.550048 22.000000
4.217569 -0.626699 -0.604770 15.000000
4.193141 -0.636230 -0.601339 35.000000
4.186283 -0.648336 -0.600593 32.000000
4.184274 -0.661176 -0.600593 37.000000
4.186131 -0.674639 -0.601189 30.000000
4.189897 -0.688439 -0.602085 37.000000
4.199468 -0.703246 -0.603875 44.000000
4.204114 -0.717289 -0.604919 28.000000
4.212610 -0.732043 -0.606560 31.000000
4.216187 -0.745996 -0.607455 19.000000
4.206093 -0.757527 -0.606262 13.000000
4.150103 -0.892990 -0.601935 21.000000
4.148309 -0.905929 -0.602085 20.000000
4.144545 -0.918438 -0.601935 26.000000
4.138813 -0.930499 -0.601488 38.000000
4.133047 -0.942533 -0.601040 49.000000
4.130136 -0.955209 -0.601040 48.000000
4.123335 -0.966974 -0.600443 43.000000
4.123235 -0.980305 -0.600891 34.000000
4.130783 -0.995495 -0.602532 22.000000
4.129631 -1.008632 -0.602831 19.000000
4.123637 -1.020585 -0.602383 12.000000
4.203115 -0.622614 -0.654754 23.000000
4.202161 -0.635654 -0.654915 36.000000
4.200191 -0.648543 -0.654915 36.000000
4.201107 -0.661887 -0.655398 38.000000
4.207826 -0.676183 -0.656848 32.000000
4.205731 -0.689089 -0.656848 73.000000
4.217226 -0.704266 -0.659103 49.000000
4.228666 -0.719520 -0.661358 28.000000
4.227411 -0.732659 -0.661519 36.000000
4.232919 -0.746997 -0.662808 55.000000
4.228665 -0.759631 -0.662486 33.000000
4.179518 -0.910768 -0.659425 35.000000
4.175740 -0.923373 -0.659264 34.000000
4.168073 -0.935099 -0.658459 29.000000
4.161335 -0.947005 -0.657814 38.000000
4.155525 -0.959102 -0.657331 32.000000
4.149680 -0.971171 -0.656848 24.000000
4.144761 -0.983442 -0.656526 25.000000
4.139805 -0.995691 -0.656204 19.000000
4.143443 -1.010024 -0.657331 30.000000
4.145115 -1.023915 -0.658137 30.000000
4.148656 -1.038305 -0.659264 26.000000
4.162671 -1.055396 -0.662164 14.000000
4.230309 -0.628589 -0.712081 19.000000
4.226414 -0.641269 -0.711735 24.000000
4.210799 -0.652126 -0.709314 31.000000
4.206833 -0.664735 -0.708968 31.000000
4.213526 -0.679046 -0.710525 38.000000
4.214338 -0.692448 -0.711043 36.000000
4.225794 -0.707648 -0.713465 23.000000
4.220690 -0.720113 -0.712946 32.000000
4.227195 -0.734573 -0.714503 27.000000
4.226861 -0.747881 -0.714849 25.000000
4.225517 -0.761020 -0.715021 19.000000
4.169694 -0.924004 -0.711043 26.000000
4.161073 -0.935497 -0.710006 30.000000
4.160105 -0.948696 -0.710352 29.000000
4.147578 -0.959238 -0.708622 21.000000
4.146533 -0.972407 -0.708968 25.000000
4.144489 -0.985352 -0.709141 33.000000
4.137616 -0.997140 -0.708449 28.000000
4.143149 -1.011930 -0.710006 25.000000
4.140981 -1.024873 -0.710179 35.000000
4.139729 -1.038051 -0.710525 31.000000
4.140343 -1.051715 -0.711216 18.000000
4.230214 -0.641405 -0.763885 34.000000
4.220457 -0.653177 -0.762409 62.000000
4.218432 -0.666122 -0.762409 50.000000
4.213458 -0.678592 -0.761856 45.000000
4.211356 -0.691515 -0.761856 53.000000
4.213092 -0.705082 -0.762594 45.000000
4.218660 -0.719326 -0.764069 46.000000
4.225148 -0.733780 -0.765729 64.000000
4.230619 -0.748109 -0.767205 62.000000
4.239912 -0.763175 -0.769419 72.000000
