ply
format ascii 1.0
element vertex 1192
property float x
property float y
property float z
property float intensity
end_header
4.198284 -0.793058 0.546030 7.000000
4.169502 -0.800885 0.542819 10.000000
4.173848 -0.815003 0.543651 16.000000
4.156718 -0.824909 0.541867 20.000000
4.147354 -0.836286 0.541035 31.000000
4.143796 -0.848807 0.540916 40.000000
4.142145 -0.861718 0.541035 39.000000
4.144339 -0.875446 0.541629 31.000000
4.138721 -0.887533 0.541273 14.000000
4.136949 -0.900437 0.541392 16.000000
4.117684 -0.909489 0.539370 7.000000
4.209424 -0.782108 0.494307 10.000000
4.207004 -0.795019 0.494307 19.000000
4.195758 -0.806233 0.493346 22.000000
4.184483 -0.817385 0.492385 32.000000
4.175128 -0.828863 0.491637 46.000000
4.158921 -0.838914 0.490142 20.000000
4.146587 -0.849673 0.489075 21.000000
4.136174 -0.860769 0.488220 10.000000
4.147132 -0.876334 0.489715 29.000000
4.147341 -0.889679 0.490036 21.000000
4.155278 -0.904726 0.491210 32.000000
4.168016 -0.920904 0.492919 31.000000
4.149649 -0.930206 0.491210 9.000000
4.234368 -0.773748 0.445360 6.000000
4.222187 -0.784918 0.444410 11.000000
4.203130 -0.794729 0.442795 15.000000
4.183074 -0.804242 0.441086 20.000000
4.157138 -0.812495 0.438806 20.000000
4.134120 -0.821178 0.436812 26.000000
4.117919 -0.831104 0.435482 29.000000
4.123152 -0.845331 0.436242 48.000000
4.126387 -0.859193 0.436812 45.000000
4.112044 -0.869380 0.435672 22.000000
4.124931 -0.885330 0.437192 20.000000
4.142622 -0.902425 0.439186 48.000000
4.134974 -0.914057 0.438711 13.000000
4.137979 -0.928044 0.439281 8.000000
4.159380 -0.946249 0.441656 12.000000
4.117398 -0.791168 0.381787 5.000000
4.117354 -0.817388 0.382200 9.000000
4.099569 -0.840034 0.381128 6.000000
4.121871 -0.884213 0.383684 6.000000
4.143614 -0.915510 0.385993 9.000000
4.145648 -0.929309 0.386405 7.000000
4.103557 -0.686478 0.329649 7.000000
4.153550 -0.707933 0.333392 18.000000
4.196570 -0.728508 0.336641 62.000000
4.197262 -0.741900 0.336853 47.000000
4.189075 -0.753715 0.336429 62.000000
4.192631 -0.767640 0.336853 44.000000
4.187314 -0.779952 0.336641 46.000000
4.190782 -0.793907 0.337065 46.000000
4.193224 -0.807702 0.337418 45.000000
4.185832 -0.819606 0.337065 54.000000
4.192103 -0.834194 0.337700 55.000000
4.192458 -0.847644 0.337912 60.000000
4.190814 -0.860702 0.337983 73.000000
4.185224 -0.872945 0.337771 72.000000
4.179599 -0.885162 0.337559 72.000000
4.174912 -0.897562 0.337418 78.000000
4.171165 -0.910154 0.337347 55.000000
4.161535 -0.921439 0.336853 57.000000
4.153822 -0.933110 0.336500 66.000000
4.190818 -0.954925 0.339395 25.000000
4.157738 -0.960823 0.337206 55.000000
4.147972 -0.971983 0.336712 85.000000
4.140117 -0.983553 0.336358 60.000000
4.137080 -0.996250 0.336358 61.000000
4.143696 -1.011300 0.337065 33.000000
4.155099 -1.027596 0.338124 17.000000
4.217728 -1.056808 0.342927 8.000000
4.050895 -0.600052 0.273534 8.000000
4.137871 -0.625923 0.278762 21.000000
4.166516 -0.643340 0.280562 30.000000
4.160578 -0.655498 0.280330 53.000000
4.158548 -0.668260 0.280330 74.000000
4.166329 -0.682630 0.280911 60.000000
4.170124 -0.696396 0.281259 56.000000
4.169935 -0.709521 0.281375 66.000000
4.175608 -0.723676 0.281840 37.000000
4.167470 -0.735441 0.281492 58.000000
4.164211 -0.748047 0.281434 52.000000
4.159933 -0.760460 0.281317 43.000000
4.155617 -0.772853 0.281201 53.000000
4.154208 -0.785785 0.281259 48.000000
4.156679 -0.799469 0.281550 61.000000
4.153227 -0.812026 0.281492 63.000000
4.152674 -0.825154 0.281608 56.000000
4.153059 -0.838483 0.281782 37.000000
4.144599 -0.850016 0.281434 41.000000
4.144904 -0.863339 0.281608 56.000000
4.135399 -0.874605 0.281201 42.000000
4.130744 -0.886868 0.281085 51.000000
4.129955 -0.899962 0.281201 43.000000
4.124249 -0.911982 0.281027 57.000000
4.122406 -0.924849 0.281085 36.000000
4.115656 -0.936606 0.280853 73.000000
4.127354 -0.952597 0.281724 39.000000
4.112747 -0.962524 0.281027 72.000000
4.118517 -0.977212 0.281550 41.000000
4.124235 -0.991945 0.282072 35.000000
4.116323 -1.003411 0.281782 56.000000
4.114195 -1.016274 0.281840 58.000000
4.111057 -1.028892 0.281840 51.000000
4.103043 -1.040272 0.281550 68.000000
4.116270 -1.057078 0.282537 37.000000
4.108177 -1.068445 0.282247 39.000000
4.065299 -1.070616 0.279865 16.000000
3.925827 -0.375585 0.217984 12.000000
3.904774 -0.385669 0.217059 24.000000
3.885684 -0.395830 0.216227 29.000000
3.883457 -0.407646 0.216181 32.000000
3.875236 -0.418809 0.215857 30.000000
3.872940 -0.430586 0.215811 26.000000
3.871601 -0.442466 0.215811 24.000000
3.871218 -0.454458 0.215857 31.000000
3.871789 -0.466571 0.215950 34.000000
3.870339 -0.478447 0.215950 24.000000
3.866871 -0.490068 0.215857 25.000000
3.865349 -0.501929 0.215857 22.000000
3.857850 -0.512997 0.215580 27.000000
3.867146 -0.526309 0.216088 27.000000
3.870460 -0.538858 0.216320 28.000000
3.891536 -0.553961 0.217383 19.000000
3.894761 -0.566615 0.217614 18.000000
3.890039 -0.578122 0.217475 28.000000
3.895161 -0.591101 0.217799 31.000000
3.905176 -0.604880 0.218354 26.000000
3.900342 -0.616391 0.218215 37.000000
3.882652 -0.625815 0.217475 21.000000
3.884657 -0.638371 0.217660 21.000000
3.909282 -0.654733 0.218909 31.000000
3.905286 -0.666388 0.218816 21.000000
3.932750 -0.683489 0.220203 25.000000
3.914895 -0.692771 0.219463 21.000000
3.965842 -0.714325 0.221960 12.000000
3.925310 -0.719476 0.220157 15.000000
3.951563 -0.736817 0.221498 37.000000
3.934562 -0.746150 0.220804 26.000000
3.938140 -0.759350 0.221082 27.000000
3.961280 -0.776417 0.222284 28.000000
3.934386 -0.783695 0.221128 22.000000
3.926089 -0.794574 0.220851 12.000000
3.978430 -0.817864 0.223440 30.000000
3.976880 -0.830270 0.223486 25.000000
4.020246 -0.852190 0.225659 38.000000
4.014682 -0.863890 0.225520 32.000000
3.996397 -0.872797 0.224780 28.000000
4.007356 -0.888076 0.225428 28.000000
3.973423 -0.893363 0.223948 23.000000
4.013519 -0.915310 0.225983 42.000000
4.012639 -0.928068 0.226075 38.000000
4.073965 -0.955410 0.229127 60.000000
4.095312 -0.973674 0.230282 70.000000
4.059285 -0.978285 0.228710 50.000000
4.059175 -0.991445 0.228849 56.000000
4.088116 -1.011804 0.230375 81.000000
4.081117 -1.023371 0.230190 93.000000
4.076021 -1.035396 0.230097 70.000000
4.076695 -1.048890 0.230282 76.000000
4.075392 -1.061896 0.230375 80.000000
4.034443 -1.064465 0.228572 40.000000
3.977109 -1.062416 0.225983 26.000000
3.974796 -1.074873 0.226029 24.000000
3.797074 -1.039378 0.217660 7.000000
3.874197 -0.369443 0.167468 21.000000
3.863100 -0.380347 0.167130 31.000000
3.862909 -0.392298 0.167164 28.000000
3.860693 -0.404043 0.167130 39.000000
3.858442 -0.415778 0.167096 49.000000
3.855161 -0.427393 0.167028 45.000000
3.852839 -0.439106 0.166994 44.000000
3.858422 -0.451738 0.167231 25.000000
3.857018 -0.463573 0.167231 55.000000
3.858553 -0.475772 0.167333 43.000000
3.857075 -0.487607 0.167333 42.000000
3.856553 -0.499567 0.167367 49.000000
3.856983 -0.511659 0.167434 47.000000
3.849453 -0.522682 0.167231 42.000000
3.845852 -0.534215 0.167164 42.000000
3.838258 -0.545167 0.166960 43.000000
3.833600 -0.556509 0.166859 31.000000
3.833852 -0.568561 0.166927 44.000000
3.829125 -0.579872 0.166825 49.000000
3.827328 -0.591617 0.166825 41.000000
3.828456 -0.603823 0.166927 34.000000
3.829546 -0.616042 0.167028 34.000000
3.829611 -0.628112 0.167096 32.000000
3.829637 -0.640188 0.167164 34.000000
3.829625 -0.652270 0.167231 57.000000
3.828591 -0.664187 0.167265 34.000000
3.827520 -0.676104 0.167299 39.000000
3.824443 -0.687666 0.167265 37.000000
3.822316 -0.699396 0.167265 45.000000
3.819170 -0.710937 0.167231 35.000000
3.815988 -0.722464 0.167197 44.000000
3.814735 -0.734357 0.167231 40.000000
3.812464 -0.746057 0.167231 33.000000
3.816039 -0.758920 0.167434 38.000000
3.816632 -0.771218 0.167536 46.000000
3.815227 -0.783125 0.167570 35.000000
3.819654 -0.796255 0.167807 35.000000
3.815238 -0.807555 0.167739 48.000000
3.815674 -0.819887 0.167841 43.000000
3.813141 -0.831589 0.167841 29.000000
3.804717 -0.841988 0.167637 38.000000
3.804066 -0.854094 0.167705 37.000000
3.800453 -0.865539 0.167671 24.000000
3.800701 -0.877870 0.167773 28.000000
3.802855 -0.890666 0.167942 39.000000
3.798160 -0.901867 0.167874 40.000000
3.796347 -0.913749 0.167908 34.000000
3.792555 -0.925155 0.167874 52.000000
3.786788 -0.936066 0.167773 30.000000
3.784868 -0.947922 0.167807 30.000000
3.780005 -0.959038 0.167739 36.000000
3.782852 -0.972123 0.167942 26.000000
3.776950 -0.982969 0.167841 30.000000
3.775850 -0.995062 0.167908 28.000000
3.776642 -1.007672 0.168044 40.000000
3.773532 -1.019254 0.168044 29.000000
3.770388 -1.030826 0.168044 36.000000
3.764318 -1.041589 0.167942 38.000000
3.760142 -1.052863 0.167908 38.000000
3.761702 -1.065757 0.168078 32.000000
3.757454 -1.077017 0.168044 28.000000
3.759891 -1.090210 0.168247 17.000000
3.753652 -1.100896 0.168145 36.000000
3.758880 -1.114966 0.168450 34.000000
3.763099 -1.128790 0.168721 27.000000
3.755793 -1.139169 0.168585 25.000000
3.758969 -1.152738 0.168822 41.000000
3.759233 -1.165450 0.168958 34.000000
3.758501 -1.177874 0.169059 24.000000
3.757728 -1.190305 0.169161 32.000000
3.740733 -1.197561 0.168687 14.000000
3.738943 -1.209647 0.168755 4.000000
3.832684 -0.365357 0.119175 34.000000
3.843485 -0.378285 0.119435 22.000000
3.835343 -0.389370 0.119283 24.000000
3.826176 -0.400305 0.119110 31.000000
3.825924 -0.412149 0.119132 41.000000
3.823648 -0.423775 0.119110 31.000000
3.823323 -0.435616 0.119132 34.000000
3.820976 -0.447228 0.119110 44.000000
3.818593 -0.458830 0.119089 33.000000
3.821136 -0.471031 0.119175 24.000000
3.817689 -0.482502 0.119132 46.000000
3.820157 -0.494724 0.119218 34.000000
3.819613 -0.506573 0.119240 28.000000
3.812096 -0.517484 0.119110 33.000000
3.813461 -0.529589 0.119175 45.000000
3.808849 -0.540865 0.119110 31.000000
3.805193 -0.552261 0.119067 40.000000
3.805459 -0.564225 0.119110 45.000000
3.800744 -0.575450 0.119045 46.000000
3.801925 -0.587565 0.119110 32.000000
3.805043 -0.600003 0.119218 47.000000
3.806145 -0.612149 0.119283 37.000000
3.803263 -0.623662 0.119262 56.000000
3.806262 -0.636150 0.119370 40.000000
3.808235 -0.648495 0.119456 34.000000
3.808197 -0.660516 0.119500 41.000000
3.802215 -0.671502 0.119413 27.000000
3.802105 -0.683517 0.119456 38.000000
3.799007 -0.694999 0.119435 35.000000
3.799806 -0.707199 0.119500 37.000000
3.793689 -0.718111 0.119413 29.000000
3.789504 -0.729369 0.119370 27.000000
3.789211 -0.741375 0.119413 49.000000
3.790841 -0.753775 0.119500 34.000000
3.787530 -0.765204 0.119478 28.000000
3.786145 -0.777021 0.119500 37.000000
3.785701 -0.789041 0.119543 33.000000
3.784240 -0.800858 0.119565 30.000000
3.780788 -0.812254 0.119543 47.000000
3.778278 -0.823850 0.119543 41.000000
3.774757 -0.835222 0.119521 46.000000
3.773152 -0.847017 0.119543 37.000000
3.771510 -0.858811 0.119565 42.000000
3.774703 -0.871726 0.119694 31.000000
3.776878 -0.884441 0.119803 34.000000
3.775120 -0.896254 0.119824 45.000000
3.774297 -0.908299 0.119868 38.000000
3.767607 -0.918928 0.119781 41.000000
3.766711 -0.930962 0.119824 36.000000
3.760927 -0.941786 0.119759 49.000000
3.754144 -0.952337 0.119673 39.000000
3.753141 -0.964347 0.119716 37.000000
3.746294 -0.974852 0.119630 39.000000
3.740386 -0.985577 0.119565 30.000000
3.744107 -0.998850 0.119716 30.000000
3.742955 -1.010852 0.119759 22.000000
3.742730 -1.023121 0.119824 39.000000
3.740537 -1.034865 0.119846 39.000000
3.740233 -1.047144 0.119911 31.000000
3.744699 -1.060791 0.120084 34.000000
3.742388 -1.072550 0.120106 33.000000
3.738119 -1.083748 0.120084 36.000000
3.731898 -1.094368 0.120019 40.000000
3.732358 -1.106948 0.120106 30.000000
3.733732 -1.119829 0.120214 36.000000
3.726452 -1.130119 0.120127 44.000000
3.729659 -1.143596 0.120279 58.000000
3.729953 -1.156216 0.120365 31.000000
3.728296 -1.168251 0.120409 28.000000
3.730414 -1.181493 0.120538 26.000000
3.724867 -1.192323 0.120495 26.000000
3.793561 -0.362410 0.071286 24.000000
3.795417 -0.374342 0.071314 29.000000
3.792261 -0.385782 0.071295 40.000000
3.796032 -0.397936 0.071341 34.000000
3.796782 -0.409795 0.071360 48.000000
3.795506 -0.421442 0.071360 49.000000
3.796182 -0.433311 0.071378 44.000000
3.793842 -0.444839 0.071369 39.000000
3.791467 -0.456357 0.071360 47.000000
3.790049 -0.467987 0.071360 45.000000
3.787603 -0.479486 0.071351 47.000000
3.788097 -0.491362 0.071369 35.000000
3.787564 -0.503113 0.071378 35.000000
3.785011 -0.514596 0.071369 36.000000
3.785395 -0.526482 0.071388 33.000000
3.785742 -0.538374 0.071406 41.000000
3.785062 -0.550130 0.071415 48.000000
3.782368 -0.561593 0.071406 45.000000
3.781615 -0.573344 0.071415 32.000000
3.782803 -0.585403 0.071443 34.000000
3.780990 -0.597005 0.071443 39.000000
3.784076 -0.609398 0.071489 43.000000
3.785149 -0.621491 0.071517 38.000000
3.789142 -0.634091 0.071573 29.000000
3.790136 -0.646218 0.071600 40.000000
3.791091 -0.658356 0.071628 29.000000
3.786099 -0.669462 0.071600 34.000000
3.784028 -0.681074 0.071600 38.000000
3.778970 -0.692139 0.071573 27.000000
3.776829 -0.703730 0.071573 43.000000
3.768757 -0.714196 0.071517 67.000000
3.772440 -0.726891 0.071573 37.000000
3.770191 -0.738461 0.071573 39.000000
3.767909 -0.750024 0.071573 41.000000
3.762650 -0.760985 0.071545 31.000000
3.758338 -0.772123 0.071526 31.000000
3.753015 -0.783037 0.071499 29.000000
3.750595 -0.794547 0.071499 37.000000
3.748139 -0.806050 0.071499 38.000000
3.745649 -0.817545 0.071499 40.000000
3.748004 -0.830115 0.071545 41.000000
3.753245 -0.843364 0.071619 38.000000
3.754539 -0.855764 0.071656 38.000000
3.755794 -0.868180 0.071693 49.000000
3.756033 -0.880383 0.071721 42.000000
3.755260 -0.892365 0.071739 41.000000
3.751532 -0.903648 0.071730 37.000000
3.746800 -0.914679 0.071711 33.000000
3.738152 -0.924728 0.071656 44.000000
3.731417 -0.935219 0.071619 36.000000
3.729500 -0.946909 0.071628 37.000000
3.726577 -0.958346 0.071628 41.000000
3.725555 -0.970279 0.071647 29.000000
3.723527 -0.981960 0.071656 33.000000
3.720497 -0.993379 0.071656 28.000000
3.723224 -1.006354 0.071711 49.000000
3.721083 -1.018036 0.071721 42.000000
3.716015 -1.028914 0.071702 33.000000
3.714767 -1.040849 0.071721 34.000000
3.717328 -1.053878 0.071776 41.000000
3.717922 -1.066381 0.071813 38.000000
3.716553 -1.078340 0.071832 33.000000
3.715147 -1.090300 0.071850 33.000000
3.713701 -1.102262 0.071869 44.000000
3.713175 -1.114513 0.071896 31.000000
3.704954 -1.124447 0.071850 24.000000
3.703399 -1.136396 0.071869 36.000000
3.700850 -1.148049 0.071878 40.000000
3.697311 -1.159397 0.071878 39.000000
3.695643 -1.171339 0.071896 30.000000
3.692984 -1.182977 0.071906 35.000000
3.720731 -1.204467 0.072211 8.000000
3.768849 -0.359291 0.023678 23.000000
3.756781 -0.369778 0.023714 37.000000
3.757619 -0.381503 0.023707 25.000000
3.758420 -0.393237 0.023701 30.000000
3.760179 -0.405087 0.023691 37.000000
3.759912 -0.416731 0.023688 43.000000
3.761597 -0.428603 0.023678 50.000000
3.764238 -0.440605 0.023664 34.000000
3.760882 -0.451913 0.023671 33.000000
3.758486 -0.463327 0.023674 53.000000
3.755062 -0.474606 0.023681 38.000000
3.754580 -0.486252 0.023678 49.000000
3.756045 -0.498162 0.023668 44.000000
3.754499 -0.509683 0.023668 40.000000
3.755889 -0.521611 0.023658 47.000000
3.757241 -0.533552 0.023648 46.000000
3.752618 -0.544647 0.023658 32.000000
3.756865 -0.557036 0.023638 31.000000
3.750194 -0.567812 0.023654 33.000000
3.741516 -0.578248 0.023678 39.000000
3.744663 -0.590501 0.023661 41.000000
3.745796 -0.602462 0.023651 34.000000
3.741957 -0.613628 0.023658 43.000000
3.745975 -0.626093 0.023638 42.000000
3.744036 -0.637582 0.023638 51.000000
3.742063 -0.649066 0.023638 40.000000
3.743008 -0.661064 0.023628 40.000000
3.740962 -0.672544 0.023628 41.000000
3.730028 -0.682401 0.023658 21.000000
3.744631 -0.696947 0.023601 40.000000
3.746405 -0.709175 0.023588 34.000000
3.747158 -0.721232 0.023578 33.000000
3.750816 -0.733875 0.023558 37.000000
3.748547 -0.745379 0.023558 49.000000
3.742322 -0.756085 0.023571 46.000000
3.734107 -0.766358 0.023591 48.000000
3.728801 -0.777199 0.023601 38.000000
3.727377 -0.788842 0.023598 39.000000
3.722006 -0.799644 0.023608 36.000000
3.713673 -0.809783 0.023628 36.000000
3.717030 -0.822467 0.023608 43.000000
3.717416 -0.834523 0.023598 42.000000
3.715814 -0.846146 0.023595 53.000000
3.718072 -0.858666 0.023578 51.000000
3.715420 -0.870068 0.023578 61.000000
3.712734 -0.881463 0.023578 41.000000
3.715846 -0.894251 0.023558 47.000000
3.711141 -0.905174 0.023565 36.000000
3.709318 -0.916795 0.023562 45.000000
3.708428 -0.928656 0.023555 40.000000
3.707500 -0.940520 0.023548 37.000000
3.707503 -0.952636 0.023538 35.000000
3.709402 -0.965263 0.023522 27.000000
3.701588 -0.975367 0.023538 46.000000
3.701477 -0.987491 0.023528 37.000000
3.701327 -0.999623 0.023518 37.000000
3.697278 -1.010711 0.023522 53.000000
3.695123 -1.022315 0.023518 40.000000
3.697748 -1.035263 0.023499 38.000000
3.699365 -1.047964 0.023482 36.000000
3.701901 -1.060960 0.023462 41.000000
3.700550 -1.072868 0.023455 35.000000
3.698200 -1.084498 0.023452 41.000000
3.693897 -1.095554 0.023455 43.000000
3.688603 -1.106308 0.023462 40.000000
3.682320 -1.116749 0.023472 36.000000
3.676008 -1.127163 0.023482 34.000000
3.673488 -1.138731 0.023479 48.000000
3.678566 -1.152684 0.023449 29.000000
3.676919 -1.164568 0.023442 33.000000
3.679044 -1.177671 0.023422 33.000000
3.712524 -1.200945 0.023293 13.000000
3.736724 -0.344099 -0.022521 42.000000
3.738637 -0.355846 -0.022568 55.000000
3.740513 -0.367608 -0.022616 60.000000
3.743347 -0.379486 -0.022678 57.000000
3.746143 -0.391385 -0.022741 41.000000
3.746912 -0.403090 -0.022773 58.000000
3.748640 -0.414914 -0.022820 49.000000
3.752316 -0.426978 -0.022898 56.000000
3.751982 -0.438604 -0.022914 64.000000
3.741684 -0.449040 -0.022773 37.000000
3.738304 -0.460273 -0.022741 62.000000
3.728938 -0.470737 -0.022616 49.000000
3.722518 -0.481533 -0.022537 52.000000
3.718050 -0.492557 -0.022490 47.000000
3.714540 -0.503693 -0.022458 36.000000
3.709015 -0.514536 -0.022396 50.000000
3.712369 -0.526616 -0.022474 37.000000
3.709747 -0.537859 -0.022458 41.000000
3.715003 -0.550264 -0.022568 40.000000
3.715274 -0.561958 -0.022600 56.000000
3.714521 -0.573507 -0.022616 48.000000
3.715707 -0.585367 -0.022663 42.000000
3.724753 -0.598510 -0.022835 37.000000
3.724872 -0.610258 -0.022867 53.000000
3.721996 -0.621518 -0.022851 37.000000
3.721058 -0.633102 -0.022867 49.000000
3.723039 -0.645198 -0.022930 43.000000
3.717103 -0.655922 -0.022867 42.000000
3.715073 -0.667323 -0.022867 37.000000
3.711041 -0.678357 -0.022835 38.000000
3.706976 -0.689374 -0.022804 41.000000
3.709756 -0.701673 -0.022883 33.000000
3.709550 -0.713429 -0.022914 36.000000
3.711269 -0.725574 -0.022977 46.000000
3.715890 -0.738321 -0.023087 39.000000
3.715568 -0.750114 -0.023118 30.000000
3.717167 -0.762314 -0.023181 40.000000
3.711874 -0.773102 -0.023134 35.000000
3.711441 -0.784900 -0.023165 40.000000
3.710971 -0.796703 -0.023197 48.000000
3.703624 -0.807020 -0.023118 40.000000
3.699179 -0.817946 -0.023087 35.000000
3.698603 -0.829729 -0.023118 41.000000
3.693115 -0.840407 -0.023071 42.000000
3.696365 -0.853083 -0.023165 38.000000
3.687889 -0.863052 -0.023071 35.000000
3.688142 -0.875055 -0.023118 27.000000
3.685441 -0.886366 -0.023118 42.000000
3.686589 -0.898616 -0.023181 42.000000
3.687698 -0.910881 -0.023244 44.000000
3.686826 -0.922676 -0.023275 42.000000
3.683008 -0.933737 -0.023260 62.000000
3.686906 -0.946774 -0.023369 40.000000
3.685919 -0.958584 -0.023401 50.000000
3.681027 -0.969378 -0.023369 52.000000
3.678035 -0.980667 -0.023369 45.000000
3.675975 -0.992207 -0.023385 29.000000
3.674842 -1.004007 -0.023417 36.000000
3.676564 -1.016610 -0.023495 41.000000
3.683056 -1.030580 -0.023652 22.000000
3.674104 -1.040239 -0.023558 41.000000
3.675702 -1.052884 -0.023637 38.000000
3.675335 -1.064991 -0.023684 38.000000
3.672051 -1.076262 -0.023684 42.000000
3.665855 -1.086669 -0.023637 31.000000
3.660589 -1.097337 -0.023605 37.000000
3.657205 -1.108562 -0.023605 48.000000
3.653787 -1.119777 -0.023605 47.000000
3.653199 -1.131869 -0.023652 40.000000
3.652572 -1.143969 -0.023699 27.000000
3.654765 -1.156980 -0.023794 42.000000
3.651198 -1.168188 -0.023794 51.000000
3.651402 -1.180615 -0.023856 49.000000
3.646812 -1.191501 -0.023841 44.000000
3.649786 -1.204878 -0.023951 13.000000
3.732724 -0.321221 -0.067378 14.000000
3.731721 -0.332672 -0.067378 36.000000
3.724710 -0.343570 -0.067211 43.000000
3.725629 -0.355184 -0.067267 41.000000
3.723527 -0.366515 -0.067239 34.000000
3.720396 -0.377736 -0.067184 30.000000
3.722202 -0.389459 -0.067267 32.000000
3.715026 -0.400236 -0.067100 46.000000
3.713781 -0.411632 -0.067100 34.000000
3.718460 -0.423701 -0.067267 29.000000
3.717143 -0.435107 -0.067267 34.000000
3.713805 -0.446271 -0.067211 43.000000
3.711426 -0.457541 -0.067184 56.000000
3.707030 -0.468550 -0.067100 45.000000
3.702601 -0.479537 -0.067017 40.000000
3.698139 -0.490500 -0.066934 41.000000
3.693646 -0.501441 -0.066851 36.000000
3.690109 -0.512497 -0.066795 40.000000
3.697427 -0.525077 -0.067045 36.000000
3.701734 -0.537278 -0.067211 60.000000
3.702047 -0.548925 -0.067267 34.000000
3.702322 -0.560579 -0.067322 31.000000
3.701572 -0.572087 -0.067350 37.000000
3.698812 -0.583285 -0.067322 44.000000
3.699967 -0.595106 -0.067406 42.000000
3.695163 -0.605970 -0.067322 37.000000
3.693288 -0.617303 -0.067322 30.000000
3.689405 -0.628296 -0.067267 41.000000
3.689430 -0.639953 -0.067322 32.000000
3.686465 -0.651096 -0.067295 31.000000
3.680515 -0.661696 -0.067184 20.000000
3.678467 -0.672985 -0.067184 35.000000
3.672454 -0.683537 -0.067073 37.000000
3.668375 -0.694429 -0.067017 35.000000
3.668191 -0.706058 -0.067073 37.000000
3.665026 -0.717117 -0.067045 24.000000
3.670653 -0.729914 -0.067267 39.000000
3.670356 -0.741568 -0.067322 42.000000
3.670022 -0.753226 -0.067378 35.000000
3.672587 -0.765500 -0.067517 45.000000
3.673156 -0.777384 -0.067600 32.000000
3.670753 -0.788650 -0.067600 33.000000
3.665386 -0.799269 -0.067517 43.000000
3.659012 -0.809648 -0.067406 43.000000
3.656511 -0.820870 -0.067406 49.000000
3.654950 -0.832306 -0.067433 42.000000
3.658224 -0.844863 -0.067600 34.000000
3.661455 -0.857448 -0.067766 48.000000
3.661725 -0.869369 -0.067850 51.000000
3.662928 -0.881534 -0.067961 27.000000
3.666034 -0.894186 -0.068127 38.000000
3.667156 -0.906388 -0.068238 44.000000
3.662418 -0.917149 -0.068182 35.000000
3.661525 -0.928872 -0.068238 37.000000
3.652848 -0.938610 -0.068072 22.000000
3.652854 -0.950567 -0.068155 39.000000
3.650887 -0.962023 -0.068182 43.000000
3.646953 -0.972962 -0.068155 48.000000
3.642020 -0.983626 -0.068099 40.000000
3.640914 -0.995321 -0.068155 43.000000
3.639770 -1.007019 -0.068210 36.000000
3.631850 -1.016835 -0.068072 46.000000
3.635446 -1.029878 -0.068266 47.000000
3.646685 -1.045153 -0.068682 24.000000
3.636740 -1.054390 -0.068488 35.000000
3.640203 -1.067509 -0.068682 36.000000
3.638828 -1.079240 -0.068737 38.000000
3.633585 -1.089825 -0.068682 35.000000
3.636921 -1.102996 -0.068876 33.000000
3.634475 -1.114442 -0.068904 46.000000
3.628175 -1.124700 -0.068821 57.000000
3.624707 -1.135826 -0.068821 27.000000
3.624065 -1.147845 -0.068904 36.000000
3.626239 -1.160785 -0.069070 46.000000
3.629318 -1.174056 -0.069265 68.000000
3.617147 -1.182393 -0.069015 38.000000
3.685648 -1.217288 -0.071124 8.000000
3.696351 -0.340377 -0.112920 33.000000
3.697278 -0.351905 -0.113001 35.000000
3.693198 -0.362953 -0.112880 35.000000
3.693061 -0.374383 -0.112920 50.000000
3.690902 -0.385608 -0.112880 34.000000
3.692682 -0.397250 -0.113001 63.000000
3.691445 -0.408577 -0.113001 57.000000
3.690174 -0.419901 -0.113001 47.000000
3.691846 -0.431568 -0.113122 45.000000
3.693481 -0.443250 -0.113243 53.000000
3.691112 -0.454457 -0.113203 58.000000
3.688709 -0.465654 -0.113162 47.000000
3.689245 -0.477225 -0.113243 45.000000
3.688754 -0.488673 -0.113283 42.000000
3.683277 -0.499450 -0.113122 46.000000
3.680737 -0.510610 -0.113082 47.000000
3.677175 -0.521619 -0.113001 37.000000
3.676546 -0.533042 -0.113041 35.000000
3.684777 -0.545784 -0.113444 54.000000
3.678146 -0.556338 -0.113243 31.000000
3.685309 -0.568993 -0.113606 43.000000
3.686507 -0.580764 -0.113727 46.000000
3.689641 -0.592864 -0.113928 58.000000
3.686818 -0.604019 -0.113888 44.000000
3.685934 -0.615492 -0.113928 46.000000
3.684028 -0.626798 -0.113928 23.000000
3.680119 -0.637756 -0.113847 35.000000
3.675193 -0.648522 -0.113727 38.000000
3.675153 -0.660148 -0.113807 46.000000
3.667213 -0.670341 -0.113565 46.000000
3.663174 -0.681223 -0.113485 49.000000
3.654195 -0.691158 -0.113203 45.000000
3.649114 -0.701799 -0.113082 47.000000
3.648904 -0.713375 -0.113162 44.000000
3.650619 -0.725345 -0.113323 45.000000
3.649356 -0.736740 -0.113364 43.000000
3.646100 -0.747732 -0.113323 44.000000
3.647701 -0.759730 -0.113485 40.000000
3.646331 -0.771124 -0.113525 36.000000
3.643948 -0.782307 -0.113525 40.000000
3.640554 -0.793270 -0.113485 40.000000
3.636152 -0.804004 -0.113404 30.000000
3.635618 -0.815593 -0.113485 45.000000
3.636022 -0.827408 -0.113606 40.000000
3.639307 -0.839909 -0.113847 53.000000
3.637686 -0.851298 -0.113888 39.000000
3.637002 -0.862915 -0.113968 43.000000
3.636280 -0.874537 -0.114049 52.000000
3.630668 -0.884979 -0.113928 33.000000
3.629876 -0.896593 -0.114009 45.000000
3.626139 -0.907482 -0.113968 41.000000
3.623338 -0.918603 -0.113968 37.000000
3.626309 -0.931206 -0.114210 48.000000
3.628270 -0.943585 -0.114412 41.000000
3.627290 -0.955221 -0.114492 42.000000
3.631101 -0.968148 -0.114774 41.000000
3.629078 -0.979544 -0.114815 40.000000
3.626056 -0.990673 -0.114815 52.000000
3.620110 -1.000994 -0.114694 39.000000
3.617984 -1.012365 -0.114734 57.000000
3.615823 -1.023732 -0.114774 45.000000
3.610744 -1.034270 -0.114694 53.000000
3.615232 -1.047568 -0.115016 31.000000
3.612000 -1.058655 -0.115016 38.000000
3.612567 -1.070867 -0.115178 48.000000
3.612136 -1.082806 -0.115298 36.000000
3.610710 -1.094463 -0.115379 42.000000
3.612111 -1.107000 -0.115581 39.000000
3.607744 -1.117781 -0.115540 56.000000
3.610018 -1.130636 -0.115782 37.000000
3.608438 -1.142310 -0.115863 39.000000
3.606819 -1.153984 -0.115943 34.000000
3.606114 -1.165967 -0.116064 27.000000
3.643359 -1.190372 -0.117797 8.000000
3.692134 -0.330448 -0.157264 26.000000
3.691103 -0.341774 -0.157264 30.000000
3.678107 -0.351959 -0.156636 35.000000
3.676016 -0.363144 -0.156583 37.000000
3.671904 -0.374117 -0.156426 42.000000
3.664780 -0.384757 -0.156112 47.000000
3.662589 -0.395891 -0.156060 42.000000
3.662350 -0.407236 -0.156112 44.000000
3.661084 -0.418470 -0.156112 37.000000
3.654823 -0.429120 -0.155851 36.000000
3.656464 -0.440688 -0.156008 45.000000
3.657077 -0.452148 -0.156112 42.000000
3.656663 -0.463491 -0.156165 43.000000
3.656214 -0.474836 -0.156217 43.000000
3.653750 -0.485919 -0.156165 34.000000
3.652242 -0.497127 -0.156165 52.000000
3.650700 -0.508329 -0.156165 42.000000
3.648135 -0.519387 -0.156112 42.000000
3.644547 -0.530289 -0.156008 35.000000
3.648830 -0.542347 -0.156322 33.000000
3.649124 -0.553838 -0.156426 29.000000
3.650368 -0.565489 -0.156583 44.000000
3.652562 -0.577308 -0.156793 41.000000
3.655704 -0.589304 -0.157054 39.000000
3.651908 -0.600193 -0.156950 37.000000
3.652019 -0.611724 -0.157054 38.000000
3.658985 -0.624434 -0.157526 30.000000
3.651149 -0.634633 -0.157211 41.000000
3.646234 -0.645310 -0.157054 34.000000
3.647186 -0.657024 -0.157211 47.000000
3.646135 -0.668390 -0.157264 29.000000
3.640141 -0.678842 -0.157054 50.000000
3.636078 -0.689635 -0.156950 31.000000
3.626100 -0.699277 -0.156531 32.000000
3.623938 -0.710398 -0.156531 37.000000
3.620762 -0.721318 -0.156479 54.000000
3.614617 -0.731632 -0.156269 47.000000
3.615290 -0.743320 -0.156426 46.000000
3.618858 -0.755631 -0.156740 44.000000
3.619453 -0.767351 -0.156897 39.000000
3.621964 -0.779500 -0.157159 36.000000
3.620531 -0.790821 -0.157211 58.000000
3.619063 -0.802141 -0.157264 37.000000
3.619508 -0.813897 -0.157421 45.000000
3.616020 -0.824776 -0.157369 58.000000
3.614446 -0.836090 -0.157421 40.000000
3.611864 -0.847175 -0.157421 35.000000
3.612162 -0.858945 -0.157578 50.000000
3.611452 -0.870490 -0.157683 45.000000
3.608764 -0.881566 -0.157683 44.000000
3.608951 -0.893352 -0.157840 57.000000
3.605225 -0.904177 -0.157787 40.000000
3.606306 -0.916216 -0.157997 31.000000
3.609281 -0.928767 -0.158311 42.000000
3.607381 -0.940087 -0.158363 48.000000
3.607377 -0.951914 -0.158520 30.000000
3.604439 -0.962977 -0.158520 37.000000
3.601468 -0.974030 -0.158520 44.000000
3.595573 -0.984285 -0.158363 51.000000
3.587724 -0.993980 -0.158101 42.000000
3.587543 -1.005790 -0.158258 52.000000
3.582519 -1.016247 -0.158154 35.000000
3.579384 -1.027233 -0.158154 36.000000
3.577175 -1.038488 -0.158206 34.000000
3.577805 -1.050582 -0.158415 38.000000
3.581267 -1.063541 -0.158782 48.000000
3.585639 -1.076819 -0.159200 36.000000
3.580407 -1.087235 -0.159096 51.000000
3.585648 -1.100849 -0.159567 40.000000
3.584161 -1.112436 -0.159671 58.000000
3.582637 -1.124024 -0.159776 36.000000
3.582980 -1.136217 -0.159985 36.000000
3.588037 -1.149944 -0.160456 22.000000
3.574040 -1.157565 -0.159881 28.000000
3.610338 -1.181558 -0.162079 11.000000
3.661837 -0.325869 -0.201176 34.000000
3.666782 -0.337651 -0.201564 31.000000
3.658775 -0.348237 -0.201111 39.000000
3.656696 -0.359362 -0.201046 37.000000
3.655576 -0.370579 -0.201046 44.000000
3.649460 -0.381274 -0.200723 53.000000
3.649266 -0.392575 -0.200788 38.000000
3.648044 -0.403769 -0.200788 37.000000
3.645797 -0.414846 -0.200723 51.000000
3.642524 -0.425798 -0.200594 57.000000
3.641201 -0.436971 -0.200594 41.000000
3.638852 -0.448018 -0.200529 42.000000
3.640431 -0.459555 -0.200723 44.000000
3.637025 -0.470465 -0.200594 45.000000
3.635564 -0.481621 -0.200594 44.000000
3.636047 -0.493041 -0.200723 51.000000
3.632540 -0.503919 -0.200594 54.000000
3.633942 -0.515482 -0.200788 41.000000
3.636293 -0.527202 -0.201046 45.000000
3.633672 -0.538209 -0.200982 31.000000
3.634963 -0.549802 -0.201176 50.000000
3.634245 -0.561104 -0.201241 50.000000
3.632507 -0.572251 -0.201241 45.000000
3.631720 -0.583551 -0.201305 42.000000
3.624004 -0.593722 -0.200917 50.000000
3.617244 -0.604015 -0.200594 35.000000
3.615374 -0.615110 -0.200594 50.000000
3.610520 -0.625687 -0.200399 40.000000
3.611531 -0.637281 -0.200594 39.000000
3.606613 -0.647829 -0.200399 47.000000
3.604609 -0.658891 -0.200399 53.000000
3.605513 -0.670494 -0.200594 54.000000
3.602458 -0.681367 -0.200529 61.000000
3.601331 -0.692605 -0.200594 43.000000
3.599189 -0.703650 -0.200594 39.000000
3.592120 -0.713716 -0.200270 56.000000
3.588935 -0.724536 -0.200205 43.000000
3.588650 -0.735944 -0.200335 37.000000
3.588330 -0.747357 -0.200464 45.000000
3.586996 -0.758569 -0.200529 31.000000
3.585628 -0.769780 -0.200594 31.000000
3.589099 -0.782052 -0.200982 46.000000
3.588632 -0.793491 -0.201111 36.000000
3.587154 -0.804716 -0.201176 39.000000
3.584668 -0.815717 -0.201176 47.000000
3.582149 -0.826711 -0.201176 53.000000
3.580567 -0.837924 -0.201241 45.000000
3.577980 -0.848905 -0.201241 55.000000
3.575358 -0.859878 -0.201241 42.000000
3.577551 -0.872025 -0.201564 50.000000
3.580671 -0.884434 -0.201952 39.000000
3.580845 -0.896142 -0.202147 40.000000
3.580014 -0.907614 -0.202276 47.000000
3.580112 -0.919338 -0.202470 34.000000
3.578240 -0.930569 -0.202535 39.000000
3.578264 -0.942305 -0.202729 48.000000
3.571499 -0.952250 -0.202470 38.000000
3.567597 -0.962942 -0.202405 50.000000
3.563663 -0.973620 -0.202341 47.000000
3.557774 -0.983750 -0.202147 47.000000
3.559544 -0.996006 -0.202470 60.000000
3.563193 -1.008825 -0.202923 46.000000
3.564878 -1.021127 -0.203247 51.000000
3.570354 -1.034559 -0.203829 47.000000
3.573866 -1.047473 -0.204282 51.000000
3.570636 -1.058433 -0.204282 63.000000
3.575974 -1.071962 -0.204864 40.000000
3.569804 -1.082060 -0.204670 23.000000
3.568376 -1.093591 -0.204799 41.000000
3.565004 -1.104534 -0.204799 44.000000
3.563503 -1.116063 -0.204929 45.000000
3.562916 -1.127894 -0.205123 44.000000
3.558489 -1.138515 -0.205058 37.000000
3.560676 -1.151270 -0.205447 44.000000
3.519186 -1.149788 -0.202858 12.000000
3.622818 -0.324267 -0.241846 23.000000
3.623791 -0.335563 -0.241999 26.000000
3.621753 -0.346584 -0.241923 21.000000
3.625634 -0.358183 -0.242306 33.000000
3.629478 -0.369808 -0.242688 28.000000
3.626342 -0.380734 -0.242535 36.000000
3.623175 -0.391644 -0.242382 43.000000
3.623938 -0.402977 -0.242535 37.000000
3.619713 -0.413755 -0.242306 36.000000
3.617436 -0.424742 -0.242229 36.000000
3.616116 -0.435838 -0.242229 52.000000
3.612783 -0.446686 -0.242076 36.000000
3.614363 -0.458143 -0.242306 41.000000
3.613929 -0.469358 -0.242382 43.000000
3.611484 -0.480312 -0.242306 34.000000
3.612957 -0.491792 -0.242535 29.000000
3.608469 -0.502462 -0.242306 41.000000
3.606910 -0.513531 -0.242306 43.000000
3.605318 -0.524594 -0.242306 41.000000
3.600732 -0.535214 -0.242076 38.000000
3.599073 -0.546258 -0.242076 36.000000
3.599351 -0.557602 -0.242229 37.000000
3.599593 -0.568953 -0.242382 34.000000
3.602753 -0.580785 -0.242765 38.000000
3.599970 -0.591674 -0.242688 27.000000
3.600105 -0.603045 -0.242841 27.000000
3.603153 -0.614924 -0.243224 47.000000
3.600267 -0.625805 -0.243148 47.000000
3.594402 -0.636154 -0.242841 24.000000
3.595378 -0.647708 -0.243071 38.000000
3.592392 -0.658556 -0.242994 27.000000
3.590355 -0.669574 -0.242994 28.000000
3.590243 -0.680957 -0.243148 34.000000
3.588137 -0.691968 -0.243148 38.000000
3.583062 -0.702399 -0.242918 29.000000
3.578934 -0.712999 -0.242765 35.000000
3.576730 -0.723976 -0.242765 35.000000
3.579376 -0.735948 -0.243148 49.000000
3.579053 -0.747333 -0.243301 20.000000
3.573817 -0.757690 -0.243071 41.000000
3.574400 -0.769280 -0.243301 36.000000
3.579817 -0.781942 -0.243913 48.000000
3.574481 -0.792274 -0.243683 38.000000
3.570087 -0.802800 -0.243530 57.000000
3.561774 -0.812421 -0.243071 41.000000
3.559265 -0.823344 -0.243071 52.000000
3.561577 -0.835397 -0.243454 38.000000
3.557056 -0.845859 -0.243301 32.000000
3.554445 -0.856768 -0.243301 26.000000
3.557611 -0.869087 -0.243760 47.000000
3.560736 -0.881433 -0.244219 34.000000
3.562851 -0.893564 -0.244602 31.000000
3.558160 -0.904000 -0.244449 32.000000
3.554404 -0.914664 -0.244372 36.000000
3.551581 -0.925564 -0.244372 40.000000
3.548725 -0.936456 -0.244372 44.000000
3.545835 -0.947339 -0.244372 44.000000
3.538099 -0.956913 -0.243990 38.000000
3.537070 -0.968289 -0.244143 32.000000
3.536966 -0.979934 -0.244372 47.000000
3.539704 -0.992394 -0.244832 38.000000
3.542398 -1.004879 -0.245291 35.000000
3.540257 -1.016018 -0.245367 40.000000
3.541912 -1.028262 -0.245750 39.000000
3.543524 -1.040527 -0.246133 39.000000
3.542227 -1.051961 -0.246286 35.000000
3.540893 -1.063396 -0.246439 41.000000
3.538568 -1.074544 -0.246516 47.000000
3.535254 -1.085395 -0.246516 35.000000
3.533812 -1.096826 -0.246669 33.000000
3.535188 -1.109154 -0.247051 38.000000
3.532719 -1.120296 -0.247128 24.000000
3.527366 -1.130520 -0.246975 33.000000
3.526727 -1.142258 -0.247204 49.000000
3.512782 -1.149664 -0.246362 16.000000
3.614296 -0.322899 -0.285626 25.000000
3.612297 -0.333895 -0.285538 29.000000
3.608281 -0.344691 -0.285271 44.000000
3.605224 -0.355564 -0.285094 36.000000
3.606098 -0.366824 -0.285271 33.000000
3.606937 -0.378094 -0.285449 38.000000
3.603779 -0.388944 -0.285271 37.000000
3.600589 -0.399778 -0.285094 22.000000
3.598356 -0.410710 -0.285005 36.000000
3.595101 -0.421515 -0.284828 30.000000
3.598735 -0.433139 -0.285271 29.000000
3.594424 -0.443811 -0.285005 30.000000
3.593045 -0.454836 -0.285005 23.000000
3.591633 -0.465858 -0.285005 30.000000
3.585250 -0.476218 -0.284562 34.000000
3.587720 -0.487752 -0.284917 32.000000
3.586207 -0.498757 -0.284917 39.000000
3.581701 -0.509336 -0.284650 34.000000
3.579136 -0.520179 -0.284562 38.000000
3.579494 -0.531450 -0.284739 45.000000
3.577847 -0.542429 -0.284739 27.000000
3.587977 -0.555232 -0.285804 30.000000
3.589209 -0.566704 -0.286070 33.000000
3.603187 -0.580248 -0.287489 32.000000
3.607287 -0.592269 -0.288022 24.000000
3.590717 -0.600865 -0.286691 30.000000
3.597694 -0.613386 -0.287489 37.000000
3.595795 -0.624421 -0.287489 28.000000
3.589940 -0.634756 -0.287135 28.000000
3.594837 -0.647002 -0.287756 38.000000
3.588916 -0.657310 -0.287401 22.000000
3.583945 -0.667770 -0.287135 39.000000
3.589709 -0.680246 -0.287844 34.000000
3.574890 -0.688805 -0.286691 38.000000
3.571782 -0.699578 -0.286602 29.000000
3.569619 -0.710533 -0.286602 41.000000
3.558636 -0.719703 -0.285804 32.000000
3.559338 -0.731219 -0.286070 35.000000
3.561954 -0.743153 -0.286514 29.000000
3.554785 -0.753045 -0.286070 34.000000
3.557327 -0.764995 -0.286514 35.000000
3.556909 -0.776330 -0.286691 35.000000
3.550621 -0.786377 -0.286336 31.000000
3.549163 -0.797485 -0.286425 44.000000
3.545729 -0.808148 -0.286336 34.000000
3.540321 -0.818349 -0.286070 30.000000
3.538764 -0.829434 -0.286159 29.000000
3.535233 -0.840057 -0.286070 37.000000
3.532640 -0.850899 -0.286070 34.000000
3.533883 -0.862678 -0.286425 34.000000
3.536054 -0.874712 -0.286868 34.000000
3.535286 -0.886041 -0.287046 31.000000
3.535447 -0.897619 -0.287312 47.000000
3.533642 -0.908709 -0.287401 32.000000
3.531801 -0.919797 -0.287489 27.000000
3.530889 -0.931136 -0.287667 39.000000
3.527053 -0.941707 -0.287578 37.000000
3.522224 -0.952004 -0.287401 40.000000
3.521208 -0.963331 -0.287578 36.000000
3.517276 -0.973864 -0.287489 40.000000
3.518108 -0.985725 -0.287844 30.000000
3.516026 -0.996786 -0.287933 31.000000
3.512951 -1.007568 -0.287933 37.000000
3.518453 -1.020840 -0.288732 46.000000
3.515304 -1.031630 -0.288732 33.000000
3.507349 -1.040992 -0.288288 23.000000
3.506046 -1.052320 -0.288465 37.000000
3.506614 -1.064229 -0.288820 31.000000
3.509046 -1.076736 -0.289353 31.000000
3.503823 -1.086906 -0.289175 23.000000
3.509025 -1.100334 -0.289974 36.000000
3.510380 -1.112599 -0.290417 25.000000
3.509796 -1.124276 -0.290683 30.000000
3.512964 -1.137187 -0.291304 24.000000
3.507565 -1.147339 -0.291127 25.000000
4.141124 -0.653632 -0.388803 14.000000
4.147940 -0.667754 -0.389714 28.000000
4.141945 -0.679834 -0.389309 17.000000
4.128064 -0.690571 -0.388094 20.000000
4.110234 -0.700563 -0.386475 34.000000
4.093361 -0.710621 -0.384956 30.000000
4.079405 -0.721101 -0.383741 32.000000
4.059548 -0.730447 -0.381919 30.000000
4.098392 -0.750412 -0.386171 46.000000
4.075530 -0.759162 -0.384045 37.000000
4.048743 -0.767039 -0.381514 28.000000
4.075680 -0.785094 -0.384551 33.000000
4.107425 -0.804276 -0.388094 47.000000
4.112745 -0.818425 -0.388904 52.000000
4.076083 -0.824148 -0.385361 30.000000
4.072560 -0.836449 -0.385260 28.000000
4.108933 -0.857054 -0.389309 98.000000
4.060538 -0.859981 -0.384551 27.000000
3.978120 -0.855310 -0.376250 18.000000
4.030884 -0.879584 -0.382020 32.000000
4.031080 -0.892591 -0.382324 28.000000
4.045796 -0.908874 -0.384146 44.000000
4.000306 -0.911569 -0.379692 28.000000
4.018817 -0.928760 -0.381919 33.000000
4.022730 -0.942672 -0.382628 43.000000
4.008203 -0.952253 -0.381413 37.000000
3.983015 -0.959194 -0.379085 28.000000
4.019682 -0.981070 -0.383235 42.000000
4.002166 -0.989819 -0.381717 29.000000
4.029994 -1.009822 -0.384956 33.000000
4.033627 -1.023892 -0.385665 27.000000
4.033358 -1.037005 -0.385968 22.000000
4.044600 -1.053131 -0.387487 19.000000
4.128897 -1.088591 -0.396699 12.000000
4.169330 -0.657621 -0.442184 11.000000
4.154540 -0.668356 -0.440715 19.000000
4.147567 -0.680294 -0.440150 24.000000
4.145461 -0.693016 -0.440150 35.000000
4.135479 -0.704395 -0.439245 27.000000
4.135257 -0.717419 -0.439471 37.000000
4.126187 -0.728892 -0.438680 35.000000
4.118064 -0.740492 -0.438002 33.000000
4.120660 -0.754017 -0.438567 52.000000
4.122234 -0.767383 -0.439019 35.000000
4.116932 -0.779472 -0.438680 33.000000
4.125254 -0.794166 -0.439923 36.000000
4.128648 -0.807964 -0.440602 32.000000
4.136869 -0.822759 -0.441845 29.000000
4.139195 -0.836432 -0.442410 36.000000
4.133689 -0.848527 -0.442071 18.000000
4.121340 -0.859176 -0.440941 34.000000
4.119657 -0.872022 -0.441054 26.000000
4.104334 -0.881942 -0.439584 28.000000
4.088018 -0.891565 -0.438002 33.000000
4.076533 -0.902169 -0.436985 44.000000
4.065990 -0.912930 -0.436080 29.000000
4.057358 -0.924075 -0.435402 43.000000
4.046759 -0.934729 -0.434498 39.000000
4.038068 -0.945780 -0.433820 33.000000
4.033214 -0.957705 -0.433594 41.000000
4.029291 -0.969841 -0.433481 33.000000
4.037880 -0.985025 -0.434837 36.000000
4.038697 -0.998363 -0.435289 39.000000
4.049108 -1.014130 -0.436872 27.000000
4.057534 -1.029481 -0.438228 24.000000
4.062055 -1.043903 -0.439132 19.000000
4.061718 -1.057112 -0.439471 24.000000
4.199214 -0.675994 -0.499143 16.000000
4.194183 -0.688393 -0.498767 22.000000
4.173459 -0.698152 -0.496385 40.000000
4.158583 -0.708789 -0.494756 18.000000
4.161276 -0.722392 -0.495383 34.000000
4.144385 -0.732569 -0.493503 32.000000
4.137236 -0.744403 -0.492876 40.000000
4.135909 -0.757271 -0.493001 25.000000
4.132590 -0.769774 -0.492876 35.000000
4.133134 -0.783002 -0.493252 24.000000
4.139480 -0.797366 -0.494380 26.000000
4.135067 -0.809681 -0.494129 30.000000
4.140348 -0.823910 -0.495132 30.000000
4.147526 -0.838572 -0.496385 19.000000
4.122373 -0.886281 -0.494505 24.000000
4.111880 -0.897235 -0.493503 23.000000
4.098452 -0.907489 -0.492124 24.000000
4.081128 -0.916801 -0.490244 30.000000
4.069590 -0.927336 -0.489116 41.000000
4.057058 -0.937586 -0.487863 18.000000
4.050299 -0.949124 -0.487361 29.000000
4.047368 -0.961546 -0.487361 27.000000
4.046328 -0.974422 -0.487612 33.000000
4.054886 -0.989651 -0.489116 30.000000
4.060499 -1.004228 -0.490244 34.000000
4.064136 -1.018367 -0.491121 25.000000
4.065801 -1.032050 -0.491748 25.000000
4.069343 -1.046246 -0.492625 32.000000
4.216118 -0.690039 -0.554446 14.000000
4.180763 -0.697426 -0.549773 19.000000
4.166886 -0.708257 -0.548123 35.000000
4.160789 -0.720361 -0.547574 49.000000
4.155633 -0.732606 -0.547161 39.000000
4.150442 -0.744827 -0.546749 41.000000
4.152034 -0.758269 -0.547299 39.000000
4.153584 -0.771728 -0.547849 43.000000
4.159956 -0.786123 -0.549086 29.000000
4.158497 -0.799069 -0.549223 32.000000
4.160886 -0.812773 -0.549910 34.000000
4.166146 -0.827079 -0.551010 19.000000
4.160676 -0.839269 -0.550597 12.000000
4.144253 -0.889016 -0.549773 11.000000
4.124085 -0.897932 -0.547299 21.000000
4.110672 -0.908228 -0.545787 35.000000
4.098201 -0.918668 -0.544412 34.000000
4.088603 -0.929699 -0.543450 19.000000
4.075115 -0.939789 -0.541938 35.000000
4.069319 -0.951610 -0.541526 28.000000
4.061561 -0.962947 -0.540839 47.000000
4.065329 -0.977024 -0.541801 40.000000
4.074823 -0.992540 -0.543588 44.000000
4.097723 -1.011448 -0.547299 16.000000
4.084031 -1.021370 -0.545787 25.000000
4.091440 -1.036572 -0.547299 25.000000
4.096875 -1.051336 -0.548536 19.000000
4.191848 -0.688759 -0.602383 12.000000
4.170209 -0.698355 -0.599399 21.000000
4.161224 -0.709983 -0.598355 25.000000
4.156104 -0.722239 -0.597907 36.000000
4.153868 -0.734987 -0.597907 29.000000
4.149647 -0.747377 -0.597609 36.000000
4.161924 -0.762774 -0.599847 34.000000
4.166370 -0.776806 -0.600891 28.000000
4.177568 -0.792160 -0.602980 30.000000
4.183857 -0.806655 -0.604322 22.000000
4.194948 -0.822146 -0.606411 18.000000
4.205984 -0.837713 -0.608500 12.000000
4.115462 -0.898765 -0.597012 16.000000
4.103031 -0.909250 -0.595520 29.000000
4.094433 -0.920534 -0.594625 27.000000
4.079056 -0.930237 -0.592686 22.000000
4.061732 -0.939408 -0.590448 28.000000
4.054017 -0.950738 -0.589702 36.000000
4.050118 -0.962942 -0.589553 34.000000
4.050029 -0.976058 -0.590000 26.000000
4.044134 -0.987775 -0.589553 42.000000
4.031486 -0.997805 -0.588061 17.000000
4.032242 -1.011130 -0.588657 16.000000
4.035830 -1.025198 -0.589702 12.000000
4.215471 -0.690686 -0.658459 22.000000
4.215279 -0.703941 -0.658781 21.000000
4.198505 -0.714385 -0.656365 22.000000
4.187542 -0.725745 -0.654915 32.000000
4.179464 -0.737559 -0.653948 54.000000
4.177182 -0.750378 -0.653948 55.000000
4.183598 -0.764788 -0.655398 40.000000
4.178320 -0.777078 -0.654915 54.000000
4.190463 -0.792646 -0.657331 46.000000
4.200610 -0.807923 -0.659425 30.000000
4.210703 -0.823269 -0.661519 19.000000
4.097685 -0.906105 -0.646216 17.000000
4.103553 -0.920618 -0.647666 30.000000
4.095898 -0.932107 -0.646860 34.000000
4.086287 -0.943115 -0.645733 34.000000
4.080492 -0.954972 -0.645250 56.000000
4.083304 -0.968854 -0.646216 57.000000
4.069758 -0.978837 -0.644444 42.000000
4.071530 -0.992487 -0.645250 25.000000
4.064633 -1.004027 -0.644605 34.000000
4.071107 -1.018889 -0.646216 27.000000
4.222277 -0.680454 -0.712081 23.000000
4.229889 -0.694999 -0.713811 17.000000
4.206366 -0.704399 -0.710006 26.000000
4.194475 -0.715647 -0.708276 28.000000
4.184496 -0.727165 -0.706892 36.000000
4.185155 -0.740514 -0.707411 38.000000
4.193527 -0.755268 -0.709314 29.000000
4.186346 -0.767243 -0.708449 22.000000
4.195591 -0.782246 -0.710525 30.000000
4.193172 -0.795115 -0.710525 43.000000
4.199418 -0.809651 -0.712081 22.000000
4.152384 -0.920173 -0.707930 17.000000
4.121672 -0.926650 -0.702914 34.000000
4.118810 -0.939291 -0.702914 26.000000
4.104393 -0.949263 -0.700839 37.000000
4.089954 -0.959155 -0.698763 38.000000
4.091784 -0.972836 -0.699628 20.000000
4.080162 -0.983310 -0.698071 32.000000
4.079996 -0.996524 -0.698590 40.000000
4.079788 -1.009745 -0.699109 36.000000
4.068072 -1.020104 -0.697552 29.000000
4.025781 -1.022648 -0.690461 7.000000
4.218309 -0.679374 -0.762778 33.000000
4.211356 -0.691515 -0.761856 44.000000
4.206307 -0.703945 -0.761302 48.000000
4.203159 -0.716682 -0.761118 55.000000
4.200940 -0.729573 -0.761118 39.000000
4.201585 -0.742972 -0.761671 46.000000
4.207992 -0.757426 -0.763331 43.000000
4.210482 -0.771219 -0.764254 65.000000
4.213893 -0.785213 -0.765360 63.000000
4.214361 -0.798687 -0.765914 46.000000
4.216716 -0.812543 -0.766836 51.000000
4.219991 -0.826610 -0.767943 13.000000
4.153334 -0.919931 -0.759273 37.000000
4.140903 -0.930513 -0.757428 56.000000
4.127488 -0.940809 -0.755399 23.000000
4.120752 -0.952582 -0.754661 41.000000
4.106328 -0.962527 -0.752448 46.000000
4.094750 -0.973075 -0.750788 35.000000
4.087924 -0.984712 -0.750050 39.000000
4.088702 -0.998182 -0.750788 26.000000
4.077988 -1.008832 -0.749312 30.000000
4.074874 -1.021338 -0.749312 43.000000
4.073627 -1.034319 -0.749681 11.000000
4.067003 -1.033107 -0.799906 13.000000
