ply
format ascii 1.0
element vertex 1274
property float x
property float y
property float z
property float intensity
end_header
3.736884 0.649223 0.628327 45.000000
3.740805 0.638087 0.628637 38.000000
3.745669 0.627097 0.629101 48.000000
3.748550 0.615762 0.629256 44.000000
3.754323 0.604887 0.629876 38.000000
3.757137 0.593520 0.630031 38.000000
3.758940 0.581991 0.630031 52.000000
3.758754 0.570159 0.629721 51.000000
3.759509 0.558480 0.629566 42.000000
3.760226 0.546801 0.629411 38.000000
3.759930 0.534984 0.629101 38.000000
3.757640 0.522902 0.628482 45.000000
3.756289 0.510972 0.628017 47.000000
3.752943 0.498795 0.627243 38.000000
3.754455 0.487279 0.627243 39.000000
3.749072 0.474890 0.626159 44.000000
3.747570 0.463023 0.625694 38.000000
3.745049 0.451051 0.625075 54.000000
3.742491 0.439099 0.624455 52.000000
3.744802 0.427727 0.624610 44.000000
3.750024 0.416672 0.625229 40.000000
3.745391 0.404530 0.624300 56.000000
3.748580 0.393243 0.624610 50.000000
3.748786 0.381641 0.624455 54.000000
3.751905 0.370332 0.624765 48.000000
3.755974 0.359101 0.625229 50.000000
3.757058 0.347576 0.625229 67.000000
3.757123 0.335960 0.625075 64.000000
3.760104 0.324602 0.625384 53.000000
3.761083 0.313064 0.625384 50.000000
3.756117 0.301051 0.624455 68.000000
3.752098 0.289147 0.623681 74.000000
3.750996 0.277489 0.623371 64.000000
3.747888 0.265701 0.622751 50.000000
3.745728 0.254001 0.622287 61.000000
3.742547 0.242253 0.621667 68.000000
3.742287 0.230709 0.621512 48.000000
3.742976 0.219227 0.621512 58.000000
3.742429 0.150136 0.620893 55.000000
3.741885 0.138617 0.620738 77.000000
3.743280 0.127170 0.620893 54.000000
3.741678 0.115624 0.620583 64.000000
3.743990 0.104199 0.620893 55.000000
3.744292 0.092712 0.620893 51.000000
3.744559 0.081224 0.620893 66.000000
3.747754 0.069791 0.621357 59.000000
3.747950 0.058292 0.621357 57.000000
3.749099 0.046806 0.621512 69.000000
3.749225 0.035304 0.621512 62.000000
3.749316 0.023801 0.621512 65.000000
3.749371 0.012298 0.621512 65.000000
3.756241 -0.022252 0.622596 56.000000
3.758131 -0.033794 0.622906 61.000000
3.756034 -0.045300 0.622596 54.000000
3.754889 -0.056808 0.622442 59.000000
3.751734 -0.068273 0.621977 65.000000
3.748544 -0.079720 0.621512 60.000000
3.742356 -0.091075 0.620583 62.000000
3.743046 -0.102583 0.620738 69.000000
3.742713 -0.114066 0.620738 49.000000
3.744321 -0.125614 0.621048 45.000000
3.743918 -0.137101 0.621048 38.000000
3.743480 -0.148587 0.621048 36.000000
3.750903 -0.160409 0.622287 23.000000
3.739522 0.673446 0.582799 46.000000
3.741571 0.661970 0.582799 39.000000
3.742609 0.650318 0.582656 42.000000
3.744587 0.638833 0.582656 51.000000
3.745553 0.627178 0.582513 36.000000
3.744530 0.615202 0.582084 55.000000
3.747377 0.603868 0.582227 63.000000
3.749212 0.592369 0.582227 44.000000
3.760460 0.523395 0.582370 55.000000
3.758126 0.511320 0.581798 42.000000
3.758695 0.499657 0.581655 62.000000
3.757267 0.487740 0.581226 63.000000
3.754818 0.475712 0.580654 79.000000
3.754295 0.463947 0.580368 62.000000
3.751771 0.451952 0.579796 76.000000
3.752156 0.440324 0.579654 58.000000
3.750540 0.428472 0.579225 84.000000
3.748886 0.416635 0.578796 87.000000
3.757034 0.405878 0.579796 64.000000
3.753340 0.393832 0.579082 78.000000
3.754531 0.382315 0.579082 95.000000
3.753948 0.347377 0.578510 74.000000
3.750068 0.335416 0.577795 74.000000
3.748121 0.323653 0.577366 81.000000
3.748110 0.312070 0.577223 65.000000
3.746090 0.300331 0.576794 82.000000
3.747981 0.288913 0.576937 71.000000
3.748850 0.277413 0.576937 75.000000
3.747709 0.265770 0.576651 85.000000
3.749494 0.254338 0.576794 71.000000
3.748281 0.242705 0.576508 72.000000
3.746045 0.231021 0.576079 78.000000
3.745748 0.219469 0.575936 76.000000
3.742451 0.207755 0.575364 76.000000
3.742082 0.196220 0.575221 76.000000
3.742666 0.184739 0.575221 65.000000
3.743216 0.173256 0.575221 81.000000
3.744719 0.161814 0.575364 68.000000
3.745197 0.150324 0.575364 81.000000
3.747619 0.138908 0.575650 55.000000
3.750995 0.127511 0.576079 81.000000
3.751369 0.116003 0.576079 75.000000
3.751707 0.104493 0.576079 63.000000
3.750031 0.092933 0.575793 73.000000
3.744361 0.081297 0.574935 80.000000
3.747562 0.069865 0.575364 46.000000
3.743800 0.058305 0.574792 58.000000
3.740003 0.046768 0.574220 54.000000
3.741118 0.035303 0.574363 63.000000
3.743188 0.023838 0.574649 51.000000
3.744189 -0.022104 0.574792 55.000000
3.745093 -0.033599 0.574935 63.000000
3.750910 -0.045158 0.575793 52.000000
3.747785 -0.056622 0.575364 61.000000
3.745615 -0.068084 0.575078 52.000000
3.749346 -0.079658 0.575650 64.000000
3.746116 -0.091089 0.575221 59.000000
3.746808 -0.102609 0.575364 56.000000
3.748454 -0.114163 0.575650 62.000000
3.745119 -0.125564 0.575221 53.000000
3.747683 -0.137161 0.575650 37.000000
3.749223 -0.148736 0.575936 54.000000
3.733916 -0.159608 0.573792 23.000000
3.729454 -0.170883 0.573220 11.000000
3.760422 0.677105 0.539157 35.000000
3.762482 0.665565 0.539157 33.000000
3.761576 0.653510 0.538764 50.000000
3.759654 0.641300 0.538240 38.000000
3.759648 0.629435 0.537978 55.000000
3.756670 0.617095 0.537323 51.000000
3.756588 0.605252 0.537061 45.000000
3.757448 0.593569 0.536929 42.000000
3.758272 0.581887 0.536798 46.000000
3.762000 0.570651 0.537061 45.000000
3.761772 0.558816 0.536798 40.000000
3.759544 0.546702 0.536274 40.000000
3.759241 0.534886 0.536012 40.000000
3.754972 0.522531 0.535226 60.000000
3.752628 0.510475 0.534702 52.000000
3.753194 0.498829 0.534571 48.000000
3.750774 0.486802 0.534047 63.000000
3.753234 0.475417 0.534178 48.000000
3.751723 0.463535 0.533784 40.000000
3.752142 0.451905 0.533653 39.000000
3.755481 0.440622 0.533915 52.000000
3.753860 0.428761 0.533522 58.000000
3.755158 0.417242 0.533522 44.000000
3.761348 0.406252 0.534178 39.000000
3.750745 0.393470 0.532605 63.000000
3.749962 0.381760 0.532343 58.000000
3.753089 0.370448 0.532605 55.000000
3.751247 0.358650 0.532212 61.000000
3.755292 0.347413 0.532605 61.000000
3.759302 0.336155 0.532998 60.000000
3.760316 0.324620 0.532998 51.000000
3.761294 0.313082 0.532998 67.000000
3.762237 0.301541 0.532998 46.000000
3.763144 0.289997 0.532998 61.000000
3.762039 0.278304 0.532736 58.000000
3.761886 0.266691 0.532605 63.000000
3.759719 0.254948 0.532212 73.000000
3.760483 0.243412 0.532212 66.000000
3.760223 0.231813 0.532081 49.000000
3.758937 0.220160 0.531819 51.000000
3.751456 0.150497 0.530377 70.000000
3.753882 0.139060 0.530639 57.000000
3.758254 0.127677 0.531163 65.000000
3.763582 0.116299 0.531819 69.000000
3.763922 0.104752 0.531819 70.000000
3.764226 0.093204 0.531819 55.000000
3.763503 0.081633 0.531688 54.000000
3.766709 0.070142 0.532081 74.000000
3.767898 0.058601 0.532212 51.000000
3.764095 0.046992 0.531688 76.000000
3.762238 0.035425 0.531426 48.000000
3.756381 0.023845 0.530639 52.000000
3.747469 -0.022199 0.529460 68.000000
3.748374 -0.033705 0.529591 78.000000
3.750236 -0.045229 0.529853 60.000000
3.750080 -0.056735 0.529853 66.000000
3.749888 -0.068239 0.529853 55.000000
3.752634 -0.079807 0.530246 61.000000
3.751380 -0.091295 0.530115 57.000000
3.752074 -0.102831 0.530246 49.000000
3.751740 -0.114342 0.530246 67.000000
3.753354 -0.125918 0.530508 53.000000
3.751959 -0.137397 0.530377 34.000000
3.753501 -0.148986 0.530639 54.000000
3.740150 -0.159949 0.528936 24.000000
3.755266 0.676960 0.491325 45.000000
3.753415 0.664742 0.490849 49.000000
3.755437 0.653224 0.490849 55.000000
3.757423 0.641699 0.490849 60.000000
3.754478 0.629346 0.490254 49.000000
3.748554 0.616533 0.489303 71.000000
3.750428 0.605030 0.489303 67.000000
3.754228 0.593832 0.489541 59.000000
3.749772 0.522568 0.487757 58.000000
3.750374 0.510927 0.487638 57.000000
3.748971 0.499025 0.487281 60.000000
3.748515 0.487264 0.487043 63.000000
3.751962 0.476012 0.487281 73.000000
3.753405 0.464499 0.487281 57.000000
3.757770 0.453339 0.487638 81.000000
3.758157 0.441692 0.487519 55.000000
3.752589 0.429368 0.486687 68.000000
3.748955 0.417302 0.486092 91.000000
3.746269 0.405370 0.485616 79.000000
3.743545 0.393459 0.485141 91.000000
3.745723 0.382073 0.485260 91.000000
3.760944 0.348685 0.486687 88.000000
3.756063 0.336612 0.485973 100.000000
3.763012 0.325602 0.486687 81.000000
3.765973 0.314222 0.486925 81.000000
3.759001 0.302028 0.485973 88.000000
3.762880 0.290724 0.486330 84.000000
3.763755 0.279178 0.486330 68.000000
3.764593 0.267630 0.486330 81.000000
3.766387 0.256147 0.486449 74.000000
3.768146 0.244655 0.486568 67.000000
3.766897 0.232970 0.486330 73.000000
3.765612 0.221295 0.486092 65.000000
3.763299 0.209575 0.485735 81.000000
3.757975 0.197714 0.485022 83.000000
3.753606 0.185936 0.484427 82.000000
3.752175 0.174327 0.484189 88.000000
3.753684 0.162858 0.484308 91.000000
3.757142 0.151462 0.484665 81.000000
3.760566 0.140046 0.485022 73.000000
3.762962 0.128577 0.485260 62.000000
3.764332 0.117063 0.485379 82.000000
3.766658 0.105569 0.485616 63.000000
3.762001 0.093888 0.485022 77.000000
3.758301 0.082257 0.484546 77.000000
3.758535 0.070727 0.484546 73.000000
3.757742 0.059179 0.484427 61.000000
3.756913 0.047638 0.484308 58.000000
3.759027 0.036131 0.484546 71.000000
3.760113 0.024605 0.484665 59.000000
3.763111 -0.021555 0.485022 61.000000
3.759056 -0.033067 0.484546 50.000000
3.756951 -0.044576 0.484308 48.000000
3.753818 -0.056058 0.483951 62.000000
3.751643 -0.067540 0.483714 65.000000
3.753403 -0.079090 0.483951 55.000000
3.755128 -0.090653 0.484189 71.000000
3.757810 -0.102253 0.484546 67.000000
3.757479 -0.113781 0.484546 80.000000
3.760089 -0.125407 0.484903 52.000000
3.768616 -0.137264 0.485973 48.000000
3.765201 -0.148709 0.485616 71.000000
3.769687 -0.160469 0.486211 42.000000
3.758267 -0.171539 0.484903 24.000000
3.667475 -0.178700 0.474081 9.000000
3.769324 0.679383 0.445827 35.000000
3.770412 0.667643 0.445720 40.000000
3.768523 0.655391 0.445293 42.000000
3.768557 0.643492 0.445079 43.000000
3.772474 0.632255 0.445293 30.000000
3.765566 0.619228 0.444332 57.000000
3.763521 0.607039 0.443905 52.000000
3.765366 0.595490 0.443905 34.000000
3.765210 0.583631 0.443691 48.000000
3.768949 0.572375 0.443905 54.000000
3.771671 0.560955 0.444011 38.000000
3.774358 0.549525 0.444118 45.000000
3.776026 0.537942 0.444118 53.000000
3.773720 0.525807 0.443691 46.000000
3.773345 0.513959 0.443478 40.000000
3.770961 0.501855 0.443050 51.000000
3.768539 0.489772 0.442623 47.000000
3.767065 0.477833 0.442303 50.000000
3.765553 0.465907 0.441983 44.000000
3.763016 0.453877 0.441555 61.000000
3.762416 0.442098 0.441342 56.000000
3.757828 0.429875 0.440701 74.000000
3.759129 0.418345 0.440701 63.000000
3.757429 0.406489 0.440381 43.000000
3.755692 0.394648 0.440060 69.000000
3.754906 0.382923 0.439847 51.000000
3.757053 0.371499 0.439954 59.000000
3.762134 0.360349 0.440381 58.000000
3.769162 0.349355 0.441021 60.000000
3.770216 0.337790 0.441021 45.000000
3.774206 0.326478 0.441342 53.000000
3.773209 0.314733 0.441128 56.000000
3.772174 0.302996 0.440915 52.000000
3.766147 0.290887 0.440167 80.000000
3.760081 0.278817 0.439420 84.000000
3.757943 0.267069 0.439099 69.000000
3.755769 0.255336 0.438779 74.000000
3.753558 0.243620 0.438459 61.000000
3.754287 0.232103 0.438459 63.000000
3.753989 0.220525 0.438352 74.000000
3.760393 0.151509 0.438672 62.000000
3.761834 0.140009 0.438779 63.000000
3.764233 0.128534 0.438993 81.000000
3.767591 0.117078 0.439313 55.000000
3.768926 0.105546 0.439420 63.000000
3.769233 0.093983 0.439420 84.000000
3.766521 0.082353 0.439099 77.000000
3.763773 0.070742 0.438779 66.000000
3.761984 0.059163 0.438565 80.000000
3.760160 0.047596 0.438352 59.000000
3.759294 0.036051 0.438245 60.000000
3.760381 0.024524 0.438352 67.000000
3.759444 0.012984 0.438245 61.000000
3.761393 -0.021630 0.438459 52.000000
3.759320 -0.033152 0.438245 50.000000
3.762184 -0.044721 0.438565 61.000000
3.762029 -0.056263 0.438565 65.000000
3.763827 -0.067840 0.438779 61.000000
3.763601 -0.079387 0.438779 80.000000
3.761352 -0.090885 0.438565 68.000000
3.759067 -0.102370 0.438352 56.000000
3.756748 -0.113842 0.438138 65.000000
3.756381 -0.125367 0.438138 57.000000
3.757966 -0.136963 0.438352 64.000000
3.761502 -0.148649 0.438779 45.000000
3.762022 -0.160231 0.438886 54.000000
3.760519 -0.171727 0.438779 46.000000
3.773878 -0.183942 0.440274 29.000000
3.797126 -0.196756 0.442837 7.000000
3.775313 0.715840 0.401290 25.000000
3.783362 0.705350 0.401860 36.000000
3.776696 0.692122 0.401005 53.000000
3.764107 0.677881 0.399581 71.000000
3.763229 0.665809 0.399296 71.000000
3.758388 0.653065 0.398631 85.000000
3.752524 0.640190 0.397871 55.000000
3.749562 0.627851 0.397396 74.000000
3.748524 0.615859 0.397111 50.000000
3.750395 0.604356 0.397111 80.000000
3.753215 0.593003 0.397206 78.000000
3.756593 0.522855 0.396541 75.000000
3.753248 0.510655 0.396067 84.000000
3.762691 0.500190 0.396826 62.000000
3.764208 0.488643 0.396826 80.000000
3.759763 0.476340 0.396256 93.000000
3.761208 0.464803 0.396256 78.000000
3.759651 0.452904 0.395972 79.000000
3.757068 0.440902 0.395592 94.000000
3.756425 0.429147 0.395402 104.000000
3.753767 0.417179 0.395022 102.000000
3.753050 0.405446 0.394832 96.000000
3.754276 0.393930 0.394832 95.000000
3.746553 0.381500 0.393977 110.000000
3.752880 0.347277 0.394262 107.000000
3.756902 0.336029 0.394547 93.000000
3.753948 0.324158 0.394167 91.000000
3.746989 0.311976 0.393407 101.000000
3.743959 0.300159 0.393027 109.000000
3.746847 0.288825 0.393217 106.000000
3.750695 0.277550 0.393502 109.000000
3.751528 0.266042 0.393502 96.000000
3.757292 0.254870 0.393977 107.000000
3.753090 0.243018 0.393502 95.000000
3.752824 0.231441 0.393407 107.000000
3.749542 0.219692 0.393027 82.000000
3.748210 0.208077 0.392837 91.000000
3.746842 0.196471 0.392647 90.000000
3.748422 0.185025 0.392742 72.000000
3.751956 0.173663 0.393027 79.000000
3.752470 0.162151 0.393027 101.000000
3.755934 0.150759 0.393312 79.000000
3.759363 0.139347 0.393597 95.000000
3.757784 0.127744 0.393407 106.000000
3.760148 0.116277 0.393597 101.000000
3.758497 0.104684 0.393407 91.000000
3.752829 0.093003 0.392837 92.000000
3.752101 0.081467 0.392742 98.000000
3.750343 0.069918 0.392552 89.000000
3.747554 0.058364 0.392267 62.000000
3.747715 0.046867 0.392267 82.000000
3.747841 0.035369 0.392267 74.000000
3.750919 0.023890 0.392552 68.000000
3.747943 -0.022125 0.392267 58.000000
3.747858 -0.033623 0.392267 76.000000
3.750723 -0.045156 0.392552 74.000000
3.753553 -0.056707 0.392837 83.000000
3.758338 -0.068311 0.393312 69.000000
3.762092 -0.079925 0.393692 70.000000
3.763819 -0.091514 0.393882 81.000000
3.761530 -0.103007 0.393692 69.000000
3.760201 -0.114517 0.393597 65.000000
3.756848 -0.125953 0.393312 50.000000
3.756444 -0.137479 0.393312 55.000000
3.756999 -0.149042 0.393407 53.000000
3.756524 -0.160567 0.393407 36.000000
3.758003 -0.172182 0.393597 51.000000
3.752485 -0.183469 0.393122 13.000000
3.756341 0.688950 0.350865 27.000000
3.760399 0.677776 0.351030 53.000000
3.762460 0.666236 0.351030 43.000000
3.758595 0.653666 0.350535 31.000000
3.759601 0.641964 0.350452 40.000000
3.757621 0.629768 0.350123 50.000000
3.756585 0.617752 0.349875 53.000000
3.755511 0.605748 0.349628 43.000000
3.753415 0.593601 0.349298 58.000000
3.752264 0.581625 0.349051 41.000000
3.751074 0.569662 0.348803 51.000000
3.750833 0.557858 0.348638 43.000000
3.756471 0.546922 0.348968 41.000000
3.758132 0.535395 0.348968 63.000000
3.758770 0.523725 0.348886 52.000000
3.762334 0.512460 0.349051 46.000000
3.764876 0.501046 0.349133 62.000000
3.769360 0.489878 0.349380 53.000000
3.766891 0.477811 0.349051 70.000000
3.762404 0.465518 0.348556 62.000000
3.760847 0.453615 0.348308 54.000000
3.757272 0.441494 0.347896 37.000000
3.756628 0.429738 0.347731 50.000000
3.755948 0.417991 0.347566 69.000000
3.751268 0.405823 0.347071 60.000000
3.750513 0.394105 0.346907 51.000000
3.754678 0.382899 0.347154 61.000000
3.752860 0.371084 0.346907 57.000000
3.755965 0.359759 0.347071 65.000000
3.762013 0.348694 0.347484 62.000000
3.758102 0.336706 0.347071 49.000000
3.763089 0.325518 0.347401 64.000000
3.764070 0.313971 0.347401 66.000000
3.761042 0.302103 0.347071 65.000000
3.761951 0.290563 0.347071 60.000000
3.757855 0.278652 0.346659 70.000000
3.757698 0.267051 0.346577 69.000000
3.758500 0.255522 0.346577 90.000000
3.759266 0.243989 0.346577 88.000000
3.757013 0.232271 0.346329 60.000000
3.760693 0.220919 0.346577 90.000000
3.761134 0.151539 0.346329 77.000000
3.760586 0.139962 0.346247 77.000000
3.758009 0.128323 0.345999 69.000000
3.759382 0.116823 0.346082 70.000000
3.759722 0.105289 0.346082 66.000000
3.760027 0.093754 0.346082 76.000000
3.763287 0.082283 0.346329 72.000000
3.765514 0.070774 0.346494 66.000000
3.764717 0.059206 0.346412 66.000000
3.763885 0.047643 0.346329 81.000000
3.764013 0.036096 0.346329 77.000000
3.763109 0.024541 0.346247 75.000000
3.765121 -0.021651 0.346412 95.000000
3.766033 -0.033211 0.346494 72.000000
3.763920 -0.044741 0.346329 57.000000
3.763765 -0.056289 0.346329 74.000000
3.763575 -0.067836 0.346329 52.000000
3.760360 -0.079318 0.346082 63.000000
3.759102 -0.090830 0.345999 61.000000
3.754821 -0.102254 0.345670 62.000000
3.748513 -0.113591 0.345175 71.000000
3.750139 -0.125158 0.345340 51.000000
3.748741 -0.136626 0.345257 50.000000
3.746313 -0.148047 0.345092 44.000000
3.746837 -0.159583 0.345175 14.000000
3.753309 0.674586 0.305071 40.000000
3.757326 0.663416 0.305212 54.000000
3.762292 0.652397 0.305424 29.000000
3.761326 0.640348 0.305212 60.000000
3.760321 0.628312 0.305000 51.000000
3.758294 0.616126 0.304717 56.000000
3.757212 0.604117 0.304506 63.000000
3.755107 0.591964 0.304223 63.000000
3.763391 0.522470 0.304082 72.000000
3.767941 0.511325 0.304294 66.000000
3.769492 0.499762 0.304294 68.000000
3.771997 0.488324 0.304364 62.000000
3.770509 0.476373 0.304152 72.000000
3.768982 0.464436 0.303941 74.000000
3.768409 0.452632 0.303799 79.000000
3.767798 0.440837 0.303658 74.000000
3.762195 0.428483 0.303164 71.000000
3.762501 0.416828 0.303093 74.000000
3.757812 0.404641 0.302669 76.000000
3.760027 0.393214 0.302740 58.000000
3.760224 0.381575 0.302669 76.000000
3.761590 0.346767 0.302528 66.000000
3.760649 0.335048 0.302387 78.000000
3.758678 0.323251 0.302175 84.000000
3.757664 0.311553 0.302034 82.000000
3.758602 0.300023 0.302034 66.000000
3.759505 0.288490 0.302034 80.000000
3.759377 0.276881 0.301963 96.000000
3.760209 0.265347 0.301963 83.000000
3.761005 0.253809 0.301963 93.000000
3.761766 0.242269 0.301963 99.000000
3.761497 0.230666 0.301892 99.000000
3.763182 0.219183 0.301963 105.000000
3.761845 0.207526 0.301822 96.000000
3.762464 0.195984 0.301822 75.000000
3.762051 0.184391 0.301751 75.000000
3.761603 0.172802 0.301681 74.000000
3.760122 0.161175 0.301539 68.000000
3.760599 0.149638 0.301539 70.000000
3.760043 0.138063 0.301469 76.000000
3.759452 0.126493 0.301398 76.000000
3.759823 0.114959 0.301398 63.000000
3.763149 0.103506 0.301610 80.000000
3.764446 0.091985 0.301681 80.000000
3.766705 0.080479 0.301822 79.000000
3.769926 0.068978 0.302034 75.000000
3.773112 0.057458 0.302246 61.000000
3.773271 0.045882 0.302246 68.000000
3.759429 0.034175 0.301257 102.000000
3.755527 0.022615 0.300974 116.000000
3.752586 0.011084 0.300762 138.000000
3.762504 -0.023514 0.301469 133.000000
3.764409 -0.035075 0.301610 115.000000
3.762289 -0.046600 0.301469 98.000000
3.764122 -0.058172 0.301610 105.000000
3.761932 -0.069684 0.301469 88.000000
3.760703 -0.081204 0.301398 92.000000
3.760436 -0.092741 0.301398 82.000000
3.761131 -0.104305 0.301469 74.000000
3.756805 -0.115722 0.301186 75.000000
3.756433 -0.127247 0.301186 52.000000
3.758018 -0.138844 0.301327 70.000000
3.754585 -0.150254 0.301116 52.000000
3.754106 -0.161772 0.301116 13.000000
3.758127 0.676692 0.257444 39.000000
3.760185 0.665159 0.257444 48.000000
3.765159 0.654132 0.257618 45.000000
3.767148 0.642578 0.257618 44.000000
3.772056 0.631511 0.257792 40.000000
3.772990 0.619774 0.257734 34.000000
3.769945 0.607402 0.257444 42.000000
3.769819 0.595522 0.257328 37.000000
3.772615 0.584106 0.257386 45.000000
3.773402 0.572380 0.257328 48.000000
3.778103 0.561240 0.257502 43.000000
3.777831 0.549359 0.257386 66.000000
3.777522 0.537486 0.257269 59.000000
3.773221 0.525069 0.256921 45.000000
3.763932 0.512011 0.256282 50.000000
3.757569 0.499410 0.255817 40.000000
3.753143 0.487109 0.255469 44.000000
3.749668 0.474966 0.255178 54.000000
3.754079 0.463826 0.255353 45.000000
3.759449 0.452784 0.255585 64.000000
3.763796 0.441597 0.255759 48.000000
3.769100 0.430500 0.255992 56.000000
3.770403 0.418935 0.255992 56.000000
3.768693 0.407044 0.255817 58.000000
3.767938 0.395272 0.255701 50.000000
3.767147 0.383508 0.255585 58.000000
3.767312 0.371851 0.255527 54.000000
3.768435 0.360291 0.255527 48.000000
3.768529 0.348636 0.255469 61.000000
3.767592 0.336895 0.255353 68.000000
3.768608 0.325335 0.255353 70.000000
3.770583 0.313854 0.255411 64.000000
3.769538 0.302125 0.255294 51.000000
3.771443 0.290636 0.255353 69.000000
3.773312 0.279137 0.255411 72.000000
3.773155 0.267489 0.255353 90.000000
3.773958 0.255912 0.255353 76.000000
3.772732 0.244204 0.255236 89.000000
3.767485 0.232260 0.254888 104.000000
3.768180 0.220700 0.254888 107.000000
3.763624 0.150984 0.254423 84.000000
3.762074 0.139363 0.254307 101.000000
3.762484 0.127820 0.254307 89.000000
3.762859 0.116277 0.254307 106.000000
3.772179 0.104981 0.254830 156.000000
3.769489 0.093333 0.254656 142.000000
3.770756 0.081790 0.254714 147.000000
3.769991 0.070203 0.254656 183.000000
3.757212 0.058436 0.253900 138.000000
3.758372 0.046921 0.253958 103.000000
3.767483 0.035474 0.254481 96.000000
3.761584 0.023878 0.254133 140.000000
3.768628 0.012359 0.254539 162.000000
3.778565 -0.022387 0.255120 181.000000
3.771490 -0.033916 0.254714 166.000000
3.770371 -0.045474 0.254656 144.000000
3.766220 -0.056980 0.254423 114.000000
3.767026 -0.068553 0.254481 101.000000
3.766798 -0.080110 0.254481 95.000000
3.768531 -0.091715 0.254597 84.000000
3.767234 -0.103248 0.254539 94.000000
3.764903 -0.114745 0.254423 98.000000
3.760543 -0.126160 0.254191 69.000000
3.747169 -0.137221 0.253436 45.000000
3.745732 -0.148676 0.253378 39.000000
3.771191 -0.161279 0.254888 24.000000
3.803588 -0.174360 0.256805 10.000000
3.756810 0.674542 0.212112 33.000000
3.755912 0.662492 0.211973 49.000000
3.759895 0.651308 0.212066 36.000000
3.761875 0.639769 0.212066 57.000000
3.762835 0.628060 0.212020 64.000000
3.764744 0.616513 0.212020 45.000000
3.761687 0.604167 0.211789 57.000000
3.758589 0.591845 0.211557 73.000000
3.765878 0.522149 0.211419 68.000000
3.757564 0.509248 0.210956 81.000000
3.753167 0.496929 0.210679 72.000000
3.751702 0.485027 0.210540 62.000000
3.749208 0.473013 0.210355 70.000000
3.752624 0.461753 0.210448 85.000000
3.756999 0.450596 0.210586 64.000000
3.761340 0.439416 0.210725 59.000000
3.763663 0.427988 0.210771 55.000000
3.766944 0.416659 0.210864 75.000000
3.765225 0.404779 0.210725 59.000000
3.764462 0.393018 0.210633 67.000000
3.765650 0.381467 0.210633 77.000000
3.768007 0.346700 0.210586 89.000000
3.767062 0.334961 0.210494 74.000000
3.768073 0.323402 0.210494 92.000000
3.765065 0.311510 0.210309 64.000000
3.764011 0.299798 0.210217 89.000000
3.761925 0.288019 0.210078 82.000000
3.760799 0.276329 0.209985 82.000000
3.759636 0.264649 0.209893 97.000000
3.760431 0.253114 0.209893 85.000000
3.760193 0.241511 0.209847 93.000000
3.759919 0.229913 0.209800 113.000000
3.759609 0.218318 0.209754 124.000000
3.758267 0.206673 0.209662 119.000000
3.754893 0.194933 0.209477 134.000000
3.758466 0.183559 0.209615 122.000000
3.763003 0.172212 0.209800 88.000000
3.760520 0.160537 0.209662 98.000000
3.759996 0.148960 0.209615 89.000000
3.757441 0.137313 0.209477 95.000000
3.754849 0.125683 0.209338 89.000000
3.755217 0.114163 0.209338 105.000000
3.766534 0.102945 0.209847 135.000000
3.774821 0.091586 0.210217 147.000000
3.775084 0.080004 0.210217 174.000000
3.773314 0.068385 0.210124 162.000000
3.772508 0.056793 0.210078 151.000000
3.767670 0.045158 0.209847 190.000000
3.759799 0.033525 0.209477 368.000000
3.783859 0.022137 0.210586 584.000000
3.783909 0.010528 0.210586 1503.000000
3.831872 -0.001080 0.212806 1996.000000
3.807876 -0.012762 0.211696 1829.000000
3.763867 -0.024176 0.209662 926.000000
3.757782 -0.035668 0.209384 329.000000
3.764647 -0.047283 0.209708 228.000000
3.766482 -0.058863 0.209800 151.000000
3.772276 -0.070528 0.210078 121.000000
3.770045 -0.082058 0.209985 107.000000
3.765780 -0.093526 0.209800 91.000000
3.769470 -0.105189 0.209985 114.000000
3.771126 -0.116814 0.210078 174.000000
3.767755 -0.128282 0.209939 70.000000
3.773333 -0.140062 0.210217 35.000000
3.769892 -0.151518 0.210078 41.000000
3.771405 -0.163169 0.210170 16.000000
3.758491 0.676083 0.164997 31.000000
3.756611 0.663854 0.164862 32.000000
3.756660 0.651984 0.164794 27.000000
3.760613 0.640791 0.164862 48.000000
3.762562 0.629251 0.164862 42.000000
3.765461 0.617866 0.164895 47.000000
3.767339 0.606311 0.164895 49.000000
3.768193 0.594594 0.164862 41.000000
3.771976 0.583336 0.164929 35.000000
3.764854 0.570415 0.164625 39.000000
3.764609 0.558568 0.164557 53.000000
3.759381 0.546011 0.164320 43.000000
3.758070 0.534053 0.164218 47.000000
3.760681 0.522659 0.164252 58.000000
3.764247 0.511388 0.164320 55.000000
3.765799 0.499837 0.164320 48.000000
3.770288 0.488666 0.164421 42.000000
3.770778 0.476971 0.164388 41.000000
3.767264 0.464789 0.164218 66.000000
3.771649 0.453587 0.164320 43.000000
3.767067 0.441316 0.164117 53.000000
3.765424 0.429418 0.164015 49.000000
3.764737 0.417643 0.163947 48.000000
3.766994 0.406198 0.163981 39.000000
3.767229 0.394536 0.163947 57.000000
3.764444 0.382572 0.163812 52.000000
3.768584 0.371315 0.163914 70.000000
3.767716 0.359562 0.163846 62.000000
3.769796 0.348092 0.163880 66.000000
3.771842 0.336614 0.163914 65.000000
3.770865 0.324869 0.163846 62.000000
3.770849 0.313216 0.163812 57.000000
3.768803 0.301407 0.163711 60.000000
3.767717 0.289690 0.163643 54.000000
3.767591 0.278056 0.163609 78.000000
3.768426 0.266496 0.163609 66.000000
3.767232 0.254799 0.163541 69.000000
3.770988 0.243433 0.163643 63.000000
3.768724 0.231679 0.163541 76.000000
3.768420 0.220057 0.163507 81.000000
3.765840 0.150417 0.163304 109.000000
3.768281 0.138936 0.163372 86.000000
3.770688 0.127442 0.163440 85.000000
3.773059 0.115934 0.163507 106.000000
3.775395 0.104413 0.163575 131.000000
3.778695 0.092903 0.163677 173.000000
3.777962 0.081289 0.163643 176.000000
3.779194 0.069716 0.163677 157.000000
3.779390 0.058121 0.163677 206.000000
3.780550 0.046538 0.163711 192.000000
3.770681 0.034848 0.163372 328.000000
3.773768 0.023298 0.163474 677.000000
3.797808 0.011792 0.164286 1254.000000
3.821812 0.000139 0.165098 1752.000000
3.833788 -0.011624 0.165505 1946.000000
3.790760 -0.023119 0.164049 1105.000000
3.773681 -0.034592 0.163474 457.000000
3.777555 -0.046218 0.163609 238.000000
3.762406 -0.057576 0.163101 149.000000
3.765209 -0.069174 0.163203 132.000000
3.765978 -0.080747 0.163237 130.000000
3.767711 -0.092350 0.163304 110.000000
3.763414 -0.103798 0.163169 96.000000
3.764077 -0.115374 0.163203 103.000000
3.755714 -0.126651 0.162932 61.000000
3.758304 -0.138284 0.163033 38.000000
3.758861 -0.149853 0.163067 23.000000
3.773361 -0.162029 0.163575 26.000000
3.731913 -0.171717 0.162187 5.000000
3.739772 -0.195082 0.162492 6.000000
3.764623 0.677299 0.118634 31.000000
3.752901 0.663305 0.118331 36.000000
3.758858 0.652474 0.118418 44.000000
3.757886 0.640434 0.118353 37.000000
3.759833 0.628902 0.118353 39.000000
3.760758 0.617202 0.118331 57.000000
3.761647 0.605502 0.118309 43.000000
3.759537 0.593334 0.118223 45.000000
3.757939 0.522377 0.117963 61.000000
3.762496 0.511250 0.118028 68.000000
3.764046 0.499704 0.118028 65.000000
3.757630 0.487123 0.117855 52.000000
3.758115 0.475467 0.117833 54.000000
3.755587 0.463444 0.117747 49.000000
3.757984 0.452040 0.117768 60.000000
3.758361 0.440392 0.117747 62.000000
3.757707 0.428632 0.117704 59.000000
3.759005 0.417101 0.117704 67.000000
3.763248 0.405889 0.117768 58.000000
3.766465 0.394551 0.117812 68.000000
3.766663 0.382892 0.117790 67.000000
3.777992 0.348947 0.117963 69.000000
3.781036 0.337533 0.118007 77.000000
3.777073 0.325500 0.117898 80.000000
3.773072 0.313496 0.117790 62.000000
3.773020 0.301838 0.117768 58.000000
3.771934 0.290108 0.117725 65.000000
3.771810 0.278460 0.117704 68.000000
3.772646 0.266887 0.117704 75.000000
3.771452 0.255176 0.117660 68.000000
3.772218 0.243604 0.117660 64.000000
3.773945 0.232092 0.117682 64.000000
3.772644 0.220395 0.117639 59.000000
3.770307 0.208653 0.117574 65.000000
3.767935 0.196927 0.117509 46.000000
3.762530 0.185070 0.117379 55.000000
3.763080 0.173526 0.117379 56.000000
3.764593 0.162023 0.117401 51.000000
3.755083 0.150071 0.117184 38.000000
3.766515 0.138958 0.117422 66.000000
3.774917 0.127675 0.117595 54.000000
3.772293 0.116000 0.117530 42.000000
3.771632 0.104398 0.117509 31.000000
3.773934 0.092876 0.117552 56.000000
3.772202 0.081254 0.117509 57.000000
3.770434 0.069643 0.117466 49.000000
3.770630 0.058075 0.117466 48.000000
3.770791 0.046507 0.117466 53.000000
3.770915 0.034938 0.117466 44.000000
3.775004 0.023395 0.117552 49.000000
3.776006 -0.022938 0.117574 70.000000
3.780917 -0.034566 0.117682 41.000000
3.774795 -0.046095 0.117552 56.000000
3.769638 -0.057600 0.117444 53.000000
3.767444 -0.069129 0.117401 46.000000
3.763216 -0.080603 0.117314 56.000000
3.761951 -0.092124 0.117292 33.000000
3.756654 -0.103529 0.117184 58.000000
3.758317 -0.115114 0.117227 49.000000
3.761944 -0.126777 0.117314 47.000000
3.762536 -0.138354 0.117336 47.000000
3.764092 -0.149976 0.117379 43.000000
3.780595 -0.162247 0.117747 28.000000
4.157003 0.395943 0.074662 18.000000
4.169152 0.384195 0.074764 21.000000
4.143418 0.369010 0.074514 39.000000
4.119624 0.354158 0.074283 55.000000
4.106739 0.340363 0.074154 46.000000
4.122716 0.328953 0.074292 66.000000
4.104763 0.314852 0.074117 64.000000
4.111692 0.302697 0.074172 80.000000
4.054748 0.286006 0.073636 44.000000
4.054608 0.273498 0.073626 42.000000
4.049441 0.260672 0.073571 43.000000
4.060203 0.248858 0.073663 51.000000
4.050964 0.235821 0.073571 46.000000
3.982776 0.219599 0.072932 33.000000
3.993417 0.207898 0.073025 39.000000
4.066946 0.199210 0.073700 60.000000
4.046561 0.185771 0.073506 68.000000
4.087073 0.175063 0.073876 82.000000
4.076600 0.162087 0.073774 67.000000
4.098063 0.150348 0.073969 67.000000
4.111498 0.138210 0.074089 70.000000
4.101907 0.125291 0.073996 58.000000
4.129261 0.113445 0.074246 56.000000
4.151582 0.101311 0.074450 70.000000
4.157872 0.088701 0.074505 63.000000
4.172122 0.076198 0.074635 57.000000
4.186334 0.063609 0.074764 39.000000
4.206506 0.051006 0.074949 37.000000
4.221642 0.038235 0.075088 46.000000
4.232739 0.025348 0.075190 41.000000
4.217798 0.012320 0.075051 32.000000
4.171169 0.385384 0.022341 42.000000
4.161375 0.371604 0.022378 49.000000
4.154525 0.358146 0.022404 43.000000
4.139660 0.344068 0.022457 68.000000
4.130729 0.330566 0.022490 64.000000
4.118762 0.316891 0.022534 68.000000
4.105753 0.303218 0.022580 76.000000
4.099681 0.290124 0.022603 63.000000
4.094566 0.277138 0.022623 71.000000
4.092403 0.264381 0.022633 82.000000
4.089203 0.251577 0.022646 54.000000
4.085962 0.238796 0.022660 94.000000
4.084679 0.226148 0.022666 103.000000
4.085353 0.213616 0.022666 76.000000
4.080996 0.200834 0.022683 99.000000
4.086587 0.188544 0.022666 82.000000
4.092142 0.176222 0.022650 90.000000
4.104653 0.164150 0.022610 62.000000
4.104139 0.151519 0.022613 94.000000
4.114578 0.139268 0.022580 62.000000
4.123982 0.126924 0.022550 48.000000
4.130350 0.114439 0.022530 48.000000
4.136679 0.101916 0.022510 48.000000
4.155968 0.089639 0.022447 33.000000
4.164221 0.077039 0.022421 37.000000
4.184435 0.064577 0.022354 38.000000
4.206612 0.052017 0.022282 29.000000
4.204752 0.039092 0.022288 20.000000
4.218852 0.026283 0.022242 33.000000
4.025915 0.012676 0.022882 12.000000
4.211276 0.402585 -0.030029 13.000000
4.198553 0.388375 -0.029809 20.000000
4.178810 0.373624 -0.029480 46.000000
4.153040 0.358482 -0.029056 51.000000
4.141166 0.344662 -0.028851 66.000000
4.125261 0.330600 -0.028584 63.000000
4.113295 0.316945 -0.028380 65.000000
4.105274 0.303661 -0.028239 58.000000
4.095215 0.290288 -0.028066 83.000000
4.090100 0.277317 -0.027972 81.000000
4.084946 0.264381 -0.027877 86.000000
4.083741 0.251724 -0.027846 74.000000
4.082498 0.239078 -0.027815 111.000000
4.084211 0.226607 -0.027830 91.000000
4.082890 0.213971 -0.027799 80.000000
4.082528 0.201395 -0.027783 95.000000
4.081130 0.188777 -0.027752 97.000000
4.080690 0.176212 -0.027736 85.000000
4.085208 0.163852 -0.027799 83.000000
4.089688 0.151465 -0.027862 77.000000
4.099128 0.139222 -0.028003 63.000000
4.109529 0.126953 -0.028160 70.000000
4.117896 0.114567 -0.028286 69.000000
4.127223 0.102154 -0.028427 63.000000
4.139513 0.089751 -0.028616 80.000000
4.157764 0.077384 -0.028898 45.000000
4.175978 0.064906 -0.029181 45.000000
4.197153 0.052354 -0.029511 39.000000
4.202293 0.039523 -0.029590 43.000000
4.215392 0.026712 -0.029794 51.000000
4.228453 0.013820 -0.029998 48.000000
4.194262 0.400506 -0.080336 27.000000
4.172577 0.385514 -0.079698 56.000000
4.168763 0.372265 -0.079559 36.000000
4.158930 0.358527 -0.079254 39.000000
4.135107 0.343689 -0.078560 52.000000
4.120199 0.329720 -0.078116 55.000000
4.103252 0.315693 -0.077617 78.000000
4.097223 0.302585 -0.077422 78.000000
4.090155 0.289447 -0.077200 77.000000
4.085040 0.276491 -0.077034 74.000000
4.077888 0.263439 -0.076812 80.000000
4.075684 0.250742 -0.076729 94.000000
4.073441 0.238061 -0.076645 82.000000
4.072155 0.225451 -0.076590 80.000000
4.072829 0.212957 -0.076590 101.000000
4.075459 0.200560 -0.076645 79.000000
4.076056 0.188055 -0.076645 107.000000
4.078610 0.175636 -0.076701 103.000000
4.078132 0.163082 -0.076673 76.000000
4.077613 0.150532 -0.076645 76.000000
4.078056 0.138022 -0.076645 84.000000
4.088452 0.125820 -0.076923 54.000000
4.092816 0.113388 -0.077034 54.000000
4.102138 0.101055 -0.077284 52.000000
4.116420 0.088775 -0.077672 45.000000
4.132664 0.076446 -0.078116 36.000000
4.150870 0.064050 -0.078615 28.000000
4.166040 0.051504 -0.079032 25.000000
4.187170 0.038924 -0.079614 25.000000
4.215257 0.026260 -0.080391 18.000000
4.212319 0.013317 -0.080308 28.000000
4.226335 0.000399 -0.080696 28.000000
4.174566 0.399078 -0.132348 31.000000
4.164825 0.385258 -0.131905 40.000000
4.157031 0.371679 -0.131542 41.000000
4.148197 0.358065 -0.131139 43.000000
4.121395 0.343019 -0.130010 54.000000
4.109479 0.329336 -0.129486 65.000000
4.096523 0.315654 -0.128922 77.000000
4.089500 0.302495 -0.128599 65.000000
4.087420 0.289736 -0.128479 69.000000
4.085298 0.276992 -0.128358 65.000000
4.085132 0.264393 -0.128317 96.000000
4.085924 0.251859 -0.128317 92.000000
4.084682 0.239205 -0.128237 79.000000
4.083401 0.226562 -0.128156 77.000000
4.081084 0.213877 -0.128035 91.000000
4.075733 0.201060 -0.127793 87.000000
4.071340 0.188325 -0.127592 79.000000
4.066907 0.175618 -0.127390 96.000000
4.069424 0.163220 -0.127471 69.000000
4.072901 0.150845 -0.127592 69.000000
4.078338 0.138518 -0.127793 70.000000
4.087732 0.126282 -0.128156 67.000000
4.100086 0.114073 -0.128640 56.000000
4.109406 0.101715 -0.129003 62.000000
4.118690 0.089301 -0.129365 55.000000
4.134929 0.076961 -0.130010 41.000000
4.149132 0.064491 -0.130574 45.000000
4.166295 0.051971 -0.131260 47.000000
4.187417 0.039385 -0.132106 43.000000
4.204504 0.026644 -0.132791 37.000000
4.212559 0.013770 -0.133114 29.000000
4.235563 0.000848 -0.134041 39.000000
4.185064 0.411116 -0.183379 39.000000
4.180340 0.397706 -0.183065 37.000000
4.160658 0.382951 -0.181966 60.000000
4.145899 0.368764 -0.181129 72.000000
4.137061 0.355186 -0.180606 54.000000
4.124199 0.341335 -0.179873 67.000000
4.113281 0.327725 -0.179245 62.000000
4.106302 0.314492 -0.178826 76.000000
4.097288 0.301158 -0.178303 57.000000
4.093212 0.288234 -0.178041 65.000000
4.088099 0.275270 -0.177727 63.000000
4.083941 0.262405 -0.177466 61.000000
4.079743 0.249569 -0.177204 58.000000
4.078496 0.236935 -0.177099 72.000000
4.078207 0.224366 -0.177047 59.000000
4.076881 0.211749 -0.176942 66.000000
4.078509 0.199289 -0.176995 60.000000
4.079102 0.186775 -0.176995 59.000000
4.081650 0.174346 -0.177099 58.000000
4.079173 0.161703 -0.176942 75.000000
4.077653 0.149114 -0.176837 67.000000
4.080088 0.136671 -0.176942 55.000000
4.085479 0.124306 -0.177204 62.000000
4.095823 0.112047 -0.177727 43.000000
4.104135 0.099677 -0.178146 47.000000
4.118399 0.087386 -0.178879 44.000000
4.127634 0.074916 -0.179350 41.000000
4.140825 0.062452 -0.180030 28.000000
4.149984 0.049858 -0.180501 33.000000
4.162100 0.037236 -0.181129 37.000000
4.183166 0.024596 -0.182228 28.000000
4.179227 0.011750 -0.182019 40.000000
4.190228 -0.001072 -0.182594 19.000000
4.220311 0.429595 -0.237864 19.000000
4.186852 0.413218 -0.235600 38.000000
4.167239 0.398379 -0.234241 53.000000
4.161486 0.384949 -0.233788 56.000000
4.157677 0.371736 -0.233464 56.000000
4.148856 0.358122 -0.232817 69.000000
4.142973 0.344813 -0.232364 62.000000
4.140033 0.331782 -0.232106 73.000000
4.138046 0.318849 -0.231911 78.000000
4.127063 0.305270 -0.231135 63.000000
4.123998 0.292325 -0.230876 87.000000
4.119898 0.279335 -0.230553 82.000000
4.113764 0.266243 -0.230100 66.000000
4.113566 0.253560 -0.230035 79.000000
4.109343 0.240647 -0.229711 80.000000
4.105081 0.227763 -0.229388 88.000000
4.102770 0.215011 -0.229194 89.000000
4.095438 0.202030 -0.228676 70.000000
4.094044 0.189373 -0.228547 65.000000
4.095603 0.176855 -0.228611 63.000000
4.099117 0.164408 -0.228806 58.000000
4.102594 0.151942 -0.229000 71.000000
4.113015 0.139693 -0.229647 66.000000
4.121403 0.127319 -0.230164 54.000000
4.124767 0.114757 -0.230359 74.000000
4.127095 0.102151 -0.230488 70.000000
4.124395 0.089424 -0.230294 69.000000
4.127644 0.076826 -0.230488 69.000000
4.126862 0.064147 -0.230423 54.000000
4.135023 0.051584 -0.230941 50.000000
4.148133 0.039019 -0.231782 39.000000
4.158213 0.026355 -0.232429 48.000000
4.168252 0.013629 -0.233076 46.000000
4.167277 0.000841 -0.233011 38.000000
4.192207 -0.012018 -0.234629 67.000000
4.070408 -0.024146 -0.226735 8.000000
4.180521 0.410669 -0.285094 37.000000
4.172828 0.396989 -0.284405 35.000000
4.165091 0.383360 -0.283716 57.000000
4.158302 0.369871 -0.283104 56.000000
4.148490 0.356170 -0.282262 58.000000
4.142608 0.342864 -0.281726 50.000000
4.140659 0.329914 -0.281497 60.000000
4.137675 0.316904 -0.281190 83.000000
4.134650 0.303915 -0.280884 74.000000
4.133574 0.291088 -0.280731 75.000000
4.127484 0.277934 -0.280195 66.000000
4.123342 0.264948 -0.279813 64.000000
4.121150 0.252113 -0.279583 52.000000
4.115932 0.239120 -0.279124 55.000000
4.112664 0.226271 -0.278818 56.000000
4.112343 0.213601 -0.278741 66.000000
4.100033 0.200347 -0.277746 43.000000
4.102621 0.187859 -0.277899 59.000000
4.105170 0.175357 -0.278052 51.000000
4.102699 0.162642 -0.277822 60.000000
4.109157 0.150275 -0.278282 57.000000
4.109600 0.137668 -0.278282 60.000000
4.111995 0.125120 -0.278435 54.000000
4.114353 0.112559 -0.278588 46.000000
4.115676 0.099961 -0.278664 38.000000
4.112973 0.087269 -0.278435 52.000000
4.119202 0.074760 -0.278894 37.000000
4.118415 0.062107 -0.278818 45.000000
4.123572 0.049533 -0.279200 39.000000
4.128689 0.036928 -0.279583 46.000000
4.144736 0.024359 -0.280808 31.000000
4.148779 0.011656 -0.281114 34.000000
4.161757 -0.001072 -0.282109 22.000000
4.167717 -0.013859 -0.282568 27.000000
4.173637 -0.026682 -0.283028 14.000000
4.206036 0.413633 -0.338859 23.000000
4.169605 0.397142 -0.335487 46.000000
4.148983 0.382339 -0.333535 61.000000
4.145175 0.369167 -0.333092 66.000000
4.142319 0.356107 -0.332737 58.000000
4.137436 0.342904 -0.332205 66.000000
4.135489 0.329971 -0.331938 65.000000
4.132510 0.316978 -0.331583 63.000000
4.130483 0.304079 -0.331317 70.000000
4.127422 0.291125 -0.330962 94.000000
4.127302 0.278394 -0.330874 53.000000
4.127142 0.265667 -0.330785 70.000000
4.127938 0.253004 -0.330785 57.000000
4.126707 0.240222 -0.330608 119.000000
4.124440 0.227397 -0.330341 49.000000
4.122134 0.214587 -0.330075 92.000000
4.116804 0.201647 -0.329543 81.000000
4.119394 0.189107 -0.329720 48.000000
4.114978 0.176256 -0.329277 56.000000
4.115499 0.163630 -0.329277 72.000000
4.117973 0.151076 -0.329454 55.000000
4.115431 0.138342 -0.329188 75.000000
4.113844 0.125654 -0.329011 57.000000
4.108237 0.112869 -0.328478 52.000000
4.103585 0.100144 -0.328035 54.000000
4.102877 0.087533 -0.327946 54.000000
4.103127 0.074945 -0.327946 66.000000
4.103336 0.062356 -0.327946 40.000000
4.109485 0.049839 -0.328478 63.000000
4.112606 0.037258 -0.328744 75.000000
4.121666 0.024693 -0.329543 58.000000
4.136663 0.012090 -0.330874 64.000000
4.149629 -0.000604 -0.332027 36.000000
4.154588 -0.013352 -0.332471 52.000000
4.171460 -0.026206 -0.333979 39.000000
4.165384 -0.038947 -0.333447 25.000000
4.168277 0.410194 -0.388398 31.000000
4.160603 0.396552 -0.387487 50.000000
4.152884 0.382961 -0.386576 63.000000
4.151066 0.369953 -0.386272 57.000000
4.143262 0.356446 -0.385361 55.000000
4.139378 0.343320 -0.384855 56.000000
4.136446 0.330301 -0.384450 51.000000
4.135456 0.317456 -0.384248 62.000000
4.137402 0.304841 -0.384349 65.000000
4.138318 0.292146 -0.384349 61.000000
4.140187 0.279516 -0.384450 76.000000
4.141026 0.266813 -0.384450 53.000000
4.139838 0.253984 -0.384248 72.000000
4.141592 0.241341 -0.384349 61.000000
4.143305 0.228688 -0.384450 58.000000
4.142995 0.215924 -0.384349 51.000000
4.144630 0.203261 -0.384450 67.000000
4.139272 0.190269 -0.383843 81.000000
4.134867 0.177354 -0.383336 44.000000
4.131415 0.164508 -0.382932 47.000000
4.122952 0.151501 -0.382020 36.000000
4.120416 0.138750 -0.381717 48.000000
4.114855 0.125924 -0.381109 51.000000
4.106272 0.113050 -0.380198 33.000000
4.096653 0.100206 -0.379186 34.000000
4.097937 0.087659 -0.379287 41.000000
4.097191 0.075067 -0.379186 44.000000
4.096408 0.062482 -0.379085 37.000000
4.101554 0.049976 -0.379591 36.000000
4.108652 0.037458 -0.380300 47.000000
4.111732 0.024871 -0.380603 41.000000
4.122733 0.012292 -0.381717 30.000000
4.138668 -0.000353 -0.383336 27.000000
4.136658 -0.013045 -0.383134 29.000000
4.164454 -0.025901 -0.385968 12.000000
4.174304 -0.038767 -0.386981 12.000000
4.232180 0.416945 -0.445801 12.000000
4.190908 0.399904 -0.440941 28.000000
4.154518 0.383577 -0.436646 46.000000
4.149737 0.370300 -0.435967 51.000000
4.140954 0.356715 -0.434837 62.000000
4.140049 0.343845 -0.434611 60.000000
4.140094 0.331063 -0.434498 75.000000
4.141090 0.318359 -0.434498 73.000000
4.150965 0.306310 -0.435515 84.000000
4.151886 0.293574 -0.435515 72.000000
4.153758 0.280902 -0.435628 91.000000
4.158566 0.268413 -0.436080 82.000000
4.161354 0.255775 -0.436307 93.000000
4.165095 0.243180 -0.436646 96.000000
4.167805 0.230510 -0.436872 87.000000
4.180400 0.218343 -0.438228 76.000000
4.179065 0.205420 -0.438002 68.000000
4.178683 0.192552 -0.437889 49.000000
4.160393 0.178921 -0.435741 39.000000
4.150995 0.165761 -0.434611 66.000000
4.136590 0.152478 -0.432916 54.000000
4.124129 0.139351 -0.431446 64.000000
4.119571 0.126546 -0.430881 62.000000
4.116961 0.113824 -0.430542 48.000000
4.113317 0.101096 -0.430090 59.000000
4.111621 0.088433 -0.429864 62.000000
4.112866 0.075837 -0.429977 57.000000
4.116060 0.063264 -0.430316 59.000000
4.112261 0.050587 -0.429864 77.000000
4.112397 0.037971 -0.429864 85.000000
4.123423 0.025420 -0.431107 55.000000
4.128449 0.012785 -0.431672 56.000000
4.138405 0.000118 -0.432803 40.000000
4.140374 -0.012585 -0.433029 29.000000
4.146277 -0.025324 -0.433707 32.000000
4.147173 -0.038054 -0.433820 16.000000
4.220261 0.402255 -0.497388 16.000000
4.147383 0.382452 -0.487988 57.000000
4.144584 0.369373 -0.487487 71.000000
4.140755 0.356229 -0.486860 64.000000
4.135896 0.343030 -0.486108 84.000000
4.128029 0.329627 -0.484980 93.000000
4.138912 0.317723 -0.486233 79.000000
4.134921 0.304657 -0.485607 85.000000
4.146722 0.292742 -0.486985 82.000000
4.150570 0.280220 -0.487361 89.000000
4.164281 0.268318 -0.488991 74.000000
4.173007 0.256029 -0.489993 86.000000
4.191600 0.244269 -0.492249 54.000000
4.193320 0.231463 -0.492375 65.000000
4.206891 0.219272 -0.494004 38.000000
4.147298 0.152403 -0.486108 34.000000
4.142788 0.139510 -0.485481 34.000000
4.142206 0.126769 -0.485356 37.000000
4.133649 0.113812 -0.484228 49.000000
4.128028 0.100982 -0.483476 45.000000
4.121375 0.088167 -0.482599 42.000000
4.113691 0.075374 -0.481596 48.000000
4.115887 0.062784 -0.481847 51.000000
4.122013 0.050231 -0.482599 36.000000
4.122147 0.037584 -0.482599 32.000000
4.133156 0.025007 -0.483977 49.000000
4.150079 0.012381 -0.486108 40.000000
4.157043 -0.000350 -0.486985 28.000000
4.165950 -0.013129 -0.488113 37.000000
4.173828 -0.025957 -0.489116 8.000000
4.177052 0.387120 -0.543725 29.000000
4.170328 0.373597 -0.542626 41.000000
4.157639 0.359607 -0.540701 64.000000
4.156748 0.346686 -0.540427 65.000000
4.158780 0.334010 -0.540564 74.000000
4.162748 0.321478 -0.540976 80.000000
4.167666 0.308998 -0.541526 73.000000
4.177486 0.296842 -0.542763 73.000000
4.183319 0.284359 -0.543450 89.000000
4.191090 0.271972 -0.544412 93.000000
4.200802 0.259662 -0.545649 69.000000
4.206523 0.247063 -0.546337 57.000000
4.214185 0.234541 -0.547299 37.000000
4.189541 0.143014 -0.543313 32.000000
4.168180 0.129485 -0.540289 53.000000
4.163606 0.116559 -0.539602 60.000000
4.150082 0.103440 -0.537678 60.000000
4.138496 0.090449 -0.536028 56.000000
4.124889 0.077492 -0.534104 77.000000
4.117185 0.064713 -0.533005 59.000000
4.113402 0.052032 -0.532455 71.000000
4.116514 0.039440 -0.532867 77.000000
4.123549 0.026855 -0.533829 72.000000
4.140450 0.014261 -0.536166 55.000000
4.143446 0.001559 -0.536578 68.000000
4.156308 -0.011189 -0.538365 54.000000
4.171112 -0.024027 -0.540427 34.000000
4.175035 0.384278 -0.594028 26.000000
4.188013 0.372522 -0.595819 41.000000
4.135937 0.355089 -0.587762 96.000000
4.148832 0.343381 -0.589553 79.000000
4.155780 0.331123 -0.590448 71.000000
4.155790 0.318296 -0.590299 92.000000
4.167595 0.306345 -0.591940 93.000000
4.179365 0.294325 -0.593581 81.000000
4.182221 0.281635 -0.593879 85.000000
4.188000 0.269121 -0.594625 74.000000
4.187819 0.256211 -0.594476 79.000000
4.189572 0.243419 -0.594625 53.000000
4.161460 0.113861 -0.589553 38.000000
4.153883 0.100899 -0.588359 38.000000
4.141321 0.087879 -0.586420 31.000000
4.123775 0.074845 -0.583734 44.000000
4.109155 0.061965 -0.581496 48.000000
4.101416 0.049261 -0.580303 46.000000
4.099571 0.036659 -0.580004 33.000000
4.115484 0.024179 -0.582392 33.000000
4.128394 0.011593 -0.584331 31.000000
4.134342 -0.001073 -0.585226 15.000000
4.141242 -0.013778 -0.586270 18.000000
4.145135 -0.026507 -0.586867 14.000000
4.196521 0.388187 -0.649116 14.000000
4.192776 0.374871 -0.648310 43.000000
4.189974 0.361667 -0.647666 40.000000
4.188113 0.348565 -0.647183 44.000000
4.189163 0.335715 -0.647183 72.000000
4.191157 0.322937 -0.647344 81.000000
4.193112 0.310150 -0.647505 90.000000
4.196998 0.297493 -0.647988 93.000000
4.200844 0.284815 -0.648471 69.000000
4.200714 0.271862 -0.648310 73.000000
4.229110 0.260671 -0.652821 37.000000
4.198347 0.103908 -0.646699 42.000000
4.172004 0.090452 -0.642350 68.000000
4.166341 0.077543 -0.641384 64.000000
4.141889 0.064379 -0.637356 87.000000
4.130225 0.051525 -0.635423 108.000000
4.131351 0.038862 -0.635584 97.000000
4.126515 0.026157 -0.634779 100.000000
4.140394 0.013540 -0.637034 72.000000
4.158181 0.000840 -0.639934 47.000000
4.160138 -0.011923 -0.640256 53.000000
4.178833 -0.024799 -0.643317 31.000000
4.186936 0.398335 -0.699628 37.000000
4.186176 0.385307 -0.699282 65.000000
4.183414 0.372112 -0.698590 89.000000
4.185518 0.359360 -0.698763 88.000000
4.191508 0.346925 -0.699628 83.000000
4.194517 0.334221 -0.699974 87.000000
4.197486 0.321502 -0.700320 78.000000
4.200418 0.308767 -0.700666 93.000000
4.198398 0.295671 -0.700147 111.000000
4.205181 0.283188 -0.701185 102.000000
4.220774 0.271236 -0.703779 71.000000
4.181262 0.088737 -0.695477 43.000000
