ply
format ascii 1.0
element vertex 1265
property float x
property float y
property float z
property float intensity
end_header
3.757215 -0.067720 0.715546 59.000000
3.758957 -0.079289 0.715904 49.000000
3.756729 -0.090773 0.715546 36.000000
3.757416 -0.102325 0.715725 38.000000
3.763969 -0.114061 0.716975 54.000000
3.763602 -0.125608 0.716975 63.000000
3.759265 -0.137011 0.716261 47.000000
3.754895 -0.148387 0.715546 46.000000
3.757371 -0.160033 0.716082 47.000000
3.758828 -0.171649 0.716440 40.000000
3.758284 -0.183180 0.716440 40.000000
3.755739 -0.194608 0.716082 58.000000
3.743335 -0.205481 0.713939 29.000000
3.729801 0.275346 0.666748 16.000000
3.745381 0.264950 0.669252 41.000000
3.740274 0.253057 0.668250 69.000000
3.742017 0.241644 0.668417 51.000000
3.742741 0.230163 0.668417 60.000000
3.744413 0.218737 0.668584 72.000000
3.745067 0.207248 0.668584 56.000000
3.742731 0.195602 0.668083 59.000000
3.743314 0.184119 0.668083 65.000000
3.740906 0.172497 0.667583 62.000000
3.743388 0.161104 0.667916 70.000000
3.741894 0.149540 0.667583 55.000000
3.744306 0.138132 0.667916 75.000000
3.744712 0.126644 0.667916 72.000000
3.744098 0.115124 0.667750 62.000000
3.744433 0.103637 0.667750 63.000000
3.746705 0.092198 0.668083 59.000000
3.746970 0.080703 0.668083 61.000000
3.750157 0.069262 0.668584 65.000000
3.751338 0.057772 0.668751 60.000000
3.748540 0.046226 0.668250 67.000000
3.748664 0.034725 0.668250 66.000000
3.747767 0.023218 0.668083 56.000000
3.746835 0.011716 0.667916 51.000000
3.744881 0.000220 0.667583 58.000000
3.741907 -0.011261 0.667082 49.000000
3.744812 -0.022758 0.667583 76.000000
3.748668 -0.034282 0.668250 60.000000
3.747560 -0.045770 0.668083 50.000000
3.748387 -0.057282 0.668250 66.000000
3.749180 -0.068800 0.668417 77.000000
3.748951 -0.080302 0.668417 68.000000
3.747701 -0.091779 0.668250 55.000000
3.748388 -0.103303 0.668417 56.000000
3.749039 -0.114833 0.668584 59.000000
3.748669 -0.126334 0.668584 54.000000
3.749249 -0.137870 0.668751 54.000000
3.749794 -0.149411 0.668918 66.000000
3.750303 -0.160956 0.669085 68.000000
3.756685 -0.172776 0.670254 52.000000
3.757123 -0.184349 0.670421 49.000000
3.762447 -0.196181 0.671422 43.000000
3.765765 -0.207939 0.672090 40.000000
3.768063 -0.219663 0.672591 51.000000
3.773276 -0.231582 0.673593 29.000000
3.732465 0.345304 0.621357 39.000000
3.734490 0.333939 0.621512 62.000000
3.744356 0.323244 0.622906 39.000000
3.744346 0.311673 0.622751 53.000000
3.743315 0.300026 0.622442 51.000000
3.744218 0.288541 0.622442 49.000000
3.747055 0.277198 0.622751 49.000000
3.754787 0.266189 0.623835 30.000000
3.746714 0.254067 0.622442 53.000000
3.745504 0.242444 0.622132 54.000000
3.746231 0.230952 0.622132 73.000000
3.745935 0.219400 0.621977 56.000000
3.744618 0.207797 0.621667 68.000000
3.743265 0.196205 0.621357 81.000000
3.738915 0.184477 0.620583 59.000000
3.736503 0.172868 0.620118 53.000000
3.734055 0.161276 0.619654 55.000000
3.734532 0.149820 0.619654 70.000000
3.737936 0.138471 0.620118 53.000000
3.741305 0.127103 0.620583 67.000000
3.745628 0.115746 0.621202 52.000000
3.748927 0.104336 0.621667 70.000000
3.749230 0.092834 0.621667 55.000000
3.748510 0.081310 0.621512 64.000000
3.745778 0.069754 0.621048 56.000000
3.743999 0.058231 0.620738 66.000000
3.741196 0.046708 0.620273 53.000000
3.744286 0.035258 0.620738 52.000000
3.746352 0.023782 0.621048 57.000000
3.747395 0.012292 0.621202 60.000000
3.749391 0.000795 0.621512 51.000000
3.746412 -0.010699 0.621048 57.000000
3.743398 -0.022175 0.620583 67.000000
3.740349 -0.033632 0.620118 58.000000
3.736276 -0.045059 0.619499 66.000000
3.740072 -0.056582 0.620118 53.000000
3.741856 -0.068092 0.620428 48.000000
3.745580 -0.079656 0.621048 62.000000
3.750257 -0.091268 0.621822 53.000000
3.750946 -0.102800 0.621977 46.000000
3.753576 -0.114398 0.622442 54.000000
3.750245 -0.125814 0.621977 45.000000
3.748854 -0.137283 0.621822 51.000000
3.754339 -0.149019 0.622751 52.000000
3.753864 -0.160536 0.622751 56.000000
3.756314 -0.172188 0.623216 53.000000
3.756755 -0.183760 0.623371 62.000000
3.762093 -0.195593 0.624300 39.000000
3.761475 -0.207134 0.624300 44.000000
3.766740 -0.219018 0.625229 37.000000
3.764078 -0.230452 0.624920 36.000000
3.765325 -0.242126 0.625229 34.000000
3.767521 -0.253876 0.625694 27.000000
3.727947 0.379599 0.575221 64.000000
3.728109 0.368063 0.575078 66.000000
3.729220 0.356623 0.575078 65.000000
3.731282 0.345272 0.575221 56.000000
3.736267 0.334177 0.575793 78.000000
3.737275 0.322713 0.575793 90.000000
3.736275 0.311081 0.575507 67.000000
3.733265 0.299299 0.574935 67.000000
3.737126 0.288073 0.575364 78.000000
3.733058 0.276240 0.574649 59.000000
3.734875 0.264856 0.574792 71.000000
3.738632 0.253598 0.575221 48.000000
3.736430 0.241934 0.574792 89.000000
3.738142 0.230531 0.574935 70.000000
3.737844 0.219003 0.574792 76.000000
3.735534 0.207369 0.574363 67.000000
3.735163 0.195855 0.574220 79.000000
3.734758 0.184346 0.574077 80.000000
3.732341 0.172749 0.573649 73.000000
3.729887 0.161168 0.573220 69.000000
3.735308 0.149924 0.573935 64.000000
3.735750 0.138464 0.573935 59.000000
3.736158 0.127002 0.573935 82.000000
3.740487 0.115663 0.574506 77.000000
3.739835 0.104159 0.574363 69.000000
3.744094 0.092784 0.574935 69.000000
3.744361 0.081297 0.574935 58.000000
3.741625 0.069753 0.574506 64.000000
3.741821 0.058273 0.574506 84.000000
3.743962 0.046819 0.574792 55.000000
3.743098 0.035322 0.574649 71.000000
3.742199 0.023832 0.574506 64.000000
3.742254 0.012351 0.574506 65.000000
3.746233 0.000872 0.575078 49.000000
3.745229 -0.010619 0.574935 70.000000
3.743199 -0.022098 0.574649 59.000000
3.740144 -0.033556 0.574220 45.000000
3.740024 -0.045031 0.574220 58.000000
3.741848 -0.056534 0.574506 53.000000
3.740667 -0.067996 0.574363 76.000000
3.741430 -0.079492 0.574506 71.000000
3.742158 -0.090994 0.574649 61.000000
3.742851 -0.102501 0.574792 55.000000
3.741529 -0.113954 0.574649 55.000000
3.739184 -0.125367 0.574363 62.000000
3.735814 -0.136730 0.573935 54.000000
3.736366 -0.148230 0.574077 64.000000
3.738860 -0.159818 0.574506 58.000000
3.745273 -0.171603 0.575507 43.000000
3.746707 -0.183188 0.575793 62.000000
3.750081 -0.194886 0.576365 67.000000
3.749465 -0.206391 0.576365 55.000000
3.752766 -0.218121 0.576937 46.000000
3.747140 -0.229333 0.576222 36.000000
3.741480 -0.240512 0.575507 35.000000
3.739738 -0.251923 0.575364 44.000000
3.739934 -0.263465 0.575507 42.000000
3.740095 -0.275010 0.575650 26.000000
3.889237 -0.297928 0.597382 7.000000
3.736444 0.357236 0.530246 59.000000
3.743446 0.346318 0.531032 42.000000
3.742516 0.334655 0.530770 46.000000
3.739574 0.322831 0.530246 35.000000
3.749439 0.312096 0.531426 56.000000
3.746425 0.300275 0.530901 55.000000
3.745352 0.288628 0.530639 64.000000
3.737322 0.276479 0.529460 56.000000
3.736175 0.264871 0.529198 58.000000
3.735981 0.253341 0.529067 61.000000
3.739708 0.242069 0.529460 54.000000
3.740433 0.230595 0.529460 64.000000
3.741123 0.219118 0.529460 70.000000
3.741777 0.207640 0.529460 52.000000
3.739427 0.196004 0.529067 51.000000
3.737040 0.184384 0.528674 67.000000
3.736598 0.172873 0.528543 56.000000
3.737111 0.161408 0.528543 64.000000
3.740560 0.150061 0.528936 58.000000
3.742985 0.138658 0.529198 64.000000
3.744383 0.127207 0.529329 58.000000
3.745746 0.115749 0.529460 71.000000
3.743111 0.104175 0.529067 66.000000
3.747377 0.092788 0.529591 55.000000
3.746653 0.081270 0.529460 69.000000
3.744902 0.069738 0.529198 54.000000
3.750055 0.058325 0.529853 49.000000
3.744269 0.046746 0.529067 57.000000
3.745386 0.035268 0.529198 74.000000
3.742502 0.023758 0.528805 61.000000
3.739583 0.012267 0.528412 69.000000
3.741586 0.000794 0.528674 67.000000
3.740580 -0.010682 0.528543 54.000000
3.740529 -0.022158 0.528543 55.000000
3.743418 -0.033660 0.528936 63.000000
3.746270 -0.045181 0.529329 67.000000
3.750080 -0.056735 0.529853 53.000000
3.746914 -0.068185 0.529460 54.000000
3.748669 -0.079722 0.529722 59.000000
3.749398 -0.091247 0.529853 59.000000
3.752074 -0.102831 0.530246 42.000000
3.749758 -0.114281 0.529984 40.000000
3.747409 -0.125718 0.529722 53.000000
3.748987 -0.137287 0.529984 51.000000
3.751520 -0.148907 0.530377 50.000000
3.753026 -0.160500 0.530639 57.000000
3.755487 -0.172150 0.531032 50.000000
3.756922 -0.183768 0.531295 40.000000
3.757330 -0.195345 0.531426 41.000000
3.759683 -0.207035 0.531819 59.000000
3.759030 -0.218569 0.531819 40.000000
3.758342 -0.230100 0.531819 54.000000
3.753661 -0.241375 0.531295 44.000000
3.752903 -0.252890 0.531295 53.000000
3.756065 -0.264681 0.531819 43.000000
3.759190 -0.276495 0.532343 42.000000
3.755358 -0.287799 0.531950 51.000000
3.717893 -0.296400 0.527101 17.000000
3.746174 0.335722 0.484784 72.000000
3.750153 0.324485 0.485141 80.000000
3.745194 0.312481 0.484427 75.000000
3.744156 0.300830 0.484189 72.000000
3.745062 0.289342 0.484189 69.000000
3.741971 0.277556 0.483714 95.000000
3.745776 0.266286 0.484070 75.000000
3.744594 0.254658 0.483833 72.000000
3.744367 0.243104 0.483714 83.000000
3.743113 0.231492 0.483476 63.000000
3.742815 0.219949 0.483357 67.000000
3.739506 0.208243 0.482881 79.000000
3.739136 0.196717 0.482762 92.000000
3.739722 0.185244 0.482762 95.000000
3.739281 0.173724 0.482643 84.000000
3.735829 0.162077 0.482168 73.000000
3.736308 0.150615 0.482168 95.000000
3.734768 0.139077 0.481930 73.000000
3.734185 0.127584 0.481811 86.000000
3.736544 0.116190 0.482049 77.000000
3.746808 0.105007 0.483238 53.000000
3.746120 0.093486 0.483119 58.000000
3.750360 0.082081 0.483595 53.000000
3.755557 0.070670 0.484189 69.000000
3.755756 0.059147 0.484189 72.000000
3.755920 0.047625 0.484189 68.000000
3.757041 0.036111 0.484308 70.000000
3.752170 0.024551 0.483714 63.000000
3.752228 0.013039 0.483714 72.000000
3.753243 0.001528 0.483833 56.000000
3.750252 -0.009980 0.483476 50.000000
3.752189 -0.021496 0.483714 42.000000
3.754091 -0.033024 0.483951 48.000000
3.753972 -0.044542 0.483951 75.000000
3.752825 -0.056044 0.483833 55.000000
3.753628 -0.067575 0.483951 45.000000
3.750425 -0.079029 0.483595 64.000000
3.752150 -0.090582 0.483833 75.000000
3.753840 -0.102146 0.484070 82.000000
3.756486 -0.113751 0.484427 77.000000
3.762074 -0.125472 0.485141 69.000000
3.765640 -0.137157 0.485616 63.000000
3.765201 -0.148709 0.485616 55.000000
3.764727 -0.160260 0.485616 76.000000
3.761243 -0.171674 0.485260 64.000000
3.754748 -0.182925 0.484546 62.000000
3.754169 -0.194443 0.484546 50.000000
3.754546 -0.206014 0.484665 49.000000
3.752905 -0.217475 0.484546 40.000000
3.755193 -0.229168 0.484903 54.000000
3.755463 -0.240751 0.485022 62.000000
3.756689 -0.252404 0.485260 67.000000
3.761839 -0.264344 0.485973 49.000000
3.766953 -0.276318 0.486687 32.000000
3.764107 -0.287722 0.486449 45.000000
3.769145 -0.299740 0.487162 49.000000
3.764249 -0.310976 0.486687 34.000000
3.677208 -0.315174 0.476340 16.000000
3.749429 0.312752 0.438565 56.000000
3.747397 0.301008 0.438245 48.000000
3.750285 0.289663 0.438459 47.000000
3.751157 0.278156 0.438459 62.000000
3.751992 0.266646 0.438459 54.000000
3.752792 0.255134 0.438459 49.000000
3.756534 0.243812 0.438779 52.000000
3.756272 0.232225 0.438672 58.000000
3.757959 0.220758 0.438779 55.000000
3.758619 0.209228 0.438779 54.000000
3.756265 0.197539 0.438459 72.000000
3.756853 0.186014 0.438459 62.000000
3.756413 0.174442 0.438352 59.000000
3.747990 0.162529 0.437391 52.000000
3.750458 0.151110 0.437604 51.000000
3.748917 0.139529 0.437391 66.000000
3.746346 0.127926 0.437070 66.000000
3.744733 0.116370 0.436857 57.000000
3.745073 0.104880 0.436857 77.000000
3.746371 0.093415 0.436964 67.000000
3.748628 0.081964 0.437177 57.000000
3.753832 0.070556 0.437711 73.000000
3.756019 0.059070 0.437925 69.000000
3.758171 0.047572 0.438138 71.000000
3.761282 0.036070 0.438459 66.000000
3.760381 0.024524 0.438352 73.000000
3.760438 0.012987 0.438352 48.000000
3.758472 0.001449 0.438138 67.000000
3.755476 -0.010073 0.437818 51.000000
3.758410 -0.021612 0.438138 64.000000
3.758326 -0.033143 0.438138 50.000000
3.756218 -0.044649 0.437925 50.000000
3.756064 -0.056173 0.437925 59.000000
3.754880 -0.067678 0.437818 71.000000
3.754654 -0.079197 0.437818 54.000000
3.755388 -0.090740 0.437925 71.000000
3.757079 -0.102316 0.438138 63.000000
3.756748 -0.113842 0.438138 56.000000
3.759362 -0.125466 0.438459 39.000000
3.755979 -0.136891 0.438138 47.000000
3.757528 -0.148492 0.438352 57.000000
3.758048 -0.160061 0.438459 52.000000
3.758533 -0.171636 0.438565 49.000000
3.757989 -0.183166 0.438565 39.000000
3.758401 -0.194746 0.438672 51.000000
3.757786 -0.206276 0.438672 46.000000
3.761106 -0.218034 0.439099 58.000000
3.759427 -0.229511 0.438993 67.000000
3.765651 -0.241490 0.439740 36.000000
3.763901 -0.252975 0.439633 47.000000
3.765090 -0.264661 0.439847 46.000000
3.770210 -0.276648 0.440488 58.000000
3.774301 -0.288593 0.441021 51.000000
3.773397 -0.300171 0.441021 41.000000
3.774441 -0.311910 0.441235 40.000000
3.772475 -0.323403 0.441128 56.000000
3.765523 -0.334447 0.440488 42.000000
3.766459 -0.346180 0.440701 16.000000
3.731960 0.287673 0.391793 64.000000
3.735803 0.276444 0.392078 78.000000
3.735641 0.264910 0.391983 83.000000
3.736436 0.253448 0.391983 81.000000
3.738189 0.242048 0.392078 74.000000
3.737921 0.230517 0.391983 65.000000
3.739604 0.219107 0.392078 83.000000
3.735289 0.207355 0.391603 93.000000
3.738890 0.196052 0.391888 85.000000
3.743451 0.184778 0.392267 88.000000
3.743006 0.173246 0.392172 78.000000
3.745508 0.161848 0.392362 81.000000
3.745988 0.150356 0.392362 102.000000
3.742452 0.138714 0.391983 101.000000
3.742860 0.127232 0.391983 76.000000
3.741243 0.115686 0.391793 70.000000
3.737600 0.104096 0.391413 57.000000
3.741882 0.092728 0.391793 80.000000
3.744139 0.081292 0.391983 94.000000
3.742381 0.069767 0.391793 68.000000
3.744568 0.058317 0.391983 83.000000
3.740747 0.046777 0.391603 71.000000
3.738883 0.035281 0.391413 81.000000
3.743951 0.023844 0.391888 61.000000
3.743011 0.012354 0.391793 81.000000
3.748008 0.000873 0.392267 67.000000
3.752970 -0.010638 0.392742 66.000000
3.754911 -0.022163 0.392932 77.000000
3.756817 -0.033700 0.393122 69.000000
3.753710 -0.045191 0.392837 80.000000
3.747581 -0.056619 0.392267 64.000000
3.747389 -0.068116 0.392267 67.000000
3.744177 -0.079550 0.391983 71.000000
3.742920 -0.091013 0.391888 88.000000
3.745608 -0.102576 0.392172 91.000000
3.746271 -0.114097 0.392267 86.000000
3.745904 -0.125590 0.392267 66.000000
3.746495 -0.137118 0.392362 71.000000
3.747052 -0.148650 0.392457 53.000000
3.747573 -0.160187 0.392552 60.000000
3.750047 -0.171820 0.392837 68.000000
3.750497 -0.183372 0.392932 60.000000
3.753893 -0.195083 0.393312 53.000000
3.751289 -0.206490 0.393122 64.000000
3.752625 -0.218113 0.393312 49.000000
3.751939 -0.229625 0.393312 70.000000
3.751216 -0.241135 0.393312 65.000000
3.748472 -0.252509 0.393122 76.000000
3.751652 -0.264286 0.393502 64.000000
3.751817 -0.275868 0.393597 56.000000
3.750952 -0.287377 0.393597 56.000000
3.750053 -0.298883 0.393597 53.000000
3.749119 -0.310387 0.393597 51.000000
3.749141 -0.321972 0.393692 59.000000
3.752101 -0.333825 0.394072 58.000000
3.755025 -0.345698 0.394452 29.000000
3.757911 -0.357593 0.394832 50.000000
3.727074 -0.366209 0.391983 17.000000
3.718101 0.275708 0.343361 28.000000
3.738811 0.265711 0.345010 47.000000
3.738614 0.254172 0.344927 50.000000
3.740371 0.242765 0.345010 53.000000
3.742093 0.231350 0.345092 46.000000
3.744775 0.219985 0.345257 62.000000
3.744437 0.208440 0.345175 74.000000
3.745059 0.196951 0.345175 67.000000
3.749627 0.185657 0.345505 82.000000
3.755156 0.174383 0.345917 83.000000
3.760652 0.163077 0.346329 72.000000
3.758147 0.151419 0.346082 50.000000
3.756602 0.139814 0.345917 76.000000
3.756017 0.128255 0.345835 84.000000
3.752409 0.116607 0.345505 57.000000
3.750757 0.105039 0.345340 68.000000
3.751061 0.093531 0.345340 61.000000
3.748341 0.081958 0.345092 63.000000
3.746582 0.070420 0.344927 53.000000
3.750766 0.058988 0.345257 79.000000
3.748937 0.047456 0.345092 80.000000
3.751058 0.035973 0.345257 62.000000
3.754140 0.024484 0.345505 68.000000
3.758184 0.012979 0.345835 57.000000
3.758206 0.001449 0.345835 66.000000
3.758193 -0.010081 0.345835 73.000000
3.755155 -0.021593 0.345587 75.000000
3.757064 -0.033131 0.345752 52.000000
3.751962 -0.044598 0.345340 67.000000
3.748818 -0.056064 0.345092 57.000000
3.748628 -0.067565 0.345092 62.000000
3.751392 -0.079128 0.345340 85.000000
3.752128 -0.090661 0.345422 61.000000
3.754821 -0.102254 0.345670 71.000000
3.753494 -0.113743 0.345587 72.000000
3.753127 -0.125258 0.345587 48.000000
3.752725 -0.136772 0.345587 53.000000
3.749300 -0.148166 0.345340 59.000000
3.748828 -0.159668 0.345340 53.000000
3.751307 -0.171305 0.345587 54.000000
3.754745 -0.183007 0.345917 57.000000
3.761133 -0.194888 0.346494 58.000000
3.765493 -0.206699 0.346907 46.000000
3.770811 -0.218598 0.347401 51.000000
3.772112 -0.230287 0.347566 52.000000
3.771388 -0.241858 0.347566 55.000000
3.768640 -0.253294 0.347401 53.000000
3.765856 -0.264715 0.347236 53.000000
3.762045 -0.276048 0.346989 46.000000
3.761180 -0.287588 0.346989 52.000000
3.752332 -0.298493 0.346329 52.000000
3.757358 -0.310497 0.346824 35.000000
3.750430 -0.321511 0.346329 61.000000
3.749426 -0.333016 0.346329 46.000000
3.754341 -0.345065 0.346824 39.000000
3.753265 -0.356582 0.346824 43.000000
3.752153 -0.368095 0.346824 48.000000
3.756955 -0.380208 0.347319 40.000000
3.673501 -0.383143 0.340475 14.000000
3.747072 0.252865 0.300974 32.000000
3.750817 0.241561 0.301186 47.000000
3.747558 0.229807 0.300904 60.000000
3.749241 0.218367 0.300974 53.000000
3.749893 0.206863 0.300974 56.000000
3.742541 0.194940 0.300409 74.000000
3.744118 0.183506 0.300480 78.000000
3.741674 0.171880 0.300268 90.000000
3.743180 0.160443 0.300339 86.000000
3.742658 0.148919 0.300268 77.000000
3.741104 0.137362 0.300127 81.000000
3.744498 0.125985 0.300339 75.000000
3.744867 0.114497 0.300339 60.000000
3.744204 0.102979 0.300268 84.000000
3.746497 0.091541 0.300409 74.000000
3.744765 0.080003 0.300268 68.000000
3.746988 0.068551 0.300409 98.000000
3.749175 0.057086 0.300551 82.000000
3.747338 0.045559 0.300409 88.000000
3.751450 0.034100 0.300692 70.000000
3.746549 0.022559 0.300339 61.000000
3.756576 0.011097 0.301045 50.000000
3.755595 -0.000428 0.300974 70.000000
3.753580 -0.011945 0.300833 62.000000
3.755522 -0.023472 0.300974 53.000000
3.755431 -0.034994 0.300974 43.000000
3.752314 -0.046479 0.300762 54.000000
3.751157 -0.057976 0.300692 52.000000
3.746972 -0.069411 0.300409 51.000000
3.749733 -0.080970 0.300621 65.000000
3.751461 -0.092522 0.300762 65.000000
3.755148 -0.104141 0.301045 55.000000
3.756805 -0.115722 0.301186 80.000000
3.756433 -0.127247 0.301186 62.000000
3.757021 -0.138807 0.301257 73.000000
3.755581 -0.150293 0.301186 55.000000
3.752112 -0.161687 0.300974 48.000000
3.750602 -0.173152 0.300904 58.000000
3.750053 -0.184657 0.300904 61.000000
3.748473 -0.196110 0.300833 55.000000
3.753830 -0.207938 0.301257 61.000000
3.757157 -0.219685 0.301539 49.000000
3.762440 -0.231577 0.301963 53.000000
3.763702 -0.243247 0.302104 37.000000
3.767915 -0.255128 0.302457 68.000000
3.772089 -0.267037 0.302811 59.000000
3.771252 -0.278609 0.302811 61.000000
3.771374 -0.290254 0.302881 33.000000
3.766489 -0.301506 0.302599 48.000000
3.762564 -0.312813 0.302387 68.000000
3.766556 -0.324781 0.302740 57.000000
3.767528 -0.336512 0.302881 51.000000
3.766478 -0.348069 0.302881 56.000000
3.769365 -0.360001 0.303164 46.000000
3.762286 -0.370978 0.302740 25.000000
3.771055 -0.383525 0.303446 30.000000
3.770852 -0.395197 0.303517 34.000000
3.764663 -0.406230 0.303164 47.000000
3.709861 -0.411851 0.299350 14.000000
3.741578 0.230666 0.253378 30.000000
3.744262 0.219302 0.253494 40.000000
3.741927 0.207648 0.253320 50.000000
3.742546 0.196167 0.253320 41.000000
3.744127 0.184733 0.253378 50.000000
3.746671 0.173338 0.253494 55.000000
3.746188 0.161799 0.253436 77.000000
3.748662 0.150385 0.253552 76.000000
3.750103 0.138921 0.253610 79.000000
3.756498 0.127617 0.253958 84.000000
3.758868 0.116154 0.254075 83.000000
3.760204 0.104649 0.254133 91.000000
3.758511 0.093063 0.254017 90.000000
3.754787 0.081445 0.253784 88.000000
3.751027 0.069851 0.253552 111.000000
3.750225 0.058328 0.253494 96.000000
3.752383 0.046847 0.253610 82.000000
3.752509 0.035334 0.253610 76.000000
3.752600 0.023821 0.253610 63.000000
3.755650 0.012318 0.253784 93.000000
3.755670 0.000796 0.253784 72.000000
3.752660 -0.010718 0.253610 54.000000
3.755604 -0.022249 0.253784 74.000000
3.759511 -0.033807 0.254017 58.000000
3.757394 -0.045316 0.253900 55.000000
3.758235 -0.056859 0.253958 59.000000
3.755048 -0.068334 0.253784 73.000000
3.749830 -0.079747 0.253494 77.000000
3.748570 -0.091227 0.253436 75.000000
3.742285 -0.102562 0.253087 51.000000
3.743949 -0.114104 0.253203 59.000000
3.744579 -0.125623 0.253261 60.000000
3.743178 -0.137074 0.253203 59.000000
3.741742 -0.148518 0.253145 51.000000
3.740272 -0.159954 0.253087 62.000000
3.742755 -0.171565 0.253261 62.000000
3.743208 -0.183096 0.253320 59.000000
3.742629 -0.194579 0.253320 71.000000
3.746998 -0.206335 0.253610 37.000000
3.748341 -0.217946 0.253726 58.000000
3.754630 -0.229873 0.254133 58.000000
3.756895 -0.241583 0.254307 50.000000
3.756136 -0.253108 0.254307 44.000000
3.757334 -0.264771 0.254423 57.000000
3.759491 -0.276517 0.254597 49.000000
3.761611 -0.288279 0.254772 39.000000
3.764689 -0.300136 0.255004 55.000000
3.766736 -0.311932 0.255178 51.000000
3.772723 -0.324085 0.255585 64.000000
3.771711 -0.335658 0.255585 41.000000
3.772652 -0.347412 0.255701 55.000000
3.771568 -0.358984 0.255701 49.000000
3.767468 -0.370260 0.255527 84.000000
3.763335 -0.381515 0.255353 64.000000
3.763140 -0.393162 0.255411 60.000000
3.757946 -0.404278 0.255178 46.000000
3.765618 -0.416795 0.255701 45.000000
3.767297 -0.428685 0.255875 42.000000
3.748117 -0.438152 0.254830 17.000000
3.678363 -0.441434 0.250822 5.000000
3.749290 0.206176 0.209246 45.000000
3.749905 0.194672 0.209246 47.000000
3.755473 0.183412 0.209477 58.000000
3.751028 0.171660 0.209246 45.000000
3.754532 0.160280 0.209384 56.000000
3.752011 0.148641 0.209246 53.000000
3.752450 0.137129 0.209246 55.000000
3.740872 0.125211 0.208691 87.000000
3.737245 0.113611 0.208506 120.000000
3.741570 0.102255 0.208691 105.000000
3.741866 0.090776 0.208691 108.000000
3.744125 0.079339 0.208783 90.000000
3.743351 0.067833 0.208737 77.000000
3.750534 0.056456 0.209061 72.000000
3.755683 0.045010 0.209292 58.000000
3.751808 0.033451 0.209107 65.000000
3.746899 0.021910 0.208876 59.000000
3.741954 0.010399 0.208645 52.000000
3.738971 -0.001082 0.208506 56.000000
3.737952 -0.012549 0.208460 54.000000
3.734899 -0.023999 0.208321 51.000000
3.738803 -0.035494 0.208506 69.000000
3.740674 -0.046989 0.208598 42.000000
3.742510 -0.058495 0.208691 45.000000
3.745309 -0.070032 0.208829 59.000000
3.744078 -0.081501 0.208783 54.000000
3.741813 -0.092938 0.208691 59.000000
3.741511 -0.104417 0.208691 63.000000
3.742171 -0.115926 0.208737 65.000000
3.743794 -0.127474 0.208829 66.000000
3.743386 -0.138959 0.208829 67.000000
3.743940 -0.150483 0.208876 62.000000
3.745457 -0.162054 0.208968 59.000000
3.748934 -0.173728 0.209153 64.000000
3.751376 -0.185376 0.209292 50.000000
3.749792 -0.196832 0.209246 58.000000
3.748173 -0.208280 0.209199 55.000000
3.747516 -0.219778 0.209199 51.000000
3.747821 -0.231336 0.209246 58.000000
3.744103 -0.242640 0.209107 54.000000
3.741348 -0.253991 0.209014 57.000000
3.745534 -0.265820 0.209246 45.000000
3.748685 -0.277604 0.209431 56.000000
3.752796 -0.289486 0.209662 49.000000
3.754877 -0.301237 0.209800 44.000000
3.755927 -0.312920 0.209893 47.000000
3.759925 -0.324870 0.210124 46.000000
3.760901 -0.336581 0.210217 50.000000
3.757861 -0.347935 0.210124 46.000000
3.755781 -0.359367 0.210078 43.000000
3.752673 -0.370692 0.209985 44.000000
3.756487 -0.382708 0.210217 50.000000
3.753309 -0.394023 0.210124 46.000000
3.751089 -0.405429 0.210078 37.000000
3.748834 -0.416825 0.210032 49.000000
3.743568 -0.427872 0.209847 31.000000
3.748191 -0.440052 0.210124 33.000000
3.749798 -0.451907 0.210263 35.000000
3.754343 -0.464143 0.210540 12.000000
4.029198 0.210460 0.172309 19.000000
3.841160 0.188841 0.165911 35.000000
3.763848 0.173475 0.163270 61.000000
3.782335 0.162698 0.163880 34.000000
3.759848 0.150178 0.163101 46.000000
3.751302 0.138312 0.162796 69.000000
3.749712 0.126735 0.162729 70.000000
3.751081 0.115261 0.162763 78.000000
3.754415 0.103835 0.162864 70.000000
3.755715 0.092341 0.162898 82.000000
3.755980 0.080818 0.162898 76.000000
3.756211 0.069294 0.162898 66.000000
3.756406 0.057770 0.162898 77.000000
3.756565 0.046245 0.162898 68.000000
3.756690 0.034720 0.162898 50.000000
3.754779 0.023183 0.162830 65.000000
3.750835 0.011651 0.162695 70.000000
3.747855 0.000144 0.162593 74.000000
3.747838 -0.011355 0.162593 65.000000
3.741789 -0.022816 0.162390 47.000000
3.741701 -0.034295 0.162390 82.000000
3.741578 -0.045774 0.162390 67.000000
3.741420 -0.057253 0.162390 67.000000
3.744225 -0.068787 0.162492 46.000000
3.743996 -0.080274 0.162492 53.000000
3.740735 -0.091686 0.162390 51.000000
3.737439 -0.103079 0.162289 50.000000
3.741101 -0.114668 0.162424 53.000000
3.743728 -0.126246 0.162526 55.000000
3.745321 -0.137805 0.162593 60.000000
3.756864 -0.149773 0.163000 37.000000
3.769367 -0.161857 0.163440 33.000000
3.748885 -0.172500 0.162763 52.000000
3.751333 -0.184148 0.162864 54.000000
3.745760 -0.195395 0.162695 59.000000
3.742150 -0.206720 0.162593 56.000000
3.749480 -0.218666 0.162864 43.000000
3.753779 -0.230475 0.163033 42.000000
3.755049 -0.242120 0.163101 48.000000
3.757280 -0.253841 0.163203 48.000000
3.759474 -0.265579 0.163304 61.000000
3.761631 -0.277332 0.163406 47.000000
3.762756 -0.289025 0.163474 49.000000
3.758863 -0.300328 0.163372 57.000000
3.757924 -0.311859 0.163372 56.000000
3.757945 -0.323472 0.163406 53.000000
3.759922 -0.335267 0.163507 48.000000
3.757880 -0.346708 0.163474 50.000000
3.758788 -0.358426 0.163541 57.000000
3.759660 -0.370152 0.163609 43.000000
3.761490 -0.381988 0.163711 40.000000
3.760300 -0.393526 0.163711 55.000000
3.756094 -0.404739 0.163609 37.000000
3.751855 -0.415930 0.163507 52.000000
3.754533 -0.427892 0.163643 50.000000
3.757173 -0.439874 0.163778 42.000000
3.761760 -0.452115 0.163981 36.000000
3.760355 -0.463653 0.163981 44.000000
3.764864 -0.475941 0.164184 36.000000
3.767351 -0.488003 0.164320 21.000000
4.182265 0.218711 0.126490 30.000000
4.153958 0.204445 0.125862 35.000000
4.101635 0.189243 0.124715 39.000000
3.991327 0.171852 0.122313 33.000000
3.786050 0.151318 0.117855 48.000000
3.755525 0.138550 0.117184 61.000000
3.740945 0.126516 0.116860 67.000000
3.741315 0.115038 0.116860 57.000000
3.733656 0.103335 0.116686 77.000000
3.732956 0.091855 0.116665 92.000000
3.735219 0.080446 0.116708 80.000000
3.740447 0.069080 0.116816 78.000000
3.745639 0.057683 0.116925 80.000000
3.750797 0.046254 0.117033 80.000000
3.754920 0.034785 0.117119 70.000000
3.755009 0.023265 0.117119 53.000000
3.749064 0.011724 0.116989 58.000000
3.743084 0.000220 0.116860 65.000000
3.740068 -0.011256 0.116795 83.000000
3.742015 -0.022742 0.116838 62.000000
3.740928 -0.034213 0.116816 51.000000
3.741805 -0.045702 0.116838 53.000000
3.743647 -0.057211 0.116881 55.000000
3.745453 -0.068732 0.116925 61.000000
3.746223 -0.080244 0.116946 62.000000
3.745960 -0.091737 0.116946 54.000000
3.747660 -0.103283 0.116989 56.000000
3.750323 -0.114872 0.117054 59.000000
3.752951 -0.126477 0.117119 52.000000
3.751546 -0.137954 0.117098 56.000000
3.752104 -0.149502 0.117119 60.000000
3.751628 -0.161013 0.117119 46.000000
3.749119 -0.172431 0.117076 49.000000
3.753565 -0.184175 0.117184 52.000000
3.751984 -0.195638 0.117163 68.000000
3.751366 -0.207148 0.117163 68.000000
3.751711 -0.218714 0.117184 55.000000
3.748028 -0.230041 0.117119 53.000000
3.749300 -0.241666 0.117163 52.000000
3.752531 -0.253436 0.117249 51.000000
3.752733 -0.265018 0.117271 47.000000
3.757885 -0.276969 0.117401 40.000000
3.759012 -0.288649 0.117444 47.000000
3.761098 -0.300418 0.117509 52.000000
3.761155 -0.312038 0.117530 36.000000
3.760180 -0.323575 0.117530 40.000000
3.761161 -0.335287 0.117574 39.000000
3.755137 -0.346367 0.117466 47.000000
3.756047 -0.358075 0.117509 44.000000
3.754931 -0.369597 0.117509 42.000000
3.755769 -0.381316 0.117552 54.000000
3.758559 -0.393252 0.117639 37.000000
3.756341 -0.404674 0.117617 46.000000
3.757069 -0.416416 0.117660 51.000000
3.762727 -0.428731 0.117812 29.000000
3.765366 -0.440737 0.117898 31.000000
3.766974 -0.452643 0.117963 47.000000
3.765568 -0.464198 0.117963 41.000000
3.764126 -0.475749 0.117963 41.000000
3.770581 -0.488319 0.118136 51.000000
3.759154 -0.498574 0.117920 25.000000
3.747699 -0.508762 0.117704 16.000000
4.155191 0.216305 0.074524 42.000000
4.138856 0.202726 0.074366 50.000000
4.148449 0.190439 0.074450 29.000000
4.107054 0.175917 0.074061 49.000000
4.075601 0.162048 0.073765 56.000000
3.914194 0.143620 0.072266 68.000000
3.777699 0.127021 0.070999 55.000000
3.763079 0.114974 0.070860 50.000000
3.757416 0.103264 0.070805 53.000000
3.741721 0.091347 0.070657 58.000000
3.741983 0.079868 0.070657 99.000000
3.755208 0.068623 0.070777 140.000000
3.752402 0.057057 0.070749 142.000000
3.749559 0.045508 0.070722 157.000000
3.742682 0.033942 0.070657 150.000000
3.734769 0.022412 0.070583 132.000000
3.735820 0.010957 0.070592 94.000000
3.744836 -0.000507 0.070675 75.000000
3.745816 -0.011999 0.070685 78.000000
3.746762 -0.023498 0.070694 76.000000
3.750672 -0.035030 0.070731 64.000000
3.748547 -0.046512 0.070712 89.000000
3.750386 -0.058043 0.070731 52.000000
3.752190 -0.069586 0.070749 67.000000
3.751959 -0.081097 0.070749 66.000000
3.751692 -0.092608 0.070749 56.000000
3.752390 -0.104145 0.070759 52.000000
3.751054 -0.115626 0.070749 57.000000
3.763673 -0.127575 0.070870 32.000000
3.754271 -0.138788 0.070786 75.000000
3.755826 -0.150386 0.070805 45.000000
3.753348 -0.161821 0.070786 52.000000
3.754832 -0.173428 0.070805 72.000000
3.754282 -0.184947 0.070805 52.000000
3.753697 -0.196464 0.070805 66.000000
3.751080 -0.207869 0.070786 58.000000
3.749427 -0.219317 0.070777 54.000000
3.748736 -0.230819 0.070777 57.000000
3.747012 -0.242255 0.070768 66.000000
3.747249 -0.253817 0.070777 51.000000
3.748448 -0.265453 0.070796 65.000000
3.751604 -0.277247 0.070833 56.000000
3.756718 -0.289217 0.070888 64.000000
3.762790 -0.301301 0.070953 65.000000
3.764838 -0.313092 0.070981 42.000000
3.768841 -0.325071 0.071027 67.000000
3.761850 -0.336098 0.070971 46.000000
3.760801 -0.347637 0.070971 49.000000
3.757726 -0.358983 0.070953 43.000000
3.759593 -0.370805 0.070981 37.000000
3.763411 -0.382844 0.071027 40.000000
3.766197 -0.394806 0.071064 41.000000
3.769939 -0.406895 0.071110 40.000000
3.784574 -0.420227 0.071258 33.000000
4.160561 0.230371 0.022414 26.000000
4.146269 0.216818 0.022464 60.000000
4.142920 0.203899 0.022477 54.000000
4.136533 0.190863 0.022500 48.000000
4.113122 0.177132 0.022580 65.000000
4.093662 0.163707 0.022646 54.000000
4.076158 0.150478 0.022706 103.000000
4.061609 0.137460 0.022756 73.000000
3.809135 0.117144 0.023595 32.000000
3.789485 0.104898 0.023661 46.000000
3.780791 0.093047 0.023691 54.000000
3.762064 0.081033 0.023754 48.000000
3.749297 0.069246 0.023797 65.000000
3.748492 0.057727 0.023800 66.000000
3.735653 0.046063 0.023843 112.000000
3.734776 0.034592 0.023847 137.000000
3.733865 0.023127 0.023850 138.000000
3.735919 0.011679 0.023843 79.000000
3.736937 0.000217 0.023840 97.000000
3.740920 -0.011258 0.023827 67.000000
3.743868 -0.022752 0.023817 56.000000
3.745780 -0.034256 0.023810 58.000000
3.745657 -0.045748 0.023810 68.000000
3.749499 -0.057299 0.023797 48.000000
3.747306 -0.068766 0.023804 70.000000
3.744077 -0.080199 0.023814 70.000000
3.744814 -0.091709 0.023810 66.000000
3.743515 -0.103171 0.023814 75.000000
3.743181 -0.114655 0.023814 95.000000
3.747808 -0.126305 0.023797 66.000000
3.749402 -0.137876 0.023790 68.000000
3.755956 -0.149654 0.023767 76.000000
3.760474 -0.161390 0.023751 67.000000
3.760961 -0.172972 0.023747 71.000000
3.762410 -0.184607 0.023741 57.000000
3.762824 -0.196200 0.023737 59.000000
3.759209 -0.207579 0.023747 53.000000
3.752565 -0.218764 0.023767 52.000000
3.750878 -0.230215 0.023770 63.000000
3.750154 -0.241721 0.023770 43.000000
3.751390 -0.253359 0.023764 46.000000
3.752591 -0.265008 0.023757 60.000000
3.745776 -0.276080 0.023777 28.000000
3.752888 -0.288181 0.023751 36.000000
3.759961 -0.300328 0.023724 36.000000
3.754039 -0.311450 0.023741 37.000000
3.755059 -0.323136 0.023734 30.000000
3.776959 -0.336690 0.023658 14.000000
4.159588 0.256392 -0.029040 28.000000
4.163350 0.243805 -0.029087 58.000000
4.155093 0.230533 -0.028946 62.000000
4.152786 0.217628 -0.028898 76.000000
4.129466 0.203706 -0.028521 57.000000
4.113092 0.190252 -0.028254 31.000000
4.104665 0.177245 -0.028113 37.000000
4.090204 0.164052 -0.027877 49.000000
4.069704 0.150727 -0.027548 64.000000
4.052161 0.137631 -0.027265 57.000000
4.037572 0.124737 -0.027029 64.000000
4.017946 0.111795 -0.026715 63.000000
3.924310 0.097151 -0.025239 56.000000
3.817628 0.082802 -0.023558 56.000000
3.776876 0.070330 -0.022914 66.000000
3.768076 0.058603 -0.022773 44.000000
3.754241 0.046870 -0.022553 60.000000
3.745369 0.035268 -0.022411 75.000000
3.749459 0.023802 -0.022474 105.000000
3.747515 0.012292 -0.022443 127.000000
3.749535 0.000795 -0.022474 106.000000
3.748519 -0.010705 -0.022458 89.000000
3.746469 -0.022193 -0.022427 63.000000
3.746384 -0.033687 -0.022427 82.000000
3.748262 -0.045205 -0.022458 69.000000
3.751105 -0.056750 -0.022506 65.000000
3.754912 -0.068331 -0.022568 57.000000
3.756684 -0.079894 -0.022600 75.000000
3.758420 -0.091468 -0.022631 60.000000
3.764119 -0.103163 -0.022725 53.000000
3.760787 -0.114619 -0.022678 62.000000
3.758419 -0.126089 -0.022647 55.000000
3.764009 -0.137839 -0.022741 53.000000
3.766566 -0.149506 -0.022788 59.000000
3.767089 -0.161103 -0.022804 54.000000
3.768574 -0.172752 -0.022835 42.000000
3.766029 -0.184215 -0.022804 52.000000
3.765447 -0.195768 -0.022804 46.000000
3.770818 -0.207650 -0.022898 42.000000
3.767169 -0.219043 -0.022851 46.000000
3.767477 -0.230661 -0.022867 24.000000
3.777728 -0.242925 -0.023040 19.000000
3.771976 -0.254177 -0.022961 34.000000
3.787137 -0.266874 -0.023212 21.000000
3.774335 -0.277610 -0.023024 41.000000
3.780444 -0.289724 -0.023134 21.000000
3.803458 -0.303231 -0.023511 10.000000
4.170809 0.282320 -0.079420 24.000000
4.169660 0.269394 -0.079365 46.000000
4.170467 0.256600 -0.079365 47.000000
4.155268 0.242866 -0.078921 61.000000
4.152999 0.229950 -0.078837 49.000000
4.139710 0.216473 -0.078449 79.000000
4.119388 0.202734 -0.077866 41.000000
4.104014 0.189353 -0.077422 56.000000
4.089596 0.176112 -0.077006 50.000000
4.097109 0.163846 -0.077200 41.000000
4.099590 0.151350 -0.077256 29.000000
4.060074 0.137408 -0.076146 62.000000
4.051484 0.124672 -0.075896 78.000000
4.036860 0.111822 -0.075480 73.000000
4.046176 0.099661 -0.075730 82.000000
4.017482 0.086613 -0.074925 71.000000
3.786858 0.069952 -0.068515 41.000000
3.784057 0.058286 -0.068432 45.000000
3.765226 0.046437 -0.067905 47.000000
3.747359 0.034713 -0.067406 36.000000
3.733453 0.023125 -0.067017 44.000000
3.740504 0.011694 -0.067211 70.000000
3.741522 0.000219 -0.067239 69.000000
3.740505 -0.011257 -0.067211 48.000000
3.742453 -0.022744 -0.067267 65.000000
3.742365 -0.034226 -0.067267 49.000000
3.743242 -0.045719 -0.067295 46.000000
3.749081 -0.057293 -0.067461 43.000000
3.750887 -0.068830 -0.067517 44.000000
3.756654 -0.080464 -0.067683 43.000000
3.759388 -0.092062 -0.067766 46.000000
3.755091 -0.103486 -0.067655 63.000000
3.758752 -0.115127 -0.067766 52.000000
3.761378 -0.126758 -0.067850 48.000000
3.861866 -0.141976 -0.070652 20.000000
4.202039 0.297850 -0.133114 30.000000
4.167045 0.282527 -0.131663 95.000000
4.161910 0.269355 -0.131421 100.000000
4.150748 0.255848 -0.130937 104.000000
4.152512 0.243171 -0.130978 92.000000
4.131289 0.229214 -0.130091 67.000000
4.125986 0.216226 -0.129849 40.000000
4.105672 0.202534 -0.129003 43.000000
4.086312 0.189016 -0.128196 67.000000
4.075891 0.176005 -0.127753 63.000000
4.069424 0.163220 -0.127471 75.000000
4.065912 0.150587 -0.127310 63.000000
4.066354 0.138112 -0.127310 66.000000
4.067758 0.125667 -0.127350 63.000000
4.065128 0.113104 -0.127229 78.000000
4.062459 0.100557 -0.127108 87.000000
4.054757 0.087921 -0.126786 72.000000
4.042020 0.075240 -0.126262 77.000000
4.027246 0.062608 -0.125657 79.000000
3.917517 0.048891 -0.121223 51.000000
3.796752 0.035746 -0.116346 47.000000
3.786852 0.024035 -0.115943 49.000000
3.781912 0.012402 -0.115742 56.000000
3.784930 0.000799 -0.115863 34.000000
3.791909 -0.010834 -0.116145 51.000000
3.800850 -0.022521 -0.116508 51.000000
3.848722 -0.034618 -0.118442 37.000000
3.898553 -0.047033 -0.120458 32.000000
3.951342 -0.059800 -0.122594 30.000000
4.068025 -0.074062 -0.127310 37.000000
4.116727 -0.087588 -0.129285 36.000000
4.156395 -0.101194 -0.130897 20.000000
4.175042 -0.114467 -0.131663 39.000000
4.198641 -0.128008 -0.132630 24.000000
4.181756 0.281604 -0.182647 53.000000
4.174628 0.268258 -0.182228 55.000000
4.184402 0.256001 -0.182699 32.000000
4.164232 0.241940 -0.181600 41.000000
4.151992 0.228446 -0.180920 49.000000
4.138712 0.214978 -0.180187 57.000000
4.142344 0.202426 -0.180344 39.000000
4.119004 0.188614 -0.179088 63.000000
4.110584 0.175590 -0.178617 58.000000
4.102123 0.162619 -0.178146 53.000000
4.092623 0.149666 -0.177623 52.000000
4.085079 0.136839 -0.177204 47.000000
4.077494 0.124061 -0.176785 69.000000
4.070867 0.111357 -0.176419 47.000000
4.063203 0.098671 -0.176000 74.000000
4.059493 0.086119 -0.175791 72.000000
4.058740 0.073646 -0.175738 49.000000
4.053954 0.061117 -0.175477 65.000000
4.053124 0.048667 -0.175424 66.000000
4.053254 0.036232 -0.175424 67.000000
4.046357 0.023754 -0.175058 53.000000
4.056396 0.011370 -0.175581 62.000000
4.039435 -0.001075 -0.174692 32.000000
4.077361 -0.013583 -0.176680 43.000000
4.090282 -0.026172 -0.177361 56.000000
4.098171 -0.038794 -0.177780 47.000000
4.108018 -0.051489 -0.178303 44.000000
4.119823 -0.064276 -0.178931 28.000000
4.134584 -0.077190 -0.179716 34.000000
4.144311 -0.090089 -0.180239 31.000000
4.146012 -0.102852 -0.180344 42.000000
4.174626 -0.116370 -0.181862 24.000000
4.197207 -0.129881 -0.183065 14.000000
4.172773 0.295778 -0.234047 31.000000
4.161714 0.282166 -0.233270 42.000000
4.152602 0.268753 -0.232623 47.000000
4.145439 0.255521 -0.232106 50.000000
4.136241 0.242220 -0.231459 65.000000
4.126005 0.228922 -0.230747 54.000000
4.118715 0.215845 -0.230229 68.000000
4.112381 0.202865 -0.229776 70.000000
4.106006 0.189925 -0.229323 55.000000
4.107567 0.177370 -0.229388 60.000000
4.105100 0.164648 -0.229194 58.000000
4.100600 0.151868 -0.228870 59.000000
4.101047 0.139287 -0.228870 65.000000
4.094472 0.126490 -0.228417 51.000000
4.088856 0.113761 -0.228029 57.000000
4.087191 0.101167 -0.227900 59.000000
4.081496 0.088498 -0.227511 50.000000
4.081748 0.075976 -0.227511 41.000000
4.083957 0.063484 -0.227641 50.000000
4.085131 0.050967 -0.227706 49.000000
4.091255 0.038489 -0.228094 39.000000
4.097342 0.025974 -0.228482 49.000000
4.100396 0.013413 -0.228676 50.000000
4.103411 0.000834 -0.228870 49.000000
4.102396 -0.011752 -0.228806 51.000000
4.105334 -0.024356 -0.229000 42.000000
4.110229 -0.036997 -0.229323 53.000000
4.113091 -0.049643 -0.229517 49.000000
4.119904 -0.062368 -0.229970 45.000000
4.129670 -0.075190 -0.230617 41.000000
4.137401 -0.088030 -0.231135 41.000000
4.149083 -0.101015 -0.231911 47.000000
4.154739 -0.113908 -0.232300 38.000000
4.159357 -0.126807 -0.232623 34.000000
4.195850 -0.140809 -0.235017 26.000000
4.168459 0.306409 -0.283487 19.000000
4.154460 0.292564 -0.282339 42.000000
4.151359 0.279548 -0.282032 45.000000
4.146227 0.266425 -0.281573 36.000000
4.133092 0.252847 -0.280502 50.000000
4.123895 0.239585 -0.279736 51.000000
4.115651 0.226436 -0.279047 56.000000
4.111348 0.213549 -0.278664 65.000000
4.108995 0.200787 -0.278435 57.000000
4.103617 0.187905 -0.277976 53.000000
4.108158 0.175486 -0.278282 48.000000
4.107681 0.162841 -0.278205 56.000000
4.107164 0.150202 -0.278129 50.000000
4.108603 0.137634 -0.278205 49.000000
4.105019 0.124906 -0.277899 57.000000
4.097410 0.112091 -0.277287 33.000000
4.098731 0.099544 -0.277363 55.000000
4.095030 0.086883 -0.277057 41.000000
4.095277 0.074320 -0.277057 33.000000
4.092495 0.061709 -0.276827 38.000000
4.091668 0.049141 -0.276751 29.000000
4.094790 0.036615 -0.276980 39.000000
4.093886 0.024046 -0.276904 52.000000
4.092944 0.011483 -0.276827 48.000000
4.090966 -0.001074 -0.276674 34.000000
4.089946 -0.013622 -0.276598 33.000000
4.090882 -0.026176 -0.276674 42.000000
4.097762 -0.038790 -0.277210 41.000000
4.095630 -0.051337 -0.277057 33.000000
4.105422 -0.064055 -0.277822 40.000000
4.113182 -0.076797 -0.278435 41.000000
4.120902 -0.089586 -0.279047 35.000000
4.128582 -0.102424 -0.279660 33.000000
4.137218 -0.115338 -0.280348 21.000000
4.140831 -0.128152 -0.280655 17.000000
4.142411 -0.140923 -0.280808 21.000000
4.152338 0.305686 -0.333269 37.000000
4.142326 0.292175 -0.332293 51.000000
4.136246 0.278997 -0.331672 58.000000
4.128137 0.265731 -0.330874 56.000000
4.116008 0.252273 -0.329720 80.000000
4.110796 0.239298 -0.329188 57.000000
4.106538 0.226411 -0.328744 69.000000
4.103235 0.213605 -0.328390 78.000000
4.104866 0.201064 -0.328478 91.000000
4.110438 0.188697 -0.328922 55.000000
4.113983 0.176213 -0.329188 73.000000
4.118485 0.163749 -0.329543 79.000000
4.122950 0.151258 -0.329898 50.000000
4.124390 0.138642 -0.329987 67.000000
4.125792 0.126018 -0.330075 58.000000
4.126159 0.113360 -0.330075 64.000000
4.123500 0.100628 -0.329809 78.000000
4.120802 0.087913 -0.329543 61.000000
4.121053 0.075270 -0.329543 53.000000
4.118276 0.062582 -0.329277 49.000000
4.117453 0.049935 -0.329188 40.000000
4.109618 0.037231 -0.328478 54.000000
4.100749 0.024570 -0.327680 88.000000
4.095825 0.011975 -0.327236 51.000000
4.091858 -0.000590 -0.326881 51.000000
4.086856 -0.013127 -0.326438 57.000000
4.088789 -0.025678 -0.326615 52.000000
4.089687 -0.038232 -0.326704 40.000000
4.094531 -0.050841 -0.327147 39.000000
4.101326 -0.063511 -0.327769 60.000000
4.105096 -0.076168 -0.328123 53.000000
4.111814 -0.088913 -0.328744 37.000000
4.120483 -0.101750 -0.329543 38.000000
4.126125 -0.114557 -0.330075 22.000000
4.131729 -0.127400 -0.330608 31.000000
4.136295 -0.140245 -0.331051 19.000000
4.202907 0.322653 -0.391131 20.000000
4.159230 0.306455 -0.386576 47.000000
4.151219 0.293060 -0.385665 46.000000
4.138202 0.279381 -0.384248 64.000000
4.132091 0.266234 -0.383539 49.000000
4.122958 0.252944 -0.382527 43.000000
4.111797 0.239596 -0.381312 52.000000
4.108539 0.226760 -0.380907 61.000000
4.108222 0.214102 -0.380806 63.000000
4.110847 0.201595 -0.381008 63.000000
4.112440 0.189028 -0.381109 45.000000
4.116976 0.176582 -0.381514 58.000000
4.122469 0.164150 -0.382020 49.000000
4.125935 0.151612 -0.382324 51.000000
4.130358 0.139088 -0.382729 58.000000
4.138720 0.126661 -0.383539 49.000000
4.143068 0.114074 -0.383944 38.000000
4.142403 0.101338 -0.383843 38.000000
4.144684 0.088672 -0.384045 51.000000
4.139963 0.075863 -0.383539 44.000000
4.141171 0.063177 -0.383640 30.000000
4.131397 0.050348 -0.382628 36.000000
4.119595 0.037560 -0.381413 44.000000
4.110737 0.024865 -0.380502 61.000000
4.103830 0.012230 -0.379793 36.000000
4.095889 -0.000362 -0.378984 36.000000
4.089900 -0.012910 -0.378376 39.000000
4.088846 -0.025452 -0.378275 28.000000
4.089744 -0.038005 -0.378376 40.000000
4.084634 -0.050492 -0.377870 32.000000
4.098386 -0.063234 -0.379287 57.000000
4.105135 -0.075935 -0.379996 49.000000
4.112841 -0.088698 -0.380806 43.000000
4.130451 -0.101752 -0.382628 23.000000
4.129125 -0.114396 -0.382527 32.000000
4.134721 -0.127245 -0.383134 28.000000
4.129340 -0.139763 -0.382628 7.000000
4.145020 0.305872 -0.434837 41.000000
4.145939 0.293154 -0.434837 58.000000
4.139879 0.279965 -0.434046 62.000000
4.132787 0.266751 -0.433142 62.000000
4.124660 0.253523 -0.432124 51.000000
4.118475 0.240463 -0.431333 71.000000
4.115225 0.227607 -0.430881 68.000000
4.116896 0.215032 -0.430994 73.000000
4.121506 0.202596 -0.431446 76.000000
4.124094 0.190041 -0.431672 63.000000
4.128627 0.177558 -0.432124 75.000000
4.135110 0.165128 -0.432803 86.000000
4.140562 0.152624 -0.433368 64.000000
4.142004 0.139953 -0.433481 92.000000
4.157310 0.127701 -0.435176 60.000000
4.180526 0.115576 -0.437776 39.000000
4.208673 0.103431 -0.440941 26.000000
4.182406 0.077113 -0.437889 33.000000
4.158780 0.063917 -0.435176 52.000000
4.145047 0.050988 -0.433594 42.000000
4.141210 0.038234 -0.433142 50.000000
4.131372 0.025469 -0.432011 77.000000
4.114540 0.012743 -0.430090 46.000000
4.105617 0.000120 -0.429073 33.000000
4.102617 -0.012466 -0.428733 42.000000
4.095604 -0.025010 -0.427942 41.000000
4.094515 -0.037566 -0.427829 61.000000
4.090406 -0.050078 -0.427377 62.000000
4.098181 -0.062750 -0.428281 40.000000
4.104924 -0.075451 -0.429073 40.000000
4.110633 -0.088173 -0.429751 38.000000
4.114316 -0.100881 -0.430203 38.000000
4.120940 -0.113696 -0.430994 38.000000
4.165262 -0.127713 -0.436080 16.000000
4.162624 0.306706 -0.489116 31.000000
4.144743 0.292601 -0.486735 47.000000
4.137702 0.279347 -0.485732 64.000000
4.129629 0.266075 -0.484604 67.000000
4.127456 0.253221 -0.484228 80.000000
4.128213 0.240557 -0.484228 52.000000
4.126950 0.227781 -0.483977 84.000000
4.137537 0.215638 -0.485231 49.000000
4.138179 0.202943 -0.485231 71.000000
4.142747 0.190430 -0.485732 60.000000
4.148267 0.177933 -0.486359 54.000000
4.154742 0.165444 -0.487111 47.000000
4.159195 0.152843 -0.487612 44.000000
4.180467 0.140789 -0.490244 25.000000
4.156559 0.063416 -0.486985 20.000000
4.142845 0.050491 -0.485231 37.000000
4.140004 0.037752 -0.484855 28.000000
4.127204 0.024969 -0.483225 27.000000
4.117340 0.012274 -0.481972 35.000000
4.104460 -0.000360 -0.480343 26.000000
4.101463 -0.012944 -0.479967 35.000000
4.099421 -0.025515 -0.479716 30.000000
4.100315 -0.038101 -0.479841 34.000000
4.107123 -0.050764 -0.480719 46.000000
4.116868 -0.063514 -0.481972 31.000000
4.127565 -0.076343 -0.483351 39.000000
4.131279 -0.089090 -0.483852 37.000000
4.149831 -0.102224 -0.486233 27.000000
4.166358 -0.115417 -0.488364 16.000000
4.172605 0.309364 -0.542213 34.000000
4.163653 0.295860 -0.540839 51.000000
4.142801 0.281609 -0.537815 77.000000
4.134749 0.268321 -0.536578 86.000000
4.134564 0.255574 -0.536441 93.000000
4.138295 0.243062 -0.536853 77.000000
4.142978 0.230584 -0.537403 66.000000
4.153557 0.218392 -0.538777 97.000000
4.162122 0.206039 -0.539877 85.000000
4.170650 0.193636 -0.540976 84.000000
4.175183 0.181011 -0.541526 76.000000
4.183636 0.168519 -0.542626 60.000000
4.184531 0.065765 -0.542351 23.000000
4.161933 0.052641 -0.539190 61.000000
4.155142 0.039807 -0.538227 46.000000
4.144349 0.026989 -0.536716 46.000000
4.129555 0.014224 -0.534654 50.000000
4.119674 0.001552 -0.533279 42.000000
4.113717 -0.011071 -0.532455 58.000000
4.110692 -0.023674 -0.532042 67.000000
4.113571 -0.036312 -0.532455 60.000000
4.123344 -0.049051 -0.533829 50.000000
4.127136 -0.061760 -0.534379 52.000000
4.136831 -0.074601 -0.535753 41.000000
4.136582 -0.087293 -0.535753 56.000000
4.161051 -0.100584 -0.539190 20.000000
4.194241 0.321252 -0.596117 32.000000
4.173512 0.306782 -0.592835 51.000000
4.165556 0.293349 -0.591492 57.000000
4.161504 0.280234 -0.590746 68.000000
4.163331 0.267529 -0.590895 59.000000
4.163145 0.254694 -0.590746 61.000000
4.166868 0.242094 -0.591194 113.000000
4.170553 0.229473 -0.591641 90.000000
4.172225 0.216728 -0.591790 98.000000
4.178796 0.204218 -0.592686 76.000000
4.199158 0.192307 -0.595669 55.000000
4.217511 0.180188 -0.598355 37.000000
4.152831 0.049893 -0.588061 22.000000
4.147031 0.037097 -0.587166 30.000000
4.143170 0.024350 -0.586569 20.000000
4.128394 0.011593 -0.584331 27.000000
4.121488 -0.001073 -0.583287 39.000000
4.115532 -0.013700 -0.582392 38.000000
4.110527 -0.026296 -0.581646 49.000000
4.118337 -0.038979 -0.582839 43.000000
