ply
format ascii 1.0
element vertex 1265
property float x
property float y
property float z
property float intensity
end_header
1.879274 0.011385 0.535167 7.000000
1.886070 -0.000143 0.536977 5.000000
1.923706 -0.011926 0.547065 5.000000
1.873077 -0.040381 0.533615 9.000000
1.852665 -0.045641 0.528183 12.000000
1.799625 -0.072003 0.514216 7.000000
1.834640 -0.107234 0.524045 9.000000
1.860167 -0.131632 0.531287 6.000000
1.911839 -0.152952 0.545513 9.000000
2.079488 -0.217734 0.591811 11.000000
2.121071 -0.228645 0.603192 14.000000
2.143403 -0.237694 0.609400 18.000000
2.158980 -0.246120 0.613797 20.000000
2.165891 -0.253637 0.615866 18.000000
2.169898 -0.260855 0.617159 31.000000
2.169087 -0.267511 0.617159 30.000000
2.166340 -0.273923 0.616642 17.000000
2.180818 -0.282545 0.620780 21.000000
2.181856 -0.289488 0.621298 34.000000
2.183829 -0.296569 0.622073 27.000000
2.187693 -0.303929 0.623367 28.000000
2.178143 -0.309421 0.621039 15.000000
2.171447 -0.315273 0.619487 24.000000
2.124601 -0.315155 0.607072 13.000000
2.100700 -0.318212 0.600864 15.000000
2.051024 -0.317154 0.587673 10.000000
1.958433 -0.309045 0.562843 6.000000
1.929816 -0.310617 0.555342 6.000000
1.890713 -0.316259 0.545254 8.000000
1.913543 -0.326101 0.551721 9.000000
1.914437 -0.332300 0.552238 6.000000
1.846815 -0.326443 0.534132 9.000000
1.982307 0.116630 0.539408 4.000000
1.981450 0.073928 0.538666 5.000000
1.980730 0.025254 0.538171 7.000000
1.960501 0.012969 0.532973 6.000000
1.954731 0.000938 0.531488 7.000000
1.931447 -0.010920 0.525548 7.000000
1.957501 -0.023085 0.532231 10.000000
1.926420 -0.028623 0.524311 9.000000
1.927292 -0.034551 0.524558 14.000000
1.920397 -0.040320 0.522826 9.000000
1.922201 -0.046258 0.523321 9.000000
1.923987 -0.052208 0.523816 15.000000
1.875396 -0.056639 0.511440 14.000000
1.872308 -0.062295 0.510698 15.000000
1.886632 -0.068569 0.514410 21.000000
1.877699 -0.074012 0.512183 14.000000
1.877464 -0.079772 0.512183 25.000000
1.881082 -0.085709 0.513173 19.000000
1.877907 -0.091338 0.512430 30.000000
1.896969 -0.098103 0.517380 26.000000
1.894724 -0.103816 0.516885 20.000000
1.885692 -0.109123 0.514658 30.000000
1.890183 -0.115204 0.515895 30.000000
1.887887 -0.120878 0.515400 30.000000
1.884608 -0.126474 0.514658 35.000000
1.889043 -0.132596 0.515895 27.000000
1.884762 -0.138107 0.514905 27.000000
1.885296 -0.143962 0.515153 31.000000
1.881948 -0.149515 0.514410 32.000000
1.883411 -0.155448 0.514905 32.000000
1.890648 -0.161888 0.516885 29.000000
1.877597 -0.166572 0.513668 41.000000
1.903127 -0.174728 0.520350 29.000000
1.918014 -0.182034 0.524311 29.000000
1.893341 -0.185550 0.518123 43.000000
1.896618 -0.191749 0.519113 45.000000
1.923003 -0.200384 0.526043 35.000000
1.893479 -0.203175 0.518618 48.000000
1.943887 -0.214629 0.531736 31.000000
1.895085 -0.215118 0.519360 54.000000
1.893454 -0.220819 0.519113 55.000000
1.915855 -0.229396 0.525053 43.000000
1.922835 -0.236219 0.527033 44.000000
1.920179 -0.241875 0.526538 41.000000
1.919428 -0.247765 0.526538 47.000000
1.917698 -0.253525 0.526291 48.000000
1.924592 -0.260448 0.528271 39.000000
1.918026 -0.265553 0.526786 40.000000
1.890342 -0.267628 0.519855 55.000000
1.885958 -0.290657 0.519608 48.000000
1.864001 -0.293127 0.514163 55.000000
1.866920 -0.299458 0.515153 47.000000
1.863124 -0.304715 0.514410 44.000000
1.856446 -0.309472 0.512925 41.000000
1.855488 -0.315166 0.512925 50.000000
1.855467 -0.321023 0.513173 53.000000
1.856382 -0.327050 0.513668 41.000000
1.853462 -0.332402 0.513173 39.000000
1.850528 -0.337738 0.512678 46.000000
1.850435 -0.343591 0.512925 37.000000
1.849373 -0.349267 0.512925 56.000000
1.843342 -0.389300 0.513420 50.000000
1.845928 -0.395767 0.514410 61.000000
1.844705 -0.401428 0.514410 29.000000
1.839681 -0.406250 0.513420 48.000000
1.838426 -0.411892 0.513420 34.000000
1.844711 -0.419249 0.515400 39.000000
1.846249 -0.425560 0.516143 43.000000
1.843991 -0.431002 0.515895 45.000000
1.841717 -0.436433 0.515648 35.000000
1.845080 -0.443214 0.516885 44.000000
1.842770 -0.448643 0.516638 46.000000
1.829618 -0.469296 0.514658 43.000000
1.832858 -0.476126 0.515895 41.000000
1.830452 -0.481500 0.515648 40.000000
1.828966 -0.487113 0.515648 49.000000
1.829334 -0.493227 0.516143 54.000000
1.831551 -0.499858 0.517133 56.000000
1.831876 -0.505991 0.517628 33.000000
1.823784 -0.509782 0.515895 47.000000
1.824076 -0.515903 0.516390 54.000000
1.833662 -0.524697 0.519360 26.000000
1.820876 -0.527085 0.516390 41.000000
1.822970 -0.533759 0.517380 30.000000
1.821323 -0.539349 0.517380 47.000000
1.822445 -0.545769 0.518123 32.000000
1.830034 -0.554167 0.520598 31.000000
1.823693 -0.558360 0.519360 44.000000
1.822897 -0.564239 0.519608 38.000000
1.823931 -0.570697 0.520350 34.000000
1.822172 -0.576291 0.520350 28.000000
1.820395 -0.581878 0.520350 35.000000
1.817680 -0.587162 0.520103 30.000000
1.811265 -0.591232 0.518865 28.000000
1.810362 -0.597090 0.519113 35.000000
1.804846 -0.601415 0.518123 28.000000
1.808501 -0.608805 0.519608 33.000000
1.806625 -0.614351 0.519608 31.000000
1.799234 -0.618001 0.518123 26.000000
1.800075 -0.624471 0.518865 27.000000
1.781693 -0.624221 0.514410 17.000000
1.778856 -0.629361 0.514163 15.000000
1.775092 -0.634163 0.513668 8.000000
1.923037 0.177377 0.501697 43.000000
1.921636 0.171303 0.501225 33.000000
1.916345 0.164903 0.499808 42.000000
1.914905 0.158861 0.499335 46.000000
1.918289 0.153219 0.500044 39.000000
1.912937 0.146884 0.498627 51.000000
1.906595 0.140510 0.496974 52.000000
1.911864 0.135005 0.498154 61.000000
1.907422 0.128809 0.496974 40.000000
1.910717 0.123145 0.497682 48.000000
1.910116 0.117223 0.497446 45.000000
1.904646 0.111019 0.496029 54.000000
1.903037 0.105067 0.495557 48.000000
1.905292 0.099330 0.496029 45.000000
1.903646 0.093388 0.495557 54.000000
1.905865 0.087638 0.496029 50.000000
1.906125 0.081790 0.496029 39.000000
1.911222 0.076138 0.497210 48.000000
1.914359 0.070383 0.497918 52.000000
1.915537 0.064543 0.498154 43.000000
1.916698 0.058696 0.498391 39.000000
1.917840 0.052843 0.498627 45.000000
1.915079 0.046886 0.497918 44.000000
1.915214 0.041010 0.497918 48.000000
1.916302 0.035153 0.498154 31.000000
1.912514 0.029212 0.497210 33.000000
1.901907 0.023207 0.494612 57.000000
1.895168 0.017306 0.492959 56.000000
1.892297 0.011472 0.492250 53.000000
1.895238 0.005677 0.492959 43.000000
1.894275 -0.000138 0.492723 56.000000
1.896209 -0.005955 0.493195 33.000000
1.896182 -0.011772 0.493195 36.000000
1.896137 -0.017589 0.493195 50.000000
1.898017 -0.023429 0.493667 48.000000
1.895993 -0.029224 0.493195 46.000000
1.891037 -0.034954 0.492014 58.000000
1.888978 -0.040714 0.491542 47.000000
1.883987 -0.046393 0.490361 44.000000
1.883836 -0.052173 0.490361 51.000000
1.886580 -0.058040 0.491070 48.000000
1.887365 -0.063860 0.491306 38.000000
1.886189 -0.069614 0.491070 33.000000
1.881112 -0.075210 0.489889 57.000000
1.874076 -0.080692 0.488236 79.000000
1.874885 -0.103790 0.488708 60.000000
1.875528 -0.109598 0.488944 62.000000
1.875183 -0.115351 0.488944 60.000000
1.871911 -0.120918 0.488236 60.000000
1.878318 -0.127115 0.489889 48.000000
1.876950 -0.132809 0.489653 46.000000
1.876534 -0.138567 0.489653 57.000000
1.875131 -0.144249 0.489416 77.000000
1.872742 -0.149848 0.488944 64.000000
1.878084 -0.156072 0.490361 54.000000
1.882437 -0.162247 0.491542 37.000000
1.877091 -0.167593 0.490361 67.000000
1.877536 -0.173439 0.490597 50.000000
1.867264 -0.207223 0.488944 41.000000
1.867585 -0.213061 0.489180 46.000000
1.860167 -0.218002 0.487527 63.000000
1.858524 -0.223592 0.487291 50.000000
1.861687 -0.229767 0.488236 58.000000
1.855189 -0.234749 0.486819 48.000000
1.855424 -0.240564 0.487055 47.000000
1.856604 -0.246509 0.487527 45.000000
1.855839 -0.252204 0.487527 55.000000
1.863719 -0.259096 0.489653 42.000000
1.866764 -0.265357 0.490597 54.000000
1.863367 -0.288245 0.490597 49.000000
1.862474 -0.293960 0.490597 58.000000
1.855806 -0.298750 0.489180 50.000000
1.853922 -0.304285 0.488944 40.000000
1.854897 -0.310291 0.489416 62.000000
1.849146 -0.315167 0.488236 58.000000
1.848171 -0.320839 0.488236 47.000000
1.844307 -0.326001 0.487527 42.000000
1.837559 -0.330629 0.486110 51.000000
1.842272 -0.337312 0.487527 46.000000
1.842184 -0.343140 0.487763 38.000000
1.837303 -0.348069 0.486819 50.000000
1.837181 -0.353887 0.487055 62.000000
1.840855 -0.360452 0.488236 49.000000
1.842600 -0.366665 0.488944 44.000000
1.844324 -0.372893 0.489653 60.000000
1.843171 -0.378549 0.489653 49.000000
1.841050 -0.384004 0.489416 57.000000
1.840814 -0.389852 0.489653 41.000000
1.845310 -0.396719 0.491070 52.000000
1.844084 -0.402379 0.491070 45.000000
1.845688 -0.408663 0.491778 40.000000
1.839684 -0.413261 0.490597 34.000000
1.844093 -0.420195 0.492014 40.000000
1.845636 -0.426505 0.492723 30.000000
1.844319 -0.432166 0.492723 48.000000
1.839202 -0.436926 0.491778 52.000000
1.837853 -0.442567 0.491778 52.000000
1.835542 -0.447973 0.491542 53.000000
1.831329 -0.452904 0.490833 45.000000
1.825217 -0.457343 0.489653 59.000000
1.825689 -0.463417 0.490125 38.000000
1.824259 -0.469016 0.490125 52.000000
1.826573 -0.475588 0.491070 35.000000
1.826985 -0.481684 0.491542 55.000000
1.826438 -0.487536 0.491778 44.000000
1.827748 -0.493896 0.492487 40.000000
1.829037 -0.500269 0.493195 53.000000
1.824683 -0.505102 0.492487 42.000000
1.823125 -0.510698 0.492487 51.000000
1.822485 -0.516553 0.492723 41.000000
1.820891 -0.522142 0.492723 63.000000
1.816481 -0.526915 0.492014 51.000000
1.812991 -0.531940 0.491542 51.000000
1.813213 -0.538051 0.492014 35.000000
1.814347 -0.544447 0.492723 41.000000
1.813598 -0.550293 0.492959 49.000000
1.811901 -0.555854 0.492959 39.000000
1.808331 -0.560836 0.492487 46.000000
1.812166 -0.568122 0.493904 41.000000
1.814121 -0.574851 0.494848 37.000000
1.814200 -0.581005 0.495320 39.000000
1.815183 -0.587464 0.496029 41.000000
1.813372 -0.593030 0.496029 47.000000
1.814312 -0.599504 0.496737 45.000000
1.817996 -0.606910 0.498154 50.000000
1.816126 -0.612485 0.498154 46.000000
1.815158 -0.618367 0.498391 46.000000
1.812333 -0.623617 0.498154 56.000000
1.805821 -0.627582 0.496974 41.000000
1.805721 -0.633762 0.497446 34.000000
1.801936 -0.638650 0.496974 48.000000
1.741403 -0.623257 0.481859 9.000000
1.731256 -0.625629 0.479734 6.000000
1.925927 0.172404 0.478593 55.000000
1.921592 0.166076 0.477469 57.000000
1.921122 0.160100 0.477244 50.000000
1.919661 0.154049 0.476794 34.000000
1.919153 0.148084 0.476570 55.000000
1.916684 0.141981 0.475895 63.000000
1.916138 0.136031 0.475670 56.000000
1.917519 0.130217 0.475895 67.000000
1.918882 0.124397 0.476120 62.000000
1.917309 0.118389 0.475670 59.000000
1.915718 0.112393 0.475221 50.000000
1.916053 0.106515 0.475221 65.000000
1.913452 0.100483 0.474547 57.000000
1.910831 0.094469 0.473872 60.000000
1.911112 0.088606 0.473872 60.000000
1.911375 0.082742 0.473872 47.000000
1.911620 0.076878 0.473872 63.000000
1.911847 0.071013 0.473872 58.000000
1.910108 0.065081 0.473423 69.000000
1.910299 0.059221 0.473423 50.000000
1.912419 0.053414 0.473872 52.000000
1.911600 0.047522 0.473647 56.000000
1.909789 0.041615 0.473198 57.000000
1.911856 0.035792 0.473647 43.000000
1.905137 0.029821 0.472074 59.000000
1.904245 0.023964 0.471849 56.000000
1.905284 0.018131 0.472074 59.000000
1.902407 0.012267 0.471400 60.000000
1.902436 0.006430 0.471400 60.000000
1.901472 0.000594 0.471175 65.000000
1.904388 -0.005249 0.471849 50.000000
1.904363 -0.011091 0.471849 47.000000
1.901397 -0.016907 0.471175 42.000000
1.902311 -0.022752 0.471400 70.000000
1.898335 -0.028529 0.470500 53.000000
1.898238 -0.034353 0.470500 52.000000
1.902021 -0.040260 0.471400 56.000000
1.894095 -0.045904 0.469601 44.000000
1.895894 -0.051769 0.470051 59.000000
1.893778 -0.057525 0.469601 64.000000
1.889697 -0.063204 0.468702 43.000000
1.891442 -0.069073 0.469152 45.000000
1.891221 -0.074875 0.469152 53.000000
1.885141 -0.080427 0.467803 52.000000
1.888779 -0.086389 0.468702 49.000000
1.887532 -0.092135 0.468477 48.000000
1.887241 -0.097926 0.468477 63.000000
1.889850 -0.103876 0.469152 70.000000
1.888550 -0.109617 0.468927 47.000000
1.886259 -0.115291 0.468477 55.000000
1.887842 -0.121203 0.468927 66.000000
1.886489 -0.126929 0.468702 63.000000
1.885118 -0.132647 0.468477 60.000000
1.885674 -0.138502 0.468702 68.000000
1.881354 -0.143988 0.467803 78.000000
1.880904 -0.149759 0.467803 54.000000
1.881407 -0.155610 0.468028 71.000000
1.880920 -0.161381 0.468028 63.000000
1.882357 -0.167324 0.468477 60.000000
1.878924 -0.172829 0.467803 60.000000
1.880325 -0.178778 0.468253 50.000000
1.876859 -0.184260 0.467578 62.000000
1.871437 -0.189525 0.466454 74.000000
1.870847 -0.195266 0.466454 60.000000
1.870239 -0.201004 0.466454 63.000000
1.866708 -0.206419 0.465780 67.000000
1.868003 -0.212366 0.466230 67.000000
1.870246 -0.218436 0.466904 63.000000
1.870534 -0.224289 0.467129 70.000000
1.874673 -0.230622 0.468253 73.000000
1.872990 -0.236250 0.468028 61.000000
1.871290 -0.241870 0.467803 80.000000
1.873437 -0.247994 0.468477 64.000000
1.873633 -0.253872 0.468702 58.000000
1.868019 -0.258949 0.467578 57.000000
1.868181 -0.264816 0.467803 70.000000
1.868324 -0.270686 0.468028 111.000000
1.862864 -0.287424 0.467354 98.000000
1.858124 -0.292531 0.466454 86.000000
1.861066 -0.298849 0.467354 81.000000
1.859178 -0.304399 0.467129 66.000000
1.855353 -0.309620 0.466454 76.000000
1.855355 -0.315474 0.466679 76.000000
1.853418 -0.320998 0.466454 82.000000
1.853384 -0.326852 0.466679 71.000000
1.857168 -0.333399 0.467803 71.000000
1.858053 -0.339446 0.468253 67.000000
1.859877 -0.345679 0.468927 65.000000
1.858807 -0.351384 0.468927 70.000000
1.861548 -0.357821 0.469826 72.000000
1.847020 -0.390412 0.468028 61.000000
1.841050 -0.395054 0.466904 71.000000
1.838878 -0.400492 0.466679 80.000000
1.840494 -0.406763 0.467354 63.000000
1.841139 -0.412835 0.467803 51.000000
1.841764 -0.418914 0.468253 67.000000
1.845217 -0.425659 0.469377 47.000000
1.848647 -0.432428 0.470500 50.000000
1.848259 -0.438323 0.470725 61.000000
1.846906 -0.443991 0.470725 49.000000
1.844589 -0.449425 0.470500 55.000000
1.844147 -0.455315 0.470725 67.000000
1.837047 -0.471542 0.470051 63.000000
1.837478 -0.477666 0.470500 47.000000
1.841657 -0.484791 0.471849 59.000000
1.839219 -0.490187 0.471624 51.000000
1.840529 -0.496590 0.472299 63.000000
1.838057 -0.501977 0.472074 62.000000
1.835569 -0.507354 0.471849 46.000000
1.837757 -0.514034 0.472748 59.000000
1.830546 -0.518076 0.471400 48.000000
1.823328 -0.522079 0.470051 45.000000
1.819846 -0.527128 0.469601 54.000000
1.816350 -0.532161 0.469152 52.000000
1.818446 -0.538839 0.470051 49.000000
1.818651 -0.544975 0.470500 56.000000
1.814173 -0.549704 0.469826 57.000000
1.816204 -0.556409 0.470725 73.000000
1.816350 -0.562556 0.471175 45.000000
1.817405 -0.569000 0.471849 56.000000
1.820296 -0.576043 0.472973 60.000000
1.816664 -0.581031 0.472524 50.000000
1.815800 -0.586902 0.472748 38.000000
1.814917 -0.592773 0.472973 52.000000
1.814940 -0.598949 0.473423 32.000000
1.814018 -0.604823 0.473647 50.000000
1.810308 -0.609763 0.473198 51.000000
1.807506 -0.615000 0.472973 43.000000
1.807454 -0.621176 0.473423 57.000000
1.804619 -0.626399 0.473198 49.000000
1.803608 -0.632255 0.473423 45.000000
1.801660 -0.637785 0.473423 44.000000
1.818045 -0.649873 0.477918 29.000000
1.924558 0.177182 0.455191 42.000000
1.924119 0.171190 0.454977 32.000000
1.922689 0.165118 0.454550 45.000000
1.922213 0.159137 0.454337 37.000000
1.920745 0.153082 0.453909 45.000000
1.920231 0.147114 0.453696 50.000000
1.919699 0.141150 0.453482 47.000000
1.919149 0.135190 0.453269 45.000000
1.918580 0.129235 0.453055 47.000000
1.917992 0.123285 0.452842 44.000000
1.916412 0.117280 0.452415 65.000000
1.916762 0.111400 0.452415 69.000000
1.915144 0.105410 0.451988 67.000000
1.918385 0.099688 0.452628 63.000000
1.914779 0.093609 0.451774 50.000000
1.913106 0.087643 0.451347 64.000000
1.915317 0.081858 0.451774 60.000000
1.913607 0.075903 0.451347 64.000000
1.912855 0.069996 0.451133 67.000000
1.909155 0.063993 0.450279 56.000000
1.904460 0.057984 0.449212 59.000000
1.905606 0.052169 0.449425 57.000000
1.902827 0.046249 0.448784 63.000000
1.902960 0.040411 0.448784 68.000000
1.906005 0.034628 0.449425 61.000000
1.906103 0.028780 0.449425 62.000000
1.910089 0.022981 0.450279 61.000000
1.911128 0.017130 0.450493 60.000000
1.912148 0.011274 0.450706 54.000000
1.911197 0.005404 0.450493 54.000000
1.908274 -0.000461 0.449852 67.000000
1.906309 -0.006310 0.449425 69.000000
1.906281 -0.012159 0.449425 55.000000
1.905258 -0.017998 0.449212 57.000000
1.905194 -0.023843 0.449212 51.000000
1.901204 -0.029630 0.448357 56.000000
1.904035 -0.035515 0.448998 45.000000
1.902940 -0.041336 0.448784 72.000000
1.896945 -0.047032 0.447503 75.000000
1.895815 -0.052825 0.447290 69.000000
1.892714 -0.058552 0.446649 73.000000
1.890573 -0.064294 0.446222 57.000000
1.891343 -0.070129 0.446435 62.000000
1.890143 -0.075893 0.446222 75.000000
1.888925 -0.081650 0.446008 89.000000
1.891683 -0.105038 0.446863 68.000000
1.889401 -0.110728 0.446435 80.000000
1.888077 -0.116464 0.446222 55.000000
1.883811 -0.122006 0.445368 66.000000
1.881479 -0.127654 0.444941 60.000000
1.881078 -0.133426 0.444941 63.000000
1.880660 -0.139196 0.444941 79.000000
1.877302 -0.144742 0.444300 55.000000
1.875875 -0.150423 0.444087 68.000000
1.876378 -0.156258 0.444300 62.000000
1.874917 -0.161931 0.444087 76.000000
1.874411 -0.167682 0.444087 57.000000
1.875834 -0.173611 0.444514 58.000000
1.874892 -0.202573 0.444941 75.000000
1.874262 -0.208324 0.444941 80.000000
1.873614 -0.214073 0.444941 58.000000
1.874889 -0.220047 0.445368 61.000000
1.873235 -0.225681 0.445154 55.000000
1.874473 -0.231666 0.445581 75.000000
1.870846 -0.237049 0.444941 72.000000
1.872048 -0.243038 0.445368 61.000000
1.866451 -0.248139 0.444300 65.000000
1.865681 -0.253864 0.444300 82.000000
1.867796 -0.259989 0.444941 60.000000
1.863121 -0.265170 0.444087 75.000000
1.865199 -0.271305 0.444727 65.000000
1.865520 -0.288907 0.445368 55.000000
1.860764 -0.294022 0.444514 58.000000
1.858889 -0.299574 0.444300 54.000000
1.860853 -0.305749 0.444941 55.000000
1.858943 -0.311296 0.444727 48.000000
1.856053 -0.316670 0.444300 58.000000
1.856035 -0.322530 0.444514 52.000000
1.855999 -0.328392 0.444727 55.000000
1.857867 -0.334602 0.445368 61.000000
1.857793 -0.340476 0.445581 69.000000
1.856740 -0.346174 0.445581 62.000000
1.856629 -0.352050 0.445795 55.000000
1.854581 -0.357560 0.445581 60.000000
1.854434 -0.363436 0.445795 69.000000
1.853310 -0.369123 0.445795 69.000000
1.851212 -0.374614 0.445581 62.000000
1.852925 -0.380880 0.446222 62.000000
1.850791 -0.386364 0.446008 71.000000
1.851508 -0.392444 0.446435 49.000000
1.847430 -0.397508 0.445795 63.000000
1.842384 -0.402343 0.444941 55.000000
1.844002 -0.408626 0.445581 53.000000
1.841787 -0.414067 0.445368 69.000000
1.840508 -0.419716 0.445368 60.000000
1.843019 -0.426239 0.446222 45.000000
1.842654 -0.432113 0.446435 46.000000
1.843221 -0.438215 0.446863 48.000000
1.841868 -0.443868 0.446863 58.000000
1.840497 -0.449517 0.446863 55.000000
1.839110 -0.455161 0.446863 58.000000
1.832966 -0.459616 0.445795 54.000000
1.830600 -0.464998 0.445581 59.000000
1.830111 -0.470854 0.445795 48.000000
1.830549 -0.476958 0.446222 57.000000
1.836635 -0.484561 0.447930 66.000000
1.833252 -0.489691 0.447503 59.000000
1.833627 -0.495822 0.447930 59.000000
1.833983 -0.501959 0.448357 49.000000
1.834317 -0.508104 0.448784 46.000000
1.832750 -0.513729 0.448784 58.000000
1.829285 -0.518818 0.448357 50.000000
1.822049 -0.522814 0.447076 79.000000
1.819498 -0.528130 0.446863 62.000000
1.820682 -0.534533 0.447503 60.000000
1.821844 -0.540949 0.448144 56.000000
1.817368 -0.545695 0.447503 50.000000
1.815685 -0.551268 0.447503 50.000000
1.818656 -0.558266 0.448571 52.000000
1.820668 -0.564999 0.449425 48.000000
1.824520 -0.572333 0.450706 55.000000
1.820892 -0.577339 0.450279 50.000000
1.816321 -0.582030 0.449639 61.000000
1.817316 -0.588501 0.450279 61.000000
1.812715 -0.593163 0.449639 56.000000
1.813670 -0.599640 0.450279 56.000000
1.813676 -0.605820 0.450706 36.000000
1.807179 -0.609822 0.449639 56.000000
1.809924 -0.616937 0.450706 51.000000
1.810795 -0.623439 0.451347 36.000000
1.804259 -0.627390 0.450279 36.000000
1.805092 -0.633892 0.450920 35.000000
1.797613 -0.637471 0.449639 31.000000
1.775410 -0.635750 0.444941 20.000000
1.938744 0.173888 0.433555 65.000000
1.940244 0.168023 0.433756 54.000000
1.936846 0.161744 0.432950 60.000000
1.932452 0.155410 0.431942 53.000000
1.929990 0.149254 0.431337 66.000000
1.928485 0.143188 0.430934 67.000000
1.927938 0.137201 0.430732 72.000000
1.930304 0.131419 0.431135 83.000000
1.926789 0.125243 0.430329 84.000000
1.925209 0.119210 0.429926 66.000000
1.931432 0.113647 0.431135 63.000000
1.928838 0.107558 0.430531 77.000000
1.927202 0.101537 0.430128 88.000000
1.924570 0.095479 0.429523 75.000000
1.918005 0.089257 0.428112 90.000000
1.920227 0.083457 0.428515 77.000000
1.918517 0.077486 0.428112 63.000000
1.911894 0.071346 0.426700 70.000000
1.910146 0.065413 0.426297 86.000000
1.910337 0.059553 0.426297 90.000000
1.904637 0.053528 0.425088 55.000000
1.907729 0.047757 0.425693 86.000000
1.907867 0.041904 0.425693 61.000000
1.913862 0.036160 0.426902 87.000000
1.916902 0.030334 0.427507 65.000000
1.918945 0.024478 0.427910 64.000000
1.917052 0.018572 0.427507 61.000000
1.917100 0.012690 0.427507 79.000000
1.917130 0.006809 0.427507 63.000000
1.916162 0.000927 0.427305 78.000000
1.908321 -0.004930 0.425693 71.000000
1.908297 -0.010785 0.425693 53.000000
1.906296 -0.016622 0.425289 56.000000
1.907215 -0.022482 0.425491 68.000000
1.904199 -0.028289 0.424886 56.000000
1.906062 -0.034166 0.425289 67.000000
1.904969 -0.039993 0.425088 62.000000
1.904837 -0.045837 0.425088 73.000000
1.904688 -0.051681 0.425088 57.000000
1.900604 -0.057405 0.424281 79.000000
1.899440 -0.063203 0.424080 69.000000
1.899237 -0.069030 0.424080 76.000000
1.899017 -0.074856 0.424080 71.000000
1.899757 -0.080724 0.424281 78.000000
1.897543 -0.086462 0.423878 69.000000
1.894334 -0.092140 0.423273 102.000000
1.897955 -0.098155 0.424080 79.000000
1.896667 -0.103923 0.423878 73.000000
1.896339 -0.109742 0.423878 79.000000
1.893060 -0.115380 0.423273 67.000000
1.894653 -0.121313 0.423677 89.000000
1.895249 -0.127190 0.423878 90.000000
1.892895 -0.132867 0.423475 63.000000
1.890525 -0.138530 0.423072 81.000000
1.888138 -0.144180 0.422669 71.000000
1.885734 -0.149816 0.422265 81.000000
1.884290 -0.155520 0.422064 71.000000
1.877948 -0.160798 0.420854 84.000000
1.880373 -0.166819 0.421459 68.000000
1.877902 -0.172407 0.421056 80.000000
1.876389 -0.178075 0.420854 67.000000
1.876809 -0.183927 0.421056 83.000000
1.874286 -0.189486 0.420653 67.000000
1.872722 -0.195134 0.420451 79.000000
1.876984 -0.201402 0.421459 62.000000
1.877331 -0.207267 0.421661 84.000000
1.880579 -0.213469 0.422467 84.000000
1.881861 -0.219464 0.422870 70.000000
1.883124 -0.225470 0.423273 77.000000
1.881451 -0.231127 0.423072 73.000000
1.880733 -0.236898 0.423072 88.000000
1.876112 -0.242164 0.422265 57.000000
1.873418 -0.247662 0.421862 67.000000
1.873620 -0.253540 0.422064 66.000000
1.872833 -0.259287 0.422064 76.000000
1.872029 -0.265032 0.422064 77.000000
1.876380 -0.289179 0.423677 77.000000
1.873549 -0.294630 0.423273 65.000000
1.872636 -0.300376 0.423273 70.000000
1.868806 -0.305645 0.422669 66.000000
1.863029 -0.310571 0.421661 54.000000
1.862067 -0.316285 0.421661 61.000000
1.863018 -0.322331 0.422064 87.000000
1.861056 -0.327875 0.421862 60.000000
1.862933 -0.334102 0.422467 67.000000
1.866717 -0.340696 0.423475 64.000000
1.867589 -0.346780 0.423878 74.000000
1.870366 -0.353236 0.424685 67.000000
1.868312 -0.358787 0.424483 61.000000
1.856835 -0.386206 0.423273 90.000000
1.852766 -0.391293 0.422669 58.000000
1.854430 -0.397592 0.423273 68.000000
1.850331 -0.402654 0.422669 64.000000
1.849087 -0.408329 0.422669 73.000000
1.852604 -0.415071 0.423677 57.000000
1.849412 -0.420319 0.423273 63.000000
1.850977 -0.426651 0.423878 61.000000
1.854427 -0.433443 0.424886 52.000000
1.850230 -0.438452 0.424281 57.000000
1.848876 -0.444127 0.424281 62.000000
1.846553 -0.449565 0.424080 74.000000
1.841362 -0.454289 0.423273 74.000000
1.830462 -0.469512 0.421862 74.000000
1.827117 -0.474633 0.421459 54.000000
1.831335 -0.481732 0.422669 79.000000
1.833634 -0.488358 0.423475 58.000000
1.835910 -0.495002 0.424281 53.000000
1.840997 -0.502438 0.425693 59.000000
1.842279 -0.508867 0.426297 73.000000
1.839765 -0.514253 0.426096 52.000000
1.842891 -0.521228 0.427104 56.000000
1.840342 -0.526610 0.426902 53.000000
1.836836 -0.531709 0.426499 65.000000
1.837076 -0.537892 0.426902 73.000000
1.830722 -0.542134 0.425894 65.000000
1.826235 -0.546905 0.425289 67.000000
1.825486 -0.552789 0.425491 55.000000
1.823782 -0.558387 0.425491 61.000000
1.822060 -0.563980 0.425491 68.000000
1.824060 -0.570738 0.426297 62.000000
1.823234 -0.576627 0.426499 74.000000
1.823322 -0.582814 0.426902 71.000000
1.822458 -0.588707 0.427104 64.000000
1.819712 -0.593991 0.426902 72.000000
1.816021 -0.598957 0.426499 73.000000
1.813245 -0.604216 0.426297 68.000000
1.811383 -0.609776 0.426297 55.000000
1.812286 -0.616277 0.426902 47.000000
1.814092 -0.623108 0.427708 59.000000
1.815873 -0.629955 0.428515 45.000000
1.818553 -0.637143 0.429523 48.000000
1.820283 -0.644027 0.430329 44.000000
1.792474 -0.640377 0.424685 20.000000
1.780367 -0.642215 0.422467 5.000000
1.933417 0.172023 0.409721 44.000000
1.934914 0.166175 0.409912 52.000000
1.930523 0.159830 0.408960 45.000000
1.932962 0.154064 0.409341 41.000000
1.927552 0.147679 0.408198 55.000000
1.927018 0.141692 0.408007 57.000000
1.926464 0.135710 0.407817 50.000000
1.921974 0.129466 0.406864 58.000000
1.923342 0.123632 0.407055 80.000000
1.923712 0.117731 0.407055 62.000000
1.923084 0.111771 0.406864 71.000000
1.925378 0.105980 0.407245 64.000000
1.921773 0.099866 0.406484 68.000000
1.918148 0.093776 0.405722 66.000000
1.919408 0.087936 0.405912 56.000000
1.916726 0.081919 0.405341 80.000000
1.919911 0.076157 0.405912 70.000000
1.920136 0.070266 0.405912 55.000000
1.920342 0.064375 0.405912 67.000000
1.923474 0.058575 0.406484 57.000000
1.926589 0.052756 0.407055 60.000000
1.923798 0.046772 0.406484 60.000000
1.920988 0.040805 0.405912 66.000000
1.923067 0.034948 0.406293 57.000000
1.923165 0.029048 0.406293 52.000000
1.920300 0.023110 0.405722 71.000000
1.916435 0.017181 0.404960 62.000000
1.915498 0.011295 0.404769 68.000000
1.909633 0.005398 0.403627 63.000000
1.910622 -0.000460 0.403817 64.000000
1.906685 -0.006311 0.403055 71.000000
1.903712 -0.012144 0.402484 61.000000
1.900721 -0.017958 0.401912 73.000000
1.904583 -0.023836 0.402674 59.000000
1.902538 -0.029650 0.402293 71.000000
1.903419 -0.035504 0.402484 82.000000
1.900357 -0.041282 0.401912 59.000000
1.897277 -0.047040 0.401341 69.000000
1.899087 -0.052914 0.401722 58.000000
1.899897 -0.058770 0.401912 71.000000
1.893821 -0.064402 0.400770 71.000000
1.895576 -0.070284 0.401150 71.000000
1.891428 -0.075944 0.400389 68.000000
1.892167 -0.081788 0.400579 64.000000
1.890041 -0.104948 0.400389 75.000000
1.891670 -0.110860 0.400770 76.000000
1.893281 -0.116782 0.401150 84.000000
1.894873 -0.122716 0.401531 85.000000
1.893508 -0.128463 0.401341 80.000000
1.891146 -0.134134 0.400960 70.000000
1.889747 -0.139863 0.400770 78.000000
1.889309 -0.145660 0.400770 74.000000
1.888853 -0.151456 0.400770 84.000000
1.891315 -0.157493 0.401341 82.000000
1.886910 -0.162959 0.400579 86.000000
1.889335 -0.169008 0.401150 87.000000
1.888807 -0.174803 0.401150 87.000000
1.882975 -0.203441 0.400579 100.000000
1.883318 -0.209325 0.400770 84.000000
1.883642 -0.215213 0.400960 71.000000
1.880048 -0.220649 0.400389 71.000000
1.877413 -0.226182 0.400008 97.000000
1.875736 -0.231821 0.399817 91.000000
1.876964 -0.237820 0.400198 82.000000
1.875252 -0.243452 0.400008 79.000000
1.873523 -0.249075 0.399817 79.000000
1.873723 -0.254954 0.400008 81.000000
1.871959 -0.260566 0.399817 80.000000
1.873095 -0.266583 0.400198 81.000000
1.874211 -0.272610 0.400579 72.000000
1.869683 -0.289549 0.400198 79.000000
1.866846 -0.294979 0.399817 96.000000
1.867871 -0.301016 0.400198 63.000000
1.868876 -0.307062 0.400579 59.000000
1.865988 -0.312471 0.400198 69.000000
1.865021 -0.318195 0.400198 57.000000
1.864036 -0.323915 0.400198 57.000000
1.861100 -0.329291 0.399817 59.000000
1.859115 -0.334826 0.399627 79.000000
1.858079 -0.340528 0.399627 72.000000
1.854130 -0.345689 0.399055 66.000000
1.854990 -0.351740 0.399436 74.000000
1.852938 -0.357245 0.399246 60.000000
1.855687 -0.363680 0.400008 70.000000
1.852637 -0.368989 0.399627 62.000000
1.853420 -0.375060 0.400008 61.000000
1.855146 -0.381335 0.400579 68.000000
1.853007 -0.386825 0.400389 77.000000
1.846048 -0.391291 0.399246 54.000000
1.844839 -0.396952 0.399246 71.000000
1.840735 -0.401984 0.398674 70.000000
1.841410 -0.408053 0.399055 66.000000
1.831528 -0.411768 0.397341 43.000000
1.840786 -0.419779 0.399436 76.000000
1.843316 -0.426307 0.400198 54.000000
1.850603 -0.433972 0.401912 80.000000
1.848307 -0.439421 0.401722 58.000000
1.849814 -0.445778 0.402293 56.000000
1.846530 -0.450986 0.401912 64.000000
1.844185 -0.456414 0.401722 58.000000
1.845633 -0.462784 0.402293 61.000000
1.838495 -0.466998 0.401150 71.000000
1.836102 -0.472392 0.400960 68.000000
1.833694 -0.477776 0.400770 59.000000
1.832220 -0.483399 0.400770 53.000000
1.834522 -0.490029 0.401531 60.000000
1.833958 -0.495911 0.401722 49.000000
1.831481 -0.501276 0.401531 68.000000
1.832773 -0.507677 0.402103 61.000000
1.830262 -0.513034 0.401912 71.000000
1.831513 -0.519448 0.402484 60.000000
1.830855 -0.525335 0.402674 72.000000
1.831120 -0.531495 0.403055 56.000000
1.829481 -0.537111 0.403055 64.000000
1.828766 -0.543000 0.403246 52.000000
1.826151 -0.548326 0.403055 61.000000
1.825400 -0.554211 0.403246 67.000000
1.822752 -0.559521 0.403055 60.000000
1.823840 -0.565982 0.403627 38.000000
1.818348 -0.570401 0.402865 60.000000
1.817525 -0.576273 0.403055 72.000000
1.812943 -0.580950 0.402484 60.000000
1.813955 -0.587415 0.403055 66.000000
1.814011 -0.593586 0.403436 65.000000
1.813113 -0.599457 0.403627 57.000000
1.809403 -0.604395 0.403246 49.000000
1.809401 -0.610570 0.403627 55.000000
1.813095 -0.618016 0.404769 46.000000
1.813976 -0.624532 0.405341 55.000000
1.809269 -0.629129 0.404769 43.000000
1.807331 -0.634677 0.404769 56.000000
1.802599 -0.639236 0.404198 34.000000
1.808949 -0.647737 0.405912 12.000000
1.944534 0.174406 0.387759 71.000000
1.945060 0.168439 0.387759 49.000000
1.943606 0.162308 0.387402 53.000000
1.943115 0.156265 0.387224 62.000000
1.940642 0.150076 0.386688 60.000000
1.941093 0.144122 0.386688 71.000000
1.935637 0.137748 0.385616 80.000000
1.933106 0.131609 0.385080 53.000000
1.933500 0.125678 0.385080 84.000000
1.933877 0.119745 0.385080 86.000000
1.931288 0.113639 0.384544 80.000000
1.929663 0.107604 0.384187 81.000000
1.929002 0.101632 0.384008 69.000000
1.926356 0.095567 0.383472 71.000000
1.925657 0.089611 0.383294 80.000000
1.926906 0.083746 0.383472 89.000000
1.926171 0.077794 0.383294 88.000000
1.928367 0.071957 0.383651 91.000000
1.927595 0.066007 0.383472 84.000000
1.925822 0.060032 0.383115 85.000000
1.926981 0.054151 0.383294 89.000000
1.924187 0.048166 0.382758 79.000000
1.922358 0.042219 0.382401 72.000000
1.920511 0.036285 0.382043 75.000000
1.920614 0.030392 0.382043 84.000000
1.922666 0.024525 0.382401 81.000000
1.918796 0.018589 0.381686 76.000000
1.918844 0.012702 0.381686 78.000000
1.921826 0.006825 0.382222 82.000000
1.921838 0.000928 0.382222 75.000000
1.921831 -0.004968 0.382222 88.000000
1.917872 -0.010841 0.381507 77.000000
1.913894 -0.016689 0.380793 95.000000
1.916785 -0.022597 0.381329 81.000000
1.914739 -0.028447 0.380972 79.000000
1.913659 -0.034304 0.380793 93.000000
1.909610 -0.040091 0.380078 107.000000
1.902593 -0.045783 0.378828 77.000000
1.904410 -0.051673 0.379185 75.000000
1.903260 -0.057486 0.379007 71.000000
1.899141 -0.063193 0.378292 80.000000
1.902871 -0.069163 0.379007 82.000000
1.900684 -0.074922 0.378649 82.000000
1.903394 -0.080879 0.379185 68.000000
1.907068 -0.086898 0.379900 84.000000
1.902862 -0.092557 0.379185 77.000000
1.902569 -0.098394 0.379185 85.000000
1.904223 -0.104339 0.379542 97.000000
1.901929 -0.110066 0.379185 74.000000
1.900600 -0.115841 0.379007 79.000000
1.897290 -0.121482 0.378471 86.000000
1.895927 -0.127236 0.378292 101.000000
1.892583 -0.132845 0.377756 73.000000
1.889223 -0.138434 0.377220 106.000000
1.888790 -0.144230 0.377220 90.000000
1.887357 -0.149946 0.377042 89.000000
1.886889 -0.155735 0.377042 109.000000
1.888362 -0.161692 0.377399 95.000000
1.888837 -0.167571 0.377578 93.000000
1.890274 -0.173546 0.377935 91.000000
1.892671 -0.179624 0.378471 104.000000
1.892111 -0.185430 0.378471 116.000000
1.888597 -0.190936 0.377935 112.000000
1.888981 -0.196832 0.378113 95.000000
1.888368 -0.202626 0.378113 122.000000
1.888715 -0.208527 0.378292 96.000000
1.885134 -0.213987 0.377756 104.000000
1.881537 -0.219427 0.377220 101.000000
1.880855 -0.225198 0.377220 101.000000
1.880155 -0.230967 0.377220 123.000000
1.878461 -0.236611 0.377042 103.000000
1.877727 -0.242373 0.377042 95.000000
1.875999 -0.248004 0.376863 95.000000
1.875229 -0.253758 0.376863 88.000000
1.878340 -0.260051 0.377578 81.000000
1.876559 -0.265674 0.377399 87.000000
1.872185 -0.288532 0.377220 105.000000
1.872263 -0.294428 0.377399 103.000000
1.872323 -0.300326 0.377578 89.000000
1.872363 -0.306228 0.377756 89.000000
1.867533 -0.311323 0.377042 79.000000
1.868509 -0.317381 0.377399 77.000000
1.862679 -0.322272 0.376506 92.000000
1.860713 -0.327814 0.376327 95.000000
1.862604 -0.334043 0.376863 85.000000
1.858666 -0.339225 0.376327 84.000000
1.857617 -0.344926 0.376327 80.000000
1.856550 -0.350624 0.376327 94.000000
1.857398 -0.356689 0.376684 74.000000
1.854598 -0.385740 0.377220 87.000000
1.854368 -0.391631 0.377399 79.000000
1.851234 -0.396906 0.377042 73.000000
1.847124 -0.401955 0.376506 63.000000
1.847803 -0.408045 0.376863 68.000000
1.848463 -0.414143 0.377220 71.000000
1.846224 -0.419593 0.377042 89.000000
1.848763 -0.426140 0.377756 74.000000
1.854153 -0.433379 0.379007 80.000000
1.852815 -0.439066 0.379007 76.000000
1.853372 -0.445208 0.379364 94.000000
1.851998 -0.450892 0.379364 75.000000
1.851561 -0.456807 0.379542 74.000000
1.848231 -0.474074 0.379721 72.000000
1.847720 -0.479990 0.379900 80.000000
1.848142 -0.486157 0.380257 74.000000
1.843790 -0.491065 0.379721 61.000000
1.839425 -0.495950 0.379185 93.000000
1.835047 -0.500813 0.378649 76.000000
1.834450 -0.506703 0.378828 56.000000
1.835730 -0.513124 0.379364 75.000000
1.836040 -0.519289 0.379721 74.000000
1.837276 -0.525732 0.380257 86.000000
1.837545 -0.531914 0.380614 51.000000
1.840625 -0.538932 0.381507 63.000000
1.840850 -0.545136 0.381865 68.000000
1.838226 -0.550498 0.381686 73.000000
1.838412 -0.556706 0.382043 62.000000
1.836695 -0.562344 0.382043 69.000000
1.833082 -0.567394 0.381686 70.000000
1.831332 -0.573015 0.381686 60.000000
1.827690 -0.578037 0.381329 60.000000
1.825908 -0.583641 0.381329 59.000000
1.823172 -0.588938 0.381150 64.000000
1.824163 -0.595445 0.381686 60.000000
1.826065 -0.602272 0.382401 64.000000
1.824208 -0.607872 0.382401 69.000000
1.821403 -0.613151 0.382222 52.000000
1.820444 -0.619053 0.382401 52.000000
1.820397 -0.625275 0.382758 43.000000
1.819400 -0.631180 0.382936 52.000000
1.811884 -0.634806 0.381865 42.000000
1.807145 -0.639376 0.381329 46.000000
1.796837 -0.641936 0.379721 15.000000
1.939800 0.172594 0.363249 42.000000
1.937374 0.166388 0.362749 49.000000
1.937875 0.160443 0.362749 51.000000
1.936393 0.154339 0.362415 44.000000
1.937840 0.148474 0.362582 58.000000
1.933370 0.142163 0.361747 61.000000
1.932814 0.136161 0.361580 56.000000
1.931255 0.130097 0.361246 57.000000
1.934597 0.124363 0.361747 55.000000
1.936937 0.118549 0.362081 65.000000
1.937292 0.112606 0.362081 69.000000
1.935659 0.106552 0.361747 71.000000
1.937946 0.100717 0.362081 63.000000
1.936277 0.094673 0.361747 60.000000
1.936558 0.088732 0.361747 61.000000
1.932881 0.082620 0.361079 68.000000
1.928200 0.076491 0.360245 69.000000
1.925469 0.070465 0.359744 72.000000
1.925676 0.064557 0.359744 67.000000
1.924880 0.058619 0.359577 73.000000
1.921108 0.052602 0.358909 74.000000
1.924218 0.046782 0.359410 48.000000
1.921395 0.040814 0.358909 70.000000
1.922497 0.034937 0.359076 49.000000
1.920623 0.029008 0.358742 66.000000
1.920703 0.023116 0.358742 64.000000
1.914850 0.017166 0.357740 72.000000
1.914893 0.011291 0.357740 68.000000
1.911961 0.005406 0.357240 68.000000
1.910983 -0.000460 0.357073 96.000000
1.914916 -0.006333 0.357740 75.000000
1.913902 -0.012202 0.357573 59.000000
1.911883 -0.018057 0.357240 69.000000
1.912805 -0.023934 0.357407 72.000000
1.911737 -0.029788 0.357240 70.000000
1.911636 -0.035653 0.357240 75.000000
1.910532 -0.041496 0.357073 76.000000
1.907439 -0.047286 0.356572 73.000000
1.906299 -0.053111 0.356405 61.000000
1.902185 -0.058840 0.355737 66.000000
1.904952 -0.064774 0.356238 63.000000
1.903759 -0.070582 0.356071 97.000000
1.904519 -0.076461 0.356238 76.000000
1.901320 -0.082178 0.355737 84.000000
1.902137 -0.105612 0.356071 74.000000
1.899836 -0.111333 0.355737 61.000000
1.897517 -0.117041 0.355403 84.000000
1.898133 -0.122925 0.355570 98.000000
1.893812 -0.128483 0.354902 91.000000
1.893409 -0.134293 0.354902 89.000000
1.891021 -0.139957 0.354569 68.000000
1.894515 -0.146058 0.355236 78.000000
1.897007 -0.152105 0.355737 103.000000
1.892601 -0.157599 0.355069 92.000000
1.890144 -0.163236 0.354735 93.000000
1.890616 -0.169122 0.354902 113.000000
1.889107 -0.174831 0.354735 105.000000
1.885222 -0.203682 0.354569 136.000000
1.882628 -0.209248 0.354235 105.000000
1.880018 -0.214801 0.353901 145.000000
1.877392 -0.220339 0.353567 125.000000
1.873770 -0.225746 0.353066 118.000000
1.872090 -0.231373 0.352899 101.000000
1.868437 -0.236745 0.352398 99.000000
1.872591 -0.243108 0.353233 129.000000
1.874768 -0.249240 0.353734 99.000000
1.873018 -0.254858 0.353567 97.000000
1.875157 -0.261009 0.354068 97.000000
1.875324 -0.266899 0.354235 102.000000
1.873520 -0.272510 0.354068 104.000000
1.868984 -0.289441 0.353734 124.000000
1.867113 -0.295021 0.353567 127.000000
1.863279 -0.300279 0.353066 96.000000
1.861376 -0.305835 0.352899 87.000000
1.862374 -0.311868 0.353233 105.000000
1.855576 -0.316589 0.352231 77.000000
1.857511 -0.322785 0.352732 91.000000
1.858454 -0.328825 0.353066 85.000000
1.859377 -0.334873 0.353400 76.000000
1.860281 -0.340930 0.353734 83.000000
1.859226 -0.346636 0.353734 83.000000
1.861060 -0.352888 0.354235 76.000000
1.861905 -0.358968 0.354569 65.000000
1.861763 -0.364867 0.354735 83.000000
1.857733 -0.370001 0.354235 88.000000
1.856590 -0.375699 0.354235 56.000000
1.853496 -0.380997 0.353901 60.000000
1.848458 -0.385879 0.353233 78.000000
1.850159 -0.392159 0.353734 80.000000
1.848947 -0.397834 0.353734 49.000000
1.847718 -0.403504 0.353734 63.000000
1.852248 -0.410447 0.354735 62.000000
1.849056 -0.415697 0.354402 67.000000
1.850656 -0.422023 0.354902 74.000000
1.854156 -0.428807 0.355737 56.000000
1.852832 -0.434493 0.355737 64.000000
1.854368 -0.440858 0.356238 77.000000
1.850131 -0.445854 0.355737 61.000000
1.847797 -0.451295 0.355570 69.000000
1.847361 -0.457198 0.355737 79.000000
1.848819 -0.463581 0.356238 80.000000
1.848343 -0.469493 0.356405 62.000000
1.847849 -0.475406 0.356572 57.000000
1.843519 -0.480329 0.356071 66.000000
1.845851 -0.486987 0.356739 68.000000
1.842443 -0.492140 0.356405 58.000000
1.839972 -0.497533 0.356238 69.000000
1.838437 -0.503176 0.356238 73.000000
1.839736 -0.509601 0.356739 60.000000
1.838164 -0.515243 0.356739 76.000000
1.836575 -0.520880 0.356739 53.000000
1.837812 -0.527326 0.357240 53.000000
1.839026 -0.533785 0.357740 81.000000
1.837380 -0.539425 0.357740 64.000000
1.837607 -0.545619 0.358074 51.000000
1.831202 -0.549839 0.357240 84.000000
1.832337 -0.556313 0.357740 55.000000
1.831565 -0.562220 0.357907 63.000000
1.830773 -0.568128 0.358074 64.000000
1.829022 -0.573742 0.358074 64.000000
1.829133 -0.579946 0.358408 57.000000
1.832041 -0.587056 0.359243 64.000000
1.831169 -0.592977 0.359410 65.000000
1.830279 -0.598899 0.359577 79.000000
1.829369 -0.604820 0.359744 59.000000
1.830311 -0.611365 0.360245 61.000000
1.828426 -0.616977 0.360245 39.000000
1.826525 -0.622584 0.360245 49.000000
1.819944 -0.626583 0.359410 63.000000
1.818013 -0.632163 0.359410 45.000000
1.812343 -0.636433 0.358742 52.000000
1.808523 -0.641333 0.358408 44.000000
1.808404 -0.647542 0.358742 9.000000
1.824030 -0.659446 0.361914 8.000000
1.821998 -0.665038 0.361914 9.000000
1.932295 0.166999 0.337767 62.000000
1.933783 0.161152 0.337922 63.000000
1.939192 0.155613 0.338696 76.000000
1.940646 0.149738 0.338851 64.000000
1.940110 0.143711 0.338696 82.000000
1.944484 0.138037 0.339316 68.000000
1.945884 0.132138 0.339471 80.000000
1.946280 0.126167 0.339471 60.000000
1.943700 0.120014 0.339006 90.000000
1.944059 0.114050 0.339006 67.000000
1.942427 0.107976 0.338696 78.000000
1.942749 0.102016 0.338696 91.000000
1.941079 0.095958 0.338386 86.000000
1.940378 0.089957 0.338232 73.000000
1.935710 0.083791 0.337457 89.000000
1.935958 0.077852 0.337457 71.000000
1.932238 0.071766 0.336838 65.000000
1.931462 0.065804 0.336683 83.000000
1.932642 0.059909 0.336838 84.000000
1.929854 0.053897 0.336373 77.000000
1.927048 0.047903 0.335908 77.000000
1.923235 0.041905 0.335289 79.000000
1.920391 0.035950 0.334824 71.000000
1.919505 0.030043 0.334669 70.000000
1.918600 0.024141 0.334514 78.000000
1.915701 0.018228 0.334050 87.000000
1.917724 0.012363 0.334359 88.000000
1.919729 0.006485 0.334669 94.000000
1.921715 0.000596 0.334979 101.000000
1.922696 -0.005303 0.335134 95.000000
1.922671 -0.011202 0.335134 99.000000
1.922627 -0.017100 0.335134 93.000000
1.922566 -0.022999 0.335134 77.000000
1.919523 -0.028852 0.334669 74.000000
1.915474 -0.034668 0.334050 91.000000
1.916346 -0.040566 0.334205 71.000000
1.915225 -0.046421 0.334050 75.000000
1.916061 -0.052324 0.334205 83.000000
1.917867 -0.058262 0.334514 97.000000
1.915704 -0.064079 0.334205 94.000000
1.914511 -0.069920 0.334050 89.000000
1.916262 -0.075872 0.334359 84.000000
1.913059 -0.081624 0.333895 82.000000
1.909839 -0.087356 0.333430 96.000000
1.908576 -0.093167 0.333275 75.000000
1.906308 -0.098919 0.332965 92.000000
1.903036 -0.104604 0.332501 84.000000
1.900733 -0.110327 0.332191 92.000000
1.903344 -0.116339 0.332656 85.000000
1.900021 -0.121988 0.332191 105.000000
1.899637 -0.127816 0.332191 100.000000
1.896280 -0.133435 0.331726 71.000000
1.896847 -0.139325 0.331881 102.000000
1.900351 -0.145446 0.332501 93.000000
1.900880 -0.151354 0.332656 111.000000
1.900407 -0.157185 0.332656 95.000000
1.899916 -0.163015 0.332656 120.000000
1.902359 -0.169106 0.333120 84.000000
1.901831 -0.174941 0.333120 111.000000
1.897352 -0.180400 0.332501 147.000000
1.897772 -0.186317 0.332656 112.000000
1.894243 -0.191839 0.332191 156.000000
1.894628 -0.197753 0.332346 164.000000
1.893031 -0.203459 0.332191 170.000000
1.889452 -0.208939 0.331726 148.000000
1.889783 -0.214847 0.331881 153.000000
1.888134 -0.220529 0.331726 116.000000
1.884506 -0.225967 0.331262 123.000000
1.882823 -0.231626 0.331107 136.000000
1.879163 -0.237030 0.330642 140.000000
1.879407 -0.242921 0.330797 160.000000
1.878653 -0.248686 0.330797 178.000000
1.878860 -0.254581 0.330952 195.000000
1.877092 -0.260209 0.330797 224.000000
1.879219 -0.266383 0.331262 216.000000
1.878393 -0.272147 0.331262 231.000000
1.876688 -0.283667 0.331262 241.000000
1.875808 -0.289424 0.331262 212.000000
1.877839 -0.295639 0.331726 203.000000
1.871071 -0.300457 0.330797 178.000000
1.873065 -0.306676 0.331262 140.000000
1.874064 -0.312746 0.331572 147.000000
1.873096 -0.318495 0.331572 121.000000
1.871137 -0.324071 0.331417 127.000000
1.869161 -0.329638 0.331262 121.000000
1.871058 -0.335895 0.331726 100.000000
1.869047 -0.341456 0.331572 92.000000
1.867019 -0.347008 0.331417 95.000000
1.870799 -0.353653 0.332191 87.000000
1.866795 -0.358831 0.331726 97.000000
1.862038 -0.387625 0.331881 98.000000
1.858907 -0.392927 0.331572 71.000000
1.860591 -0.399251 0.332036 90.000000
1.862253 -0.405588 0.332501 75.000000
1.861964 -0.411513 0.332656 83.000000
1.859729 -0.417007 0.332501 70.000000
1.859404 -0.422930 0.332656 88.000000
1.857135 -0.428411 0.332501 64.000000
1.856774 -0.434331 0.332656 81.000000
1.857355 -0.440482 0.332965 71.000000
1.854074 -0.445716 0.332656 85.000000
1.856537 -0.452338 0.333275 86.000000
1.858501 -0.477054 0.334514 67.000000
1.854161 -0.482007 0.334050 86.000000
1.853629 -0.487945 0.334205 76.000000
1.849259 -0.492865 0.333740 82.000000
1.848692 -0.498794 0.333895 84.000000
1.847153 -0.504463 0.333895 82.000000
1.848454 -0.510918 0.334359 69.000000
1.844975 -0.516054 0.334050 72.000000
1.846234 -0.522520 0.334514 81.000000
1.842723 -0.527637 0.334205 73.000000
1.842993 -0.533838 0.334514 82.000000
1.841347 -0.539490 0.334514 77.000000
1.839683 -0.545137 0.334514 82.000000
1.836109 -0.550211 0.334205 84.000000
1.836304 -0.556414 0.334514 69.000000
1.833643 -0.561756 0.334359 64.000000
1.835686 -0.568549 0.334979 77.000000
1.835818 -0.574768 0.335289 75.000000
1.836872 -0.581293 0.335753 65.000000
1.838844 -0.588130 0.336373 80.000000
1.840791 -0.594985 0.336993 91.000000
1.836139 -0.599709 0.336528 92.000000
1.834291 -0.605339 0.336528 81.000000
1.831488 -0.610651 0.336373 51.000000
1.829606 -0.616267 0.336373 57.000000
1.824901 -0.620922 0.335908 80.000000
1.820185 -0.625554 0.335444 68.000000
1.820123 -0.631784 0.335753 58.000000
1.819109 -0.637692 0.335908 65.000000
1.815281 -0.642610 0.335599 61.000000
1.843068 -0.658823 0.340555 26.000000
1.857764 -0.670515 0.343343 9.000000
1.860339 -0.677904 0.344117 7.000000
1.915562 0.170757 0.311719 31.000000
1.929881 0.166076 0.313721 53.000000
1.933340 0.160402 0.314150 62.000000
1.931850 0.154311 0.313864 51.000000
1.933301 0.148460 0.314007 41.000000
1.937696 0.142821 0.314579 53.000000
1.938125 0.136876 0.314579 63.000000
1.937548 0.130862 0.314436 48.000000
1.938928 0.124981 0.314579 78.000000
1.936339 0.118848 0.314150 54.000000
1.939659 0.113082 0.314579 67.000000
1.942961 0.107296 0.315008 60.000000
1.939328 0.101126 0.314436 80.000000
1.940617 0.095225 0.314579 74.000000
1.940900 0.089270 0.314579 59.000000
1.937210 0.083143 0.314007 60.000000
1.938445 0.077240 0.314150 67.000000
1.932738 0.071070 0.313292 75.000000
1.930969 0.065073 0.313006 71.000000
1.932149 0.059179 0.313149 60.000000
1.927375 0.053112 0.312434 68.000000
1.927529 0.047198 0.312434 51.000000
1.925685 0.041241 0.312148 72.000000
1.918876 0.035202 0.311148 92.000000
1.921944 0.029362 0.311576 64.000000
1.920045 0.023440 0.311291 71.000000
1.920108 0.017549 0.311291 72.000000
1.924112 0.011684 0.311862 80.000000
1.923149 0.005778 0.311719 76.000000
1.924147 -0.000122 0.311862 80.000000
1.926117 -0.006030 0.312148 72.000000
1.924110 -0.011928 0.311862 63.000000
1.928023 -0.017866 0.312434 79.000000
1.924991 -0.023746 0.312005 81.000000
1.924909 -0.029651 0.312005 81.000000
1.919861 -0.035468 0.311291 74.000000
1.915785 -0.041275 0.310719 63.000000
1.918618 -0.047224 0.311148 76.000000
1.919453 -0.053137 0.311291 73.000000
1.916313 -0.058936 0.310862 78.000000
1.914145 -0.064749 0.310576 77.000000
1.912948 -0.070585 0.310433 77.000000
1.911734 -0.076415 0.310290 82.000000
1.912479 -0.082322 0.310433 59.000000
1.900454 -0.105190 0.308860 78.000000
1.897158 -0.110848 0.308431 115.000000
1.902737 -0.117029 0.309289 78.000000
1.902369 -0.122866 0.309289 80.000000
1.902970 -0.128768 0.309432 96.000000
1.902566 -0.134606 0.309432 95.000000
1.906093 -0.140731 0.310004 72.000000
1.904665 -0.146503 0.309861 92.000000
1.903220 -0.152267 0.309718 106.000000
1.901758 -0.158024 0.309575 86.000000
1.898305 -0.163605 0.309146 130.000000
1.895823 -0.169253 0.308860 120.000000
1.895295 -0.175069 0.308860 128.000000
1.884514 -0.203276 0.307716 179.000000
1.885849 -0.209274 0.308002 160.000000
1.884214 -0.214947 0.307859 175.000000
