ply
format ascii 1.0
element vertex 1278
property float x
property float y
property float z
property float intensity
end_header
3.666859 -0.066083 0.787750 44.000000
3.665660 -0.077311 0.787548 55.000000
3.664427 -0.088533 0.787346 44.000000
3.670991 -0.099962 0.788758 49.000000
3.671646 -0.111254 0.788959 51.000000
3.671288 -0.122518 0.788959 51.000000
3.670895 -0.133781 0.788959 48.000000
3.664595 -0.144810 0.787750 41.000000
3.669026 -0.156261 0.788758 49.000000
3.669508 -0.167561 0.788959 50.000000
3.666042 -0.178675 0.788354 38.000000
3.662542 -0.189769 0.787750 38.000000
3.656075 -0.200682 0.786540 48.000000
3.641752 -0.211103 0.783718 27.000000
3.643042 -0.222394 0.784121 26.000000
3.650163 -0.234072 0.785734 36.000000
3.650405 -0.245335 0.785935 15.000000
3.636933 -0.255639 0.783315 22.000000
3.595105 -0.263781 0.774848 9.000000
3.619670 -0.276754 0.780089 12.000000
3.678869 0.557463 0.755037 29.000000
3.680562 0.546174 0.755037 46.000000
3.684163 0.535162 0.755418 62.000000
3.688703 0.524272 0.755989 56.000000
3.687377 0.512546 0.755418 72.000000
3.691850 0.501629 0.755989 72.000000
3.690453 0.489911 0.755418 64.000000
3.688044 0.478081 0.754656 68.000000
3.687546 0.466517 0.754275 81.000000
3.683114 0.454478 0.753132 61.000000
3.677669 0.442354 0.751799 86.000000
3.678034 0.430954 0.751609 75.000000
3.678363 0.419556 0.751418 60.000000
3.688414 0.409246 0.753132 103.000000
3.688676 0.397823 0.752942 73.000000
3.689880 0.386505 0.752942 68.000000
3.692024 0.375282 0.753132 83.000000
3.690228 0.363663 0.752561 87.000000
3.691326 0.352340 0.752561 83.000000
3.692390 0.341014 0.752561 90.000000
3.693419 0.329684 0.752561 96.000000
3.694412 0.318351 0.752561 91.000000
3.694393 0.306934 0.752370 112.000000
3.695318 0.295598 0.752370 93.000000
3.694250 0.284109 0.751989 93.000000
3.691188 0.272483 0.751228 93.000000
3.691027 0.261088 0.751037 95.000000
3.687893 0.249496 0.750275 75.000000
3.686682 0.238054 0.749894 81.000000
3.687395 0.226742 0.749894 63.000000
3.687093 0.215371 0.749704 69.000000
3.688717 0.204112 0.749894 63.000000
3.693247 0.193001 0.750656 68.000000
3.691861 0.181572 0.750275 61.000000
3.690439 0.170154 0.749894 66.000000
3.690944 0.158831 0.749894 73.000000
3.686510 0.147309 0.748942 86.000000
3.687925 0.136035 0.749132 71.000000
3.685381 0.124619 0.748561 96.000000
3.682803 0.113220 0.747990 66.000000
3.684114 0.101949 0.748180 71.000000
3.680484 0.090548 0.747418 69.000000
3.677800 0.079191 0.746847 57.000000
3.678026 0.067908 0.746847 57.000000
3.675272 0.056577 0.746275 57.000000
3.678373 0.045338 0.746847 64.000000
3.673587 0.034006 0.745895 38.000000
3.681527 0.022787 0.747418 73.000000
3.682561 0.011495 0.747609 67.000000
3.682579 0.000197 0.747609 64.000000
3.684526 -0.011106 0.747990 68.000000
3.683493 -0.022404 0.747799 66.000000
3.678499 -0.033662 0.746847 49.000000
3.677397 -0.044935 0.746656 61.000000
3.676260 -0.056203 0.746466 72.000000
3.674107 -0.067445 0.746085 68.000000
3.669957 -0.078634 0.745323 74.000000
3.669698 -0.089893 0.745323 60.000000
3.671368 -0.101205 0.745704 62.000000
3.674965 -0.112587 0.746466 65.000000
3.677546 -0.123959 0.747037 58.000000
3.678129 -0.135277 0.747228 57.000000
3.678678 -0.146599 0.747418 48.000000
3.678211 -0.157885 0.747418 51.000000
3.677709 -0.169169 0.747418 60.000000
3.673250 -0.180260 0.746656 49.000000
3.667778 -0.191274 0.745704 60.000000
3.664234 -0.202364 0.745133 51.000000
3.662616 -0.213548 0.744942 64.000000
3.663903 -0.224904 0.745323 38.000000
3.662216 -0.236080 0.745133 61.000000
3.664413 -0.247512 0.745704 46.000000
3.666574 -0.258960 0.746275 37.000000
3.668700 -0.270423 0.746847 46.000000
3.660022 -0.281079 0.745323 23.000000
3.710363 0.563484 0.714653 30.000000
3.705261 0.551085 0.713403 38.000000
3.704987 0.539432 0.713046 41.000000
3.703703 0.527646 0.712510 42.000000
3.701406 0.515738 0.711795 38.000000
3.702971 0.504380 0.711795 40.000000
3.698648 0.492239 0.710723 63.000000
3.700141 0.480890 0.710723 53.000000
3.702575 0.469659 0.710902 51.000000
3.697164 0.457453 0.709652 29.000000
3.702457 0.446579 0.710366 58.000000
3.702832 0.435103 0.710187 57.000000
3.707083 0.424076 0.710723 53.000000
3.708366 0.412701 0.710723 41.000000
3.706680 0.401004 0.710187 54.000000
3.709850 0.389836 0.710545 34.000000
3.707113 0.378054 0.709830 55.000000
3.707276 0.366582 0.709652 53.000000
3.707404 0.355113 0.709473 59.000000
3.703578 0.343283 0.708580 49.000000
3.696773 0.331218 0.707151 67.000000
3.696792 0.319790 0.706972 65.000000
3.693833 0.308120 0.706258 64.000000
3.692800 0.296629 0.705900 67.000000
3.693692 0.285298 0.705900 84.000000
3.689644 0.273601 0.705007 63.000000
3.692429 0.262419 0.705364 63.000000
3.698125 0.251423 0.706258 55.000000
3.699861 0.240140 0.706436 61.000000
3.700580 0.228788 0.706436 67.000000
3.701265 0.217434 0.706436 64.000000
3.703879 0.206186 0.706793 60.000000
3.704494 0.194822 0.706793 75.000000
3.702127 0.183310 0.706258 75.000000
3.696774 0.171678 0.705186 71.000000
3.695318 0.160251 0.704829 70.000000
3.694809 0.148873 0.704650 77.000000
3.693281 0.137464 0.704293 64.000000
3.693686 0.126133 0.704293 58.000000
3.692089 0.114739 0.703935 55.000000
3.692424 0.103411 0.703935 55.000000
3.693707 0.092107 0.704114 70.000000
3.692005 0.080732 0.703757 60.000000
3.693219 0.069423 0.703935 60.000000
3.692431 0.058077 0.703757 64.000000
3.693575 0.046760 0.703935 58.000000
3.691734 0.035410 0.703578 58.000000
3.689857 0.024071 0.703221 53.000000
3.689914 0.012750 0.703221 69.000000
3.687967 0.001429 0.702864 70.000000
3.685986 -0.009880 0.702506 80.000000
3.687907 -0.021200 0.702864 67.000000
3.686841 -0.032505 0.702685 64.000000
3.686723 -0.043816 0.702685 60.000000
3.689523 -0.055171 0.703221 49.000000
3.687369 -0.066454 0.702864 65.000000
3.685180 -0.077725 0.702506 56.000000
3.684924 -0.089031 0.702506 63.000000
3.688568 -0.100443 0.703221 74.000000
3.688243 -0.111759 0.703221 63.000000
3.690832 -0.123172 0.703757 50.000000
3.685521 -0.134315 0.702864 69.000000
3.684108 -0.145583 0.702685 55.000000
3.685611 -0.156969 0.703042 52.000000
3.683146 -0.168185 0.702685 52.000000
3.675733 -0.179148 0.701435 60.000000
3.676149 -0.190475 0.701613 73.000000
3.666705 -0.201267 0.700006 43.000000
3.671964 -0.212857 0.701077 69.000000
3.674240 -0.224302 0.701613 65.000000
3.675498 -0.235699 0.701970 47.000000
3.676721 -0.247107 0.702328 47.000000
3.683798 -0.258938 0.703757 50.000000
3.687893 -0.270599 0.704650 41.000000
3.702742 -0.283114 0.707508 17.000000
3.726007 0.564621 0.671589 42.000000
3.724796 0.552752 0.671088 60.000000
3.723547 0.540896 0.670588 46.000000
3.719333 0.528635 0.669586 63.000000
3.715078 0.516406 0.668584 68.000000
3.714691 0.504739 0.668250 66.000000
3.716222 0.493340 0.668250 49.000000
3.716740 0.481810 0.668083 60.000000
3.713310 0.469784 0.667249 61.000000
3.713755 0.458269 0.667082 62.000000
3.712207 0.446519 0.666581 64.000000
3.710622 0.434783 0.666080 55.000000
3.709000 0.423061 0.665579 71.000000
3.705380 0.411134 0.664745 83.000000
3.711526 0.400295 0.665579 67.000000
3.714697 0.389112 0.665913 96.000000
3.715873 0.377714 0.665913 67.000000
3.715052 0.366118 0.665579 61.000000
3.717140 0.354812 0.665746 93.000000
3.719193 0.343498 0.665913 75.000000
3.718265 0.331910 0.665579 82.000000
3.716319 0.320246 0.665079 68.000000
3.711389 0.308351 0.664077 83.000000
3.710351 0.296805 0.663743 68.000000
3.707313 0.285117 0.663075 85.000000
3.703253 0.273378 0.662241 73.000000
3.703091 0.261945 0.662074 82.000000
3.703878 0.250583 0.662074 62.000000
3.704629 0.239218 0.662074 61.000000
3.701409 0.227608 0.661406 101.000000
3.701106 0.216194 0.661239 80.000000
3.700767 0.204783 0.661072 75.000000
3.704331 0.193583 0.661573 87.000000
3.707862 0.182364 0.662074 84.000000
3.707419 0.170942 0.661907 95.000000
3.711867 0.159738 0.662574 71.000000
3.710369 0.148270 0.662241 68.000000
3.707850 0.136776 0.661740 59.000000
3.707267 0.125366 0.661573 64.000000
3.699751 0.113747 0.660237 72.000000
3.702053 0.102451 0.660571 76.000000
3.702350 0.091093 0.660571 64.000000
3.700640 0.079690 0.660237 75.000000
3.702839 0.068374 0.660571 53.000000
3.698102 0.056936 0.659736 64.000000
3.695302 0.045552 0.659236 79.000000
3.694438 0.034206 0.659069 75.000000
3.689596 0.022839 0.658234 43.000000
3.694579 0.011537 0.659069 54.000000
3.700513 0.000204 0.660070 45.000000
3.698524 -0.011144 0.659736 47.000000
3.706360 -0.022536 0.661072 57.000000
3.706273 -0.033907 0.661072 64.000000
3.705166 -0.045266 0.660905 43.000000
3.706981 -0.056662 0.661239 57.000000
3.704818 -0.067999 0.660905 60.000000
3.700649 -0.079282 0.660237 69.000000
3.699403 -0.090611 0.660070 60.000000
3.700093 -0.101987 0.660237 50.000000
3.693850 -0.113159 0.659236 79.000000
3.695456 -0.124557 0.659569 55.000000
3.689145 -0.135679 0.658568 61.000000
3.692652 -0.147152 0.659236 49.000000
3.695139 -0.158606 0.659736 52.000000
3.693650 -0.169897 0.659569 50.000000
3.692126 -0.181180 0.659403 53.000000
3.689583 -0.192404 0.659069 54.000000
3.686022 -0.203561 0.658568 59.000000
3.685380 -0.214868 0.658568 45.000000
3.683720 -0.226114 0.658401 63.000000
3.683993 -0.237477 0.658568 39.000000
3.689149 -0.249175 0.659569 43.000000
3.691318 -0.260700 0.660070 38.000000
3.705251 -0.273106 0.662574 21.000000
3.736838 -0.286953 0.668083 8.000000
3.743126 0.567790 0.627243 27.000000
3.742896 0.556014 0.626933 34.000000
3.747517 0.544954 0.627398 24.000000
3.738412 0.531925 0.625694 43.000000
3.733177 0.519501 0.624610 43.000000
3.728879 0.507246 0.623681 58.000000
3.729439 0.495674 0.623526 34.000000
3.732901 0.484484 0.623835 50.000000
3.730450 0.472533 0.623216 51.000000
3.731882 0.461086 0.623216 54.000000
3.734260 0.449753 0.623371 45.000000
3.735622 0.438294 0.623371 42.000000
3.731060 0.426159 0.622442 42.000000
3.728422 0.414274 0.621822 50.000000
3.728693 0.402728 0.621667 55.000000
3.725981 0.390875 0.621048 51.000000
3.724214 0.379142 0.620583 58.000000
3.720444 0.367230 0.619808 50.000000
3.720570 0.355720 0.619654 46.000000
3.721644 0.344304 0.619654 57.000000
3.725634 0.333148 0.620118 45.000000
3.724670 0.321546 0.619808 53.000000
3.727608 0.310281 0.620118 50.000000
3.726573 0.298686 0.619808 55.000000
3.728457 0.287328 0.619963 66.000000
3.726365 0.275669 0.619499 66.000000
3.723252 0.263956 0.618879 66.000000
3.717144 0.252065 0.617795 53.000000
3.714942 0.240469 0.617330 70.000000
3.714677 0.229010 0.617176 77.000000
3.713389 0.217497 0.616866 69.000000
3.714039 0.206103 0.616866 75.000000
3.717614 0.194863 0.617330 66.000000
3.720167 0.183554 0.617640 62.000000
3.726634 0.172413 0.618569 49.000000
3.721224 0.160724 0.617640 80.000000
3.722686 0.149346 0.617795 47.000000
3.720165 0.137815 0.617330 54.000000
3.722545 0.126468 0.617640 61.000000
3.722916 0.115046 0.617640 70.000000
3.724239 0.103651 0.617795 71.000000
3.724539 0.092225 0.617795 72.000000
3.724805 0.080798 0.617795 72.000000
3.725035 0.069370 0.617795 73.000000
3.722267 0.057896 0.617330 63.000000
3.722427 0.046476 0.617330 59.000000
3.721564 0.035046 0.617176 54.000000
3.719678 0.023616 0.616866 60.000000
3.718745 0.012201 0.616711 57.000000
3.718765 0.000792 0.616711 52.000000
3.716774 -0.010611 0.616401 58.000000
3.719688 -0.022032 0.616866 56.000000
3.715652 -0.033408 0.616246 57.000000
3.715531 -0.044807 0.616246 67.000000
3.719328 -0.056266 0.616866 49.000000
3.716174 -0.067622 0.616401 64.000000
3.712986 -0.078960 0.615936 57.000000
3.718652 -0.090496 0.616866 46.000000
3.714407 -0.101795 0.616246 59.000000
3.714077 -0.113190 0.616246 63.000000
3.714700 -0.124618 0.616401 51.000000
3.709363 -0.135832 0.615627 52.000000
3.710904 -0.147290 0.615936 64.000000
3.713396 -0.158802 0.616401 50.000000
3.712891 -0.170193 0.616401 60.000000
3.711365 -0.181535 0.616246 54.000000
3.705857 -0.192664 0.615472 41.000000
3.711167 -0.204359 0.616401 65.000000
3.707564 -0.215571 0.615936 65.000000
3.707871 -0.227005 0.616091 48.000000
3.706172 -0.238316 0.615936 50.000000
3.704437 -0.249619 0.615782 44.000000
3.703654 -0.260983 0.615782 38.000000
3.705792 -0.272562 0.616246 21.000000
3.745423 0.603553 0.581941 33.000000
3.752144 0.592833 0.582656 53.000000
3.751989 0.581015 0.582370 53.000000
3.751798 0.569204 0.582084 46.000000
3.755484 0.557983 0.582370 56.000000
3.747384 0.545031 0.580940 93.000000
3.750998 0.533811 0.581226 60.000000
3.745757 0.521343 0.580225 57.000000
3.747339 0.509849 0.580225 59.000000
3.745942 0.497958 0.579796 66.000000
3.745489 0.486208 0.579511 69.000000
3.746963 0.474714 0.579511 57.000000
3.747420 0.463095 0.579368 61.000000
3.746858 0.451358 0.579082 63.000000
3.743310 0.439283 0.578367 63.000000
3.736774 0.426895 0.577223 56.000000
3.731181 0.414662 0.576222 69.000000
3.728499 0.402786 0.575650 72.000000
3.725780 0.390931 0.575078 82.000000
3.722039 0.378996 0.574363 67.000000
3.723184 0.367575 0.574363 77.000000
3.724294 0.356151 0.574363 69.000000
3.723398 0.344540 0.574077 77.000000
3.726410 0.333292 0.574363 73.000000
3.727415 0.321858 0.574363 76.000000
3.730357 0.310586 0.574649 76.000000
3.731292 0.299140 0.574649 76.000000
3.731206 0.287615 0.574506 80.000000
3.728123 0.275873 0.573935 83.000000
3.729939 0.264504 0.574077 72.000000
3.723820 0.252589 0.573077 63.000000
3.724578 0.241163 0.573077 68.000000
3.725300 0.229735 0.573077 69.000000
3.727964 0.218421 0.573363 66.000000
3.730593 0.207093 0.573649 82.000000
3.727257 0.195438 0.573077 68.000000
3.730804 0.184150 0.573506 78.000000
3.731352 0.172703 0.573506 70.000000
3.727909 0.161082 0.572934 62.000000
3.727397 0.149604 0.572791 78.000000
3.726849 0.138131 0.572648 82.000000
3.727255 0.126697 0.572648 52.000000
3.729605 0.115323 0.572934 74.000000
3.730931 0.103908 0.573077 61.000000
3.731232 0.092461 0.573077 80.000000
3.729519 0.080970 0.572791 67.000000
3.731729 0.069565 0.573077 74.000000
3.728956 0.058069 0.572648 56.000000
3.725158 0.046577 0.572076 57.000000
3.723304 0.035129 0.571790 68.000000
3.721415 0.023693 0.571504 64.000000
3.721470 0.012276 0.571504 70.000000
3.723470 0.000859 0.571790 50.000000
3.724444 -0.010566 0.571933 68.000000
3.725384 -0.021998 0.572076 50.000000
3.726289 -0.033436 0.572219 61.000000
3.723200 -0.044833 0.571790 45.000000
3.726014 -0.056300 0.572219 60.000000
3.721865 -0.067660 0.571647 67.000000
3.721640 -0.079078 0.571647 65.000000
3.725338 -0.090591 0.572219 62.000000
3.719106 -0.101859 0.571361 57.000000
3.718776 -0.113268 0.571361 61.000000
3.713465 -0.124512 0.570646 60.000000
3.709109 -0.135761 0.570074 64.000000
3.710653 -0.147218 0.570360 60.000000
3.710184 -0.158601 0.570360 57.000000
3.711658 -0.170073 0.570646 64.000000
3.712107 -0.181507 0.570789 51.000000
3.715486 -0.193099 0.571361 51.000000
3.719817 -0.204768 0.572076 47.000000
3.721148 -0.216293 0.572362 48.000000
3.725406 -0.228009 0.573077 47.000000
3.720739 -0.239185 0.572505 54.000000
3.718012 -0.250467 0.572219 48.000000
3.726112 -0.262495 0.573506 33.000000
3.710483 -0.272841 0.571361 57.000000
3.717523 -0.284826 0.572505 39.000000
3.731431 -0.297405 0.574649 14.000000
3.767089 0.583251 0.537978 34.000000
3.762980 0.570800 0.537192 48.000000
3.766675 0.559544 0.537454 34.000000
3.764449 0.547415 0.536929 42.000000
3.765130 0.535724 0.536798 33.000000
3.755955 0.522668 0.535357 37.000000
3.758522 0.511276 0.535488 55.000000
3.757125 0.499351 0.535095 37.000000
3.754707 0.487312 0.534571 50.000000
3.756184 0.475790 0.534571 51.000000
3.757626 0.464264 0.534571 69.000000
3.759032 0.452734 0.534571 43.000000
3.754496 0.440507 0.533784 62.000000
3.750905 0.428424 0.533129 51.000000
3.749246 0.416586 0.532736 63.000000
3.746564 0.404656 0.532212 56.000000
3.744829 0.392850 0.531819 43.000000
3.742072 0.380958 0.531295 65.000000
3.744210 0.369573 0.531426 53.000000
3.746313 0.358178 0.531557 48.000000
3.751343 0.347048 0.532081 44.000000
3.752390 0.335537 0.532081 61.000000
3.751426 0.323853 0.531819 61.000000
3.755366 0.312589 0.532212 52.000000
3.753343 0.300829 0.531819 67.000000
3.756225 0.289465 0.532081 59.000000
3.756107 0.277866 0.531950 65.000000
3.755953 0.266271 0.531819 53.000000
3.751806 0.254412 0.531163 47.000000
3.754547 0.243028 0.531426 53.000000
3.752307 0.231326 0.531032 75.000000
3.752999 0.219813 0.531032 71.000000
3.747716 0.207969 0.530246 63.000000
3.745367 0.196315 0.529853 61.000000
3.741001 0.184579 0.529198 67.000000
3.740559 0.173055 0.529067 67.000000
3.739091 0.161493 0.528805 75.000000
3.740560 0.150061 0.528936 69.000000
3.744966 0.138731 0.529460 58.000000
3.746364 0.127274 0.529591 84.000000
3.747728 0.115811 0.529722 46.000000
3.752030 0.104422 0.530246 65.000000
3.749360 0.092837 0.529853 63.000000
3.743680 0.081205 0.529067 49.000000
3.740937 0.069665 0.528674 63.000000
3.738160 0.058141 0.528280 76.000000
3.736338 0.046648 0.528018 70.000000
3.735472 0.035176 0.527887 46.000000
3.742502 0.023758 0.528805 62.000000
3.744540 0.012283 0.529067 66.000000
3.745551 0.000795 0.529198 54.000000
3.743554 -0.010691 0.528936 71.000000
3.741521 -0.022164 0.528674 64.000000
3.737469 -0.033606 0.528149 73.000000
3.732392 -0.045012 0.527494 53.000000
3.734220 -0.056493 0.527756 43.000000
3.729072 -0.067859 0.527101 53.000000
3.730829 -0.079341 0.527363 61.000000
3.728585 -0.090738 0.527101 55.000000
3.725317 -0.102095 0.526708 56.000000
3.723995 -0.113494 0.526577 57.000000
3.721648 -0.124851 0.526315 66.000000
3.723228 -0.136341 0.526577 44.000000
3.726755 -0.147921 0.527101 59.000000
3.729255 -0.159481 0.527494 43.000000
3.730729 -0.171013 0.527756 43.000000
3.729197 -0.182409 0.527625 74.000000
3.730599 -0.193953 0.527887 58.000000
3.727017 -0.205233 0.527494 57.000000
3.727360 -0.216724 0.527625 50.000000
3.722719 -0.227916 0.527101 52.000000
3.720024 -0.239208 0.526839 50.000000
3.719273 -0.250620 0.526839 41.000000
3.717497 -0.261960 0.526708 44.000000
3.713710 -0.273145 0.526315 55.000000
3.712854 -0.284537 0.526315 50.000000
3.731729 -0.297505 0.528936 7.000000
3.766635 0.572130 0.490611 45.000000
3.769355 0.560718 0.490730 59.000000
3.774005 0.549581 0.491087 60.000000
3.774690 0.537859 0.490968 67.000000
3.775339 0.526139 0.490849 73.000000
3.773984 0.514151 0.490492 59.000000
3.772591 0.502176 0.490135 83.000000
3.770176 0.490086 0.489660 75.000000
3.767722 0.478016 0.489184 71.000000
3.766214 0.466088 0.488827 56.000000
3.764670 0.454174 0.488471 68.000000
3.764073 0.442389 0.488233 53.000000
3.763440 0.430613 0.487995 78.000000
3.760796 0.418624 0.487519 69.000000
3.758114 0.406656 0.487043 80.000000
3.762306 0.395436 0.487400 74.000000
3.756588 0.383184 0.486568 91.000000
3.762686 0.372148 0.487162 72.000000
3.764798 0.360697 0.487281 72.000000
3.760944 0.348685 0.486687 81.000000
3.755074 0.336523 0.485854 98.000000
3.759056 0.325259 0.486211 63.000000
3.754099 0.313227 0.485497 78.000000
3.755043 0.301708 0.485497 88.000000
3.756941 0.290263 0.485616 92.000000
3.755833 0.278588 0.485379 84.000000
3.760632 0.267347 0.485854 71.000000
3.761434 0.255809 0.485854 64.000000
3.763192 0.244332 0.485973 64.000000
3.760951 0.232601 0.485616 68.000000
3.755700 0.220710 0.484903 91.000000
3.749420 0.208798 0.484070 105.000000
3.753017 0.197451 0.484427 84.000000
3.751622 0.185837 0.484189 84.000000
3.751183 0.174280 0.484070 84.000000
3.752692 0.162814 0.484189 72.000000
3.752182 0.151260 0.484070 75.000000
3.753620 0.139785 0.484189 85.000000
3.757008 0.128371 0.484546 55.000000
3.757385 0.116844 0.484546 68.000000
3.757725 0.105316 0.484546 72.000000
3.757038 0.093762 0.484427 90.000000
3.758301 0.082257 0.484546 76.000000
3.757543 0.070708 0.484427 70.000000
3.753771 0.059116 0.483951 68.000000
3.751949 0.047573 0.483714 76.000000
3.750092 0.036042 0.483476 50.000000
3.750185 0.024537 0.483476 53.000000
3.746271 0.013016 0.483000 71.000000
3.744307 0.001522 0.482762 67.000000
3.741316 -0.009959 0.482405 63.000000
3.738289 -0.021421 0.482049 66.000000
3.737212 -0.032881 0.481930 54.000000
3.736101 -0.044335 0.481811 46.000000
3.734955 -0.055783 0.481692 49.000000
3.736751 -0.067276 0.481930 63.000000
3.737520 -0.078761 0.482049 52.000000
3.740239 -0.090298 0.482405 61.000000
3.736966 -0.101692 0.482049 61.000000
3.735645 -0.113127 0.481930 62.000000
3.734288 -0.124554 0.481811 71.000000
3.734880 -0.136046 0.481930 55.000000
3.734445 -0.147504 0.481930 56.000000
3.733975 -0.158960 0.481930 61.000000
3.732478 -0.170370 0.481811 37.000000
3.733921 -0.181917 0.482049 65.000000
3.732354 -0.193320 0.481930 62.000000
3.728769 -0.204608 0.481573 41.000000
3.726141 -0.215932 0.481335 47.000000
3.725461 -0.227363 0.481335 48.000000
3.728709 -0.239044 0.481811 39.000000
3.729940 -0.250615 0.482049 42.000000
3.767782 -0.264760 0.486687 17.000000
3.792542 0.575956 0.446467 42.000000
3.792324 0.564025 0.446254 40.000000
3.791085 0.551958 0.445934 41.000000
3.786854 0.539484 0.445293 41.000000
3.783567 0.527178 0.444759 53.000000
3.784182 0.515434 0.444652 57.000000
3.783774 0.503559 0.444439 54.000000
3.785301 0.491948 0.444439 72.000000
3.781861 0.479708 0.443905 45.000000
3.781341 0.467859 0.443691 53.000000
3.781772 0.456137 0.443584 53.000000
3.783153 0.444532 0.443584 57.000000
3.787463 0.433263 0.443905 52.000000
3.787786 0.421531 0.443798 50.000000
3.791039 0.410122 0.444011 57.000000
3.791290 0.398385 0.443905 62.000000
3.790516 0.386550 0.443691 50.000000
3.789706 0.374724 0.443478 42.000000
3.782919 0.362338 0.442623 49.000000
3.775102 0.349905 0.441662 55.000000
3.772197 0.337967 0.441235 60.000000
3.767272 0.325879 0.440594 60.000000
3.765282 0.314072 0.440274 65.000000
3.764246 0.302360 0.440060 61.000000
3.765155 0.290810 0.440060 60.000000
3.769996 0.279551 0.440488 56.000000
3.774803 0.268265 0.440915 70.000000
3.777592 0.256818 0.441128 64.000000
3.779355 0.245291 0.441235 63.000000
3.777112 0.233511 0.440915 65.000000
3.773841 0.221690 0.440488 55.000000
3.769539 0.209835 0.439954 62.000000
3.769173 0.198217 0.439847 57.000000
3.768770 0.186603 0.439740 63.000000
3.766345 0.174902 0.439420 62.000000
3.769844 0.163475 0.439740 56.000000
3.773308 0.152028 0.440060 59.000000
3.773757 0.140451 0.440060 65.000000
3.774170 0.128873 0.440060 71.000000
3.770572 0.117170 0.439633 58.000000
3.769920 0.105574 0.439526 65.000000
3.770226 0.094007 0.439526 36.000000
3.767515 0.082375 0.439206 57.000000
3.767750 0.070816 0.439206 65.000000
3.764966 0.059210 0.438886 68.000000
3.764137 0.047646 0.438779 62.000000
3.764265 0.036098 0.438779 63.000000
3.766346 0.024562 0.438993 69.000000
3.767398 0.013010 0.439099 74.000000
3.770403 0.001453 0.439420 56.000000
3.769396 -0.010112 0.439313 64.000000
3.770342 -0.021682 0.439420 58.000000
3.770257 -0.033249 0.439420 49.000000
3.772126 -0.044840 0.439633 48.000000
3.769982 -0.056382 0.439420 52.000000
3.772774 -0.068002 0.439740 58.000000
3.772547 -0.079577 0.439740 59.000000
3.771291 -0.091126 0.439633 62.000000
3.769006 -0.102642 0.439420 57.000000
3.759729 -0.113932 0.438459 48.000000
3.757375 -0.125400 0.438245 60.000000
3.752998 -0.136782 0.437818 68.000000
3.742625 -0.147901 0.436750 52.000000
3.742154 -0.159383 0.436750 52.000000
3.739661 -0.170772 0.436537 36.000000
3.742099 -0.182390 0.436857 47.000000
3.749465 -0.194282 0.437711 59.000000
3.749844 -0.205839 0.437818 61.000000
3.749195 -0.217342 0.437818 37.000000
3.754465 -0.229208 0.438459 37.000000
3.748783 -0.240406 0.437925 35.000000
3.761917 -0.252841 0.439420 30.000000
3.770050 -0.265010 0.440381 9.000000
3.791414 0.587133 0.400720 40.000000
3.788277 0.574750 0.400246 61.000000
3.789037 0.562979 0.400151 67.000000
3.784837 0.550490 0.399581 58.000000
3.786508 0.538876 0.399581 70.000000
3.786171 0.526981 0.399391 77.000000
3.785797 0.515094 0.399201 64.000000
3.788347 0.503608 0.399296 60.000000
3.786912 0.491598 0.399011 64.000000
3.786427 0.479727 0.398821 78.000000
3.789857 0.468353 0.399011 72.000000
3.789300 0.456485 0.398821 69.000000
3.789694 0.444741 0.398726 81.000000
3.791040 0.433112 0.398726 86.000000
3.791362 0.421369 0.398631 88.000000
3.793627 0.409842 0.398726 70.000000
3.792886 0.397993 0.398536 83.000000
3.787157 0.385647 0.397871 81.000000
3.779407 0.373143 0.397016 91.000000
3.769634 0.360501 0.395972 105.000000
3.764774 0.348382 0.395402 113.000000
3.762851 0.336563 0.395117 107.000000
3.771800 0.325705 0.395877 86.000000
3.770797 0.313966 0.395687 109.000000
3.775712 0.302715 0.396067 90.000000
3.778608 0.291284 0.396256 91.000000
3.781470 0.279837 0.396446 82.000000
3.783303 0.268305 0.396541 82.000000
3.782122 0.256562 0.396351 90.000000
3.781898 0.244892 0.396256 78.000000
3.775676 0.232857 0.395592 89.000000
3.771404 0.220980 0.395117 91.000000
3.765107 0.209020 0.394452 85.000000
3.757777 0.197048 0.393692 96.000000
3.757370 0.185469 0.393597 80.000000
3.757922 0.173941 0.393597 90.000000
3.759432 0.162454 0.393692 89.000000
3.765881 0.151161 0.394262 89.000000
3.769311 0.139718 0.394547 84.000000
3.777681 0.128427 0.395307 68.000000
3.777063 0.116805 0.395212 73.000000
3.779393 0.105273 0.395402 61.000000
3.780694 0.093702 0.395497 57.000000
3.776982 0.082015 0.395117 68.000000
3.777216 0.070427 0.395117 60.000000
3.776419 0.058823 0.395022 60.000000
3.775586 0.047224 0.394927 63.000000
3.774718 0.035631 0.394832 77.000000
3.774810 0.024050 0.394832 57.000000
3.774866 0.012469 0.394832 53.000000
3.776877 0.000889 0.395022 71.000000
3.775867 -0.010696 0.394927 63.000000
3.771834 -0.022258 0.394547 54.000000
3.771748 -0.033830 0.394547 63.000000
3.772622 -0.045413 0.394642 64.000000
3.771470 -0.056972 0.394547 65.000000
3.771277 -0.068543 0.394547 69.000000
3.775030 -0.080196 0.394927 52.000000
3.773771 -0.091753 0.394832 56.000000
3.770486 -0.103250 0.394547 65.000000
3.768162 -0.114757 0.394357 74.000000
3.767792 -0.126317 0.394357 67.000000
3.763407 -0.137731 0.393977 56.000000
3.761972 -0.149237 0.393882 71.000000
3.760502 -0.160736 0.393787 76.000000
3.760986 -0.172318 0.393882 87.000000
3.761434 -0.183904 0.393977 70.000000
3.758864 -0.195340 0.393787 49.000000
3.760235 -0.206980 0.393977 44.000000
3.758588 -0.218458 0.393882 55.000000
3.758894 -0.230048 0.393977 42.000000
3.761151 -0.241770 0.394262 44.000000
3.760391 -0.253308 0.394262 20.000000
3.783779 0.586507 0.351689 25.000000
3.796398 0.576541 0.352596 39.000000
3.801107 0.565330 0.352844 38.000000
3.803809 0.553810 0.352926 44.000000
3.805491 0.542137 0.352926 54.000000
3.810097 0.530872 0.353174 49.000000
3.808746 0.518777 0.352926 46.000000
3.809331 0.506958 0.352844 52.000000
3.808892 0.495012 0.352679 34.000000
3.807427 0.482948 0.352431 52.000000
3.808890 0.471265 0.352431 41.000000
3.810318 0.459577 0.352431 53.000000
3.805772 0.447188 0.351937 47.000000
3.807126 0.435510 0.351937 52.000000
3.805472 0.423497 0.351689 55.000000
3.804772 0.411606 0.351524 57.000000
3.802052 0.399515 0.351194 53.000000
3.801277 0.387647 0.351030 59.000000
3.799474 0.375689 0.350782 63.000000
3.796640 0.363651 0.350452 59.000000
3.792776 0.351542 0.350040 53.000000
3.793837 0.339904 0.350040 52.000000
3.794862 0.328263 0.350040 47.000000
3.798830 0.316867 0.350287 49.000000
3.805745 0.305689 0.350782 44.000000
3.804677 0.293859 0.350617 48.000000
3.807549 0.282332 0.350782 71.000000
3.808397 0.270649 0.350782 58.000000
3.802249 0.258491 0.350205 58.000000
3.800041 0.246632 0.349958 59.000000
3.795806 0.234665 0.349545 53.000000
3.793524 0.222844 0.349298 70.000000
3.791205 0.211038 0.349051 58.000000
3.792830 0.199458 0.349133 54.000000
3.791433 0.187723 0.348968 61.000000
3.791991 0.176090 0.348968 57.000000
3.792513 0.164456 0.348968 57.000000
3.790012 0.152700 0.348721 57.000000
3.791459 0.141108 0.348803 50.000000
3.788886 0.129374 0.348556 76.000000
3.788269 0.117718 0.348473 56.000000
3.792597 0.106207 0.348803 54.000000
3.792905 0.094571 0.348803 58.000000
3.790188 0.082869 0.348556 62.000000
3.791421 0.071259 0.348638 69.000000
3.787636 0.059564 0.348308 65.000000
3.787801 0.047944 0.348308 74.000000
3.786934 0.036313 0.348226 57.000000
3.785034 0.024682 0.348061 54.000000
3.788082 0.013080 0.348308 65.000000
3.791094 0.001459 0.348556 63.000000
3.790084 -0.010170 0.348473 58.000000
3.794021 -0.021821 0.348803 56.000000
3.792940 -0.033452 0.348721 60.000000
3.793816 -0.045100 0.348803 74.000000
3.789674 -0.056679 0.348473 56.000000
3.787489 -0.068269 0.348308 45.000000
3.789254 -0.079931 0.348473 52.000000
3.786002 -0.091483 0.348226 53.000000
3.785704 -0.103098 0.348226 73.000000
3.785370 -0.114712 0.348226 64.000000
3.783008 -0.126258 0.348061 51.000000
3.781607 -0.137827 0.347979 55.000000
3.782162 -0.149468 0.348061 44.000000
3.778699 -0.160943 0.347814 51.000000
3.781174 -0.172672 0.348061 48.000000
3.777640 -0.184126 0.347814 49.000000
3.773077 -0.195508 0.347484 57.000000
3.773454 -0.207137 0.347566 38.000000
3.769816 -0.218540 0.347319 54.000000
3.766144 -0.229922 0.347071 44.000000
3.760448 -0.241156 0.346659 43.000000
3.800459 -0.255436 0.350040 15.000000
3.808165 0.588377 0.307896 40.000000
3.806993 0.576242 0.307684 36.000000
3.809730 0.564706 0.307754 48.000000
3.812432 0.553159 0.307825 49.000000
3.815098 0.541600 0.307896 55.000000
3.816742 0.529893 0.307896 55.000000
3.817361 0.518047 0.307825 62.000000
3.816955 0.506070 0.307684 53.000000
3.818490 0.494357 0.307684 55.000000
3.817020 0.482264 0.307472 49.000000
3.816501 0.470307 0.307331 54.000000
3.816936 0.458476 0.307260 54.000000
3.815352 0.446415 0.307048 61.000000
3.814722 0.434481 0.306907 48.000000
3.815045 0.422666 0.306836 61.000000
3.814341 0.410745 0.306695 62.000000
3.810622 0.398521 0.306342 71.000000
3.807858 0.386424 0.306059 76.000000
3.807040 0.374544 0.305918 68.000000
3.806185 0.362673 0.305777 82.000000
3.805293 0.350810 0.305636 73.000000
3.807345 0.339223 0.305706 89.000000
3.807374 0.327454 0.305636 77.000000
3.811343 0.316020 0.305848 87.000000
3.814283 0.304485 0.305989 76.000000
3.810227 0.292398 0.305636 87.000000
3.811106 0.280707 0.305636 90.000000
3.805979 0.268591 0.305212 99.000000
3.808776 0.257048 0.305353 57.000000
3.806560 0.245168 0.305141 63.000000
3.807295 0.233489 0.305141 66.000000
3.806997 0.221749 0.305071 55.000000
3.809652 0.210178 0.305212 65.000000
3.810278 0.198490 0.305212 78.000000
3.808877 0.186701 0.305071 84.000000
3.805446 0.174830 0.304788 58.000000
3.804968 0.163111 0.304717 54.000000
3.798474 0.151157 0.304223 67.000000
3.795929 0.139392 0.304011 78.000000
3.793348 0.127644 0.303799 69.000000
3.792725 0.115975 0.303729 71.000000
3.796054 0.104422 0.303941 68.000000
3.790373 0.092627 0.303517 71.000000
3.787648 0.080933 0.303305 64.000000
3.790870 0.069368 0.303517 55.000000
3.788073 0.057691 0.303305 81.000000
3.796212 0.046168 0.303870 69.000000
3.804315 0.034597 0.304435 52.000000
3.808393 0.022950 0.304717 65.000000
3.815428 0.011289 0.305212 56.000000
3.823425 -0.000415 0.305777 36.000000
3.813430 -0.012117 0.305071 47.000000
3.814373 -0.023822 0.305141 55.000000
3.811289 -0.035497 0.304929 51.000000
3.808170 -0.047154 0.304717 50.000000
3.800029 -0.058716 0.304152 57.000000
3.796839 -0.070320 0.303941 54.000000
3.792616 -0.081883 0.303658 60.000000
3.787361 -0.093397 0.303305 54.000000
3.784065 -0.104934 0.303093 64.000000
3.781731 -0.116482 0.302952 65.000000
3.781356 -0.128083 0.302952 71.000000
3.782939 -0.139757 0.303093 64.000000
3.785483 -0.151481 0.303305 55.000000
3.786993 -0.163179 0.303446 64.000000
3.791457 -0.175025 0.303799 62.000000
3.791898 -0.186705 0.303870 62.000000
3.791308 -0.198337 0.303870 46.000000
3.788690 -0.209858 0.303729 38.000000
3.785040 -0.221307 0.303517 32.000000
3.783348 -0.232857 0.303446 60.000000
3.793566 -0.245168 0.304223 24.000000
3.813013 0.376357 0.258199 39.000000
3.818125 0.365037 0.258431 37.000000
3.831156 0.354424 0.259128 40.000000
3.836202 0.343023 0.259361 37.000000
3.839226 0.331424 0.259477 33.000000
3.837240 0.319396 0.259302 37.000000
3.840192 0.307781 0.259419 34.000000
3.849081 0.296611 0.259883 48.000000
3.848977 0.284727 0.259825 47.000000
3.852820 0.273129 0.260000 48.000000
3.828739 0.259621 0.258547 33.000000
3.838484 0.248453 0.259070 40.000000
3.847199 0.237166 0.259535 47.000000
3.849902 0.225478 0.259651 46.000000
3.855560 0.213942 0.259941 42.000000
3.861183 0.202373 0.260232 41.000000
3.858794 0.190379 0.260058 43.000000
3.844401 0.177849 0.259186 59.000000
3.840939 0.165882 0.258954 51.000000
3.871356 0.155295 0.260697 37.000000
3.857847 0.142901 0.259883 59.000000
3.866249 0.131335 0.260348 40.000000
3.857653 0.119196 0.259825 57.000000
3.853011 0.107222 0.259535 61.000000
3.870288 0.095819 0.260522 35.000000
3.846610 0.083428 0.259128 47.000000
3.833872 0.071386 0.258373 63.000000
3.829082 0.059546 0.258083 49.000000
3.853204 0.048095 0.259477 26.000000
3.813403 0.035901 0.257153 58.000000
3.815492 0.024214 0.257269 43.000000
3.816547 0.012512 0.257328 43.000000
3.818564 0.000803 0.257444 46.000000
3.824538 -0.010930 0.257792 62.000000
3.826483 -0.022676 0.257908 50.000000
3.826395 -0.034415 0.257908 47.000000
3.829267 -0.046191 0.258083 40.000000
3.819125 -0.057786 0.257502 45.000000
3.819928 -0.069521 0.257560 36.000000
3.807719 -0.080984 0.256863 58.000000
3.807453 -0.092666 0.256863 45.000000
3.804157 -0.104264 0.256689 41.000000
3.801824 -0.115874 0.256572 56.000000
3.811428 -0.127873 0.257153 27.000000
3.810020 -0.139529 0.257095 39.000000
3.808576 -0.151177 0.257037 43.000000
3.811087 -0.162989 0.257211 40.000000
3.809571 -0.174635 0.257153 46.000000
3.813006 -0.186517 0.257386 37.000000
3.812416 -0.198215 0.257386 30.000000
3.806806 -0.209635 0.257095 45.000000
3.806145 -0.221313 0.257095 41.000000
3.808437 -0.233173 0.257269 33.000000
3.820655 -0.245690 0.258025 8.000000
3.818887 -0.257343 0.257966 8.000000
4.209060 0.348382 0.230930 26.000000
4.183223 0.333318 0.229681 87.000000
4.172274 0.319563 0.229127 69.000000
4.158292 0.305659 0.228433 65.000000
4.149246 0.292196 0.227971 60.000000
4.135172 0.278454 0.227277 49.000000
4.118064 0.264608 0.226445 65.000000
4.112874 0.251605 0.226168 85.000000
4.103655 0.238403 0.225705 58.000000
4.095390 0.225316 0.225289 39.000000
4.097060 0.212802 0.225335 39.000000
4.101684 0.200428 0.225520 39.000000
4.068352 0.186280 0.223948 14.000000
4.105831 0.175386 0.225659 43.000000
4.112338 0.163027 0.225936 63.000000
4.102836 0.150042 0.225474 40.000000
4.093294 0.137117 0.225012 41.000000
4.068734 0.123792 0.223856 26.000000
4.060108 0.111060 0.223440 42.000000
4.061428 0.098628 0.223486 52.000000
4.055719 0.086038 0.223208 61.000000
4.034990 0.073208 0.222238 41.000000
3.960284 0.059678 0.218770 28.000000
4.068326 0.048854 0.223763 54.000000
4.083439 0.036511 0.224457 51.000000
4.088527 0.024013 0.224688 54.000000
4.062609 0.011389 0.223486 35.000000
4.130552 -0.001073 0.226630 72.000000
4.133526 -0.013754 0.226769 59.000000
4.117482 -0.026338 0.226029 47.000000
4.180312 -0.039548 0.228942 111.000000
4.057312 -0.050868 0.223255 35.000000
3.761354 -0.139621 0.209662 8.000000
3.774324 -0.186503 0.210355 17.000000
3.794683 -0.199174 0.211326 26.000000
3.794054 -0.210815 0.211326 23.000000
3.789400 -0.222222 0.211141 26.000000
3.791692 -0.234030 0.211280 34.000000
4.162323 0.332838 0.177082 51.000000
4.148377 0.318919 0.176575 26.000000
4.148340 0.306117 0.176541 33.000000
4.131314 0.292121 0.175931 27.000000
4.113245 0.278166 0.175288 41.000000
4.100116 0.264645 0.174814 51.000000
4.090933 0.251453 0.174476 66.000000
4.089690 0.238785 0.174408 67.000000
4.086411 0.226016 0.174273 52.000000
4.096068 0.213946 0.174577 59.000000
4.095707 0.201330 0.174543 54.000000
4.101297 0.188993 0.174713 28.000000
4.101858 0.176410 0.174713 28.000000
4.095389 0.163546 0.174476 63.000000
4.094873 0.150944 0.174442 89.000000
4.100311 0.138549 0.174611 34.000000
4.094723 0.125785 0.174408 21.000000
4.094090 0.113194 0.174374 52.000000
4.090422 0.100535 0.174239 72.000000
4.098705 0.088157 0.174510 54.000000
4.099956 0.075600 0.174543 37.000000
4.102167 0.063052 0.174611 47.000000
4.108337 0.050539 0.174814 58.000000
4.117468 0.038017 0.175119 58.000000
4.126559 0.025439 0.175424 64.000000
4.138611 0.012815 0.175830 44.000000
4.143628 0.000118 0.175999 43.000000
4.162598 -0.012654 0.176642 49.000000
4.168536 -0.025462 0.176845 47.000000
4.184428 -0.038399 0.177387 75.000000
4.186290 -0.051261 0.177455 47.000000
4.144142 -0.063458 0.176033 8.000000
4.198495 0.348975 0.127031 22.000000
4.183601 0.334812 0.126684 37.000000
4.172647 0.321052 0.126425 36.000000
4.136723 0.305514 0.125624 51.000000
4.105728 0.290554 0.124931 65.000000
4.087648 0.276668 0.124520 71.000000
4.083490 0.263802 0.124412 60.000000
4.073304 0.250595 0.124174 63.000000
4.071059 0.237921 0.124109 60.000000
4.061788 0.224874 0.123893 74.000000
4.052475 0.211887 0.123676 95.000000
4.058098 0.199700 0.123785 102.000000
4.054697 0.187064 0.123698 95.000000
4.054253 0.174580 0.123676 95.000000
4.057766 0.162262 0.123741 86.000000
4.062242 0.149960 0.123828 79.000000
4.066679 0.137633 0.123914 75.000000
4.070080 0.125249 0.123979 54.000000
4.056454 0.112370 0.123676 31.000000
4.062777 0.100074 0.123806 35.000000
4.080057 0.087981 0.124174 59.000000
4.084305 0.075538 0.124261 67.000000
4.087517 0.063054 0.124326 53.000000
4.094689 0.050602 0.124477 44.000000
4.101823 0.038107 0.124628 56.000000
4.111917 0.025587 0.124845 45.000000
4.130972 0.013037 0.125256 35.000000
4.136992 0.000366 0.125386 50.000000
4.158968 -0.012386 0.125862 30.000000
4.169908 -0.025209 0.126100 36.000000
4.178808 -0.038081 0.126295 31.000000
4.181671 -0.050937 0.126360 24.000000
4.155611 0.331575 0.074598 16.000000
4.152620 0.318518 0.074561 40.000000
4.144602 0.305117 0.074477 46.000000
4.118587 0.290503 0.074228 60.000000
4.120456 0.277933 0.074237 44.000000
4.098338 0.263815 0.074024 80.000000
4.094138 0.250935 0.073978 91.000000
4.078916 0.237445 0.073830 66.000000
4.069641 0.224380 0.073737 48.000000
4.055331 0.211116 0.073599 82.000000
4.059954 0.198868 0.073636 46.000000
4.054552 0.186137 0.073580 67.000000
4.056103 0.173740 0.073589 60.000000
4.055618 0.161255 0.073580 77.000000
4.057092 0.148849 0.073589 72.000000
4.058530 0.136434 0.073599 73.000000
4.058929 0.123982 0.073599 93.000000
4.062289 0.111611 0.073626 83.000000
4.068610 0.099294 0.073682 67.000000
4.073895 0.086917 0.073728 69.000000
4.079141 0.074509 0.073774 57.000000
4.086349 0.062100 0.073839 68.000000
4.095519 0.049671 0.073922 56.000000
4.104652 0.037186 0.074006 53.000000
4.113746 0.024646 0.074089 56.000000
4.128802 0.012068 0.074228 48.000000
4.143818 -0.000603 0.074366 52.000000
4.162796 -0.013379 0.074542 35.000000
4.171734 -0.026207 0.074625 42.000000
4.181634 -0.039100 0.074718 30.000000
4.153655 0.332407 0.022414 37.000000
4.135711 0.318199 0.022477 45.000000
4.117720 0.304105 0.022540 56.000000
4.106664 0.290620 0.022580 67.000000
4.098557 0.277409 0.022610 58.000000
4.079431 0.263539 0.022676 71.000000
4.071238 0.250467 0.022706 75.000000
4.057013 0.237096 0.022756 113.000000
4.058719 0.224704 0.022752 80.000000
4.056394 0.212093 0.022762 93.000000
4.053030 0.199449 0.022776 76.000000
4.047629 0.186736 0.022795 70.000000
4.042189 0.174057 0.022815 72.000000
4.044703 0.161735 0.022809 67.000000
4.037185 0.149028 0.022835 83.000000
4.040621 0.136744 0.022825 84.000000
4.042022 0.124378 0.022822 78.000000
4.042384 0.111977 0.022822 77.000000
4.042709 0.099574 0.022822 105.000000
4.053993 0.087411 0.022786 64.000000
4.057241 0.075030 0.022776 78.000000
4.072450 0.062818 0.022726 52.000000
4.087622 0.050513 0.022676 41.000000
4.100758 0.038096 0.022633 44.000000
4.125854 0.025678 0.022550 31.000000
4.130914 0.013037 0.022534 43.000000
4.158934 0.000374 0.022441 29.000000
4.166915 -0.012407 0.022414 43.000000
4.188858 -0.025318 0.022341 26.000000
4.191760 -0.038195 0.022331 26.000000
4.139215 0.331717 -0.028804 42.000000
4.128249 0.318095 -0.028616 42.000000
4.112254 0.304176 -0.028349 53.000000
4.100202 0.290641 -0.028145 52.000000
4.088105 0.277182 -0.027940 59.000000
4.075965 0.263800 -0.027736 67.000000
4.069769 0.250864 -0.027626 66.000000
4.065529 0.238085 -0.027548 98.000000
4.060250 0.225280 -0.027453 91.000000
4.050938 0.212300 -0.027296 94.000000
4.032595 0.198936 -0.026998 58.000000
4.035184 0.186656 -0.027029 75.000000
4.030743 0.174060 -0.026951 80.000000
4.033256 0.161773 -0.026982 83.000000
4.036731 0.149509 -0.027029 62.000000
4.042168 0.137293 -0.027108 79.000000
4.050564 0.125137 -0.027233 67.000000
4.056927 0.112876 -0.027328 68.000000
4.059253 0.100478 -0.027359 94.000000
4.069539 0.088240 -0.027516 67.000000
4.069790 0.075755 -0.027516 38.000000
4.077002 0.063376 -0.027626 76.000000
4.085176 0.050967 -0.027752 62.000000
4.094311 0.038517 -0.027893 45.000000
4.109407 0.026050 -0.028129 53.000000
4.120467 0.013477 -0.028302 46.000000
4.138486 0.000838 -0.028584 61.000000
4.147469 -0.011886 -0.028726 57.000000
4.150412 -0.024628 -0.028773 48.000000
4.170314 -0.037543 -0.029087 34.000000
4.205172 -0.050763 -0.029637 9.000000
4.155030 0.345350 -0.079115 43.000000
4.147102 0.331881 -0.078865 36.000000
4.144114 0.318848 -0.078754 34.000000
4.122145 0.304433 -0.078116 44.000000
4.097135 0.289943 -0.077395 53.000000
4.077061 0.275948 -0.076812 69.000000
4.067914 0.262791 -0.076534 78.000000
4.059721 0.249755 -0.076285 82.000000
4.052485 0.236830 -0.076063 83.000000
4.044209 0.223896 -0.075813 81.000000
4.040885 0.211278 -0.075702 61.000000
4.036522 0.198632 -0.075563 67.000000
4.034117 0.186108 -0.075480 68.000000
4.034669 0.173731 -0.075480 81.000000
4.036181 0.161392 -0.075508 76.000000
4.036658 0.149009 -0.075508 98.000000
4.036097 0.136590 -0.075480 88.000000
4.036497 0.124206 -0.075480 69.000000
4.036860 0.111822 -0.075480 74.000000
4.041180 0.099536 -0.075591 62.000000
4.044465 0.087203 -0.075674 51.000000
4.052709 0.074945 -0.075896 49.000000
4.063914 0.062683 -0.076201 45.000000
4.074082 0.050342 -0.076479 36.000000
4.086213 0.037957 -0.076812 35.000000
4.096306 0.025486 -0.077089 41.000000
4.109359 0.012963 -0.077450 35.000000
4.130372 0.000363 -0.078033 23.000000
4.135352 -0.012322 -0.078171 51.000000
4.143291 -0.025055 -0.078393 35.000000
4.160187 -0.037917 -0.078865 31.000000
4.181042 -0.050929 -0.079448 10.000000
4.155165 0.358666 -0.131421 42.000000
4.144297 0.344923 -0.130937 55.000000
4.136372 0.331489 -0.130574 44.000000
4.126410 0.317954 -0.130131 48.000000
4.109430 0.303968 -0.129406 51.000000
4.093400 0.290159 -0.128720 67.000000
4.085298 0.276992 -0.128358 54.000000
4.076158 0.263813 -0.127955 57.000000
4.062986 0.250447 -0.127390 73.000000
4.056753 0.237572 -0.127108 75.000000
4.051476 0.224794 -0.126866 82.000000
4.047158 0.212102 -0.126665 82.000000
4.047790 0.199684 -0.126665 82.000000
4.045389 0.187127 -0.126544 91.000000
4.047940 0.174801 -0.126624 70.000000
4.047460 0.162341 -0.126584 84.000000
4.046940 0.149886 -0.126544 67.000000
4.046382 0.137436 -0.126504 96.000000
4.046784 0.125021 -0.126504 76.000000
4.048148 0.112633 -0.126544 80.000000
4.053469 0.100336 -0.126745 81.000000
4.055756 0.087943 -0.126826 49.000000
4.061001 0.075592 -0.127028 67.000000
4.069207 0.063256 -0.127350 63.000000
4.081371 0.050920 -0.127834 44.000000
4.087502 0.038454 -0.128076 43.000000
4.097593 0.025976 -0.128479 35.000000
4.110643 0.013446 -0.129003 38.000000
4.128650 0.000837 -0.129728 35.000000
4.142622 -0.011871 -0.130292 45.000000
4.148561 -0.024617 -0.130534 42.000000
4.154460 -0.037399 -0.130776 49.000000
4.175308 -0.050400 -0.131622 13.000000
4.209384 0.387449 -0.184531 21.000000
4.159825 0.370007 -0.181862 42.000000
4.151985 0.356471 -0.181391 44.000000
4.146094 0.343153 -0.181024 39.000000
4.125226 0.328680 -0.179873 47.000000
4.106302 0.314492 -0.178826 74.000000
4.100276 0.301378 -0.178460 67.000000
4.093212 0.288234 -0.178041 66.000000
4.077139 0.274529 -0.177152 85.000000
4.077962 0.262020 -0.177152 70.000000
4.070773 0.249017 -0.176733 74.000000
4.061548 0.235945 -0.176209 78.000000
4.061255 0.223428 -0.176157 72.000000
4.056936 0.210707 -0.175895 74.000000
4.057563 0.198260 -0.175895 79.000000
4.057155 0.185764 -0.175843 77.000000
4.054712 0.173187 -0.175686 82.000000
4.055224 0.160747 -0.175686 57.000000
4.052705 0.148195 -0.175529 65.000000
4.051145 0.135693 -0.175424 74.000000
4.053538 0.123325 -0.175529 67.000000
4.053897 0.110888 -0.175529 80.000000
4.060208 0.098598 -0.175843 62.000000
4.063487 0.086205 -0.176000 55.000000
4.064731 0.073756 -0.176052 70.000000
4.068932 0.061347 -0.176262 50.000000
4.075092 0.048937 -0.176576 62.000000
4.077220 0.036453 -0.176680 45.000000
4.087299 0.024006 -0.177204 29.000000
4.105329 0.011521 -0.178146 37.000000
4.120324 -0.001073 -0.178931 39.000000
4.132285 -0.013751 -0.179559 43.000000
4.141211 -0.026483 -0.180030 34.000000
4.136117 -0.039142 -0.179768 23.000000
4.031130 -0.050547 -0.174273 5.000000
4.140902 0.357436 -0.232300 47.000000
4.142973 0.344813 -0.232364 60.000000
4.134065 0.331304 -0.231717 52.000000
4.130086 0.318237 -0.231394 61.000000
4.123082 0.304976 -0.230876 65.000000
4.117030 0.291832 -0.230423 63.000000
4.109941 0.278661 -0.229906 77.000000
4.108785 0.265921 -0.229776 59.000000
4.105598 0.253069 -0.229517 77.000000
4.104362 0.240356 -0.229388 67.000000
4.099102 0.227432 -0.229000 80.000000
4.095795 0.214646 -0.228741 62.000000
4.091451 0.201834 -0.228417 58.000000
4.088063 0.189097 -0.228159 63.000000
4.086630 0.176468 -0.228029 67.000000
4.085158 0.163850 -0.227900 57.000000
4.085641 0.151316 -0.227900 65.000000
4.087084 0.138814 -0.227964 60.000000
4.088488 0.126305 -0.228029 59.000000
4.089854 0.113789 -0.228094 64.000000
4.086193 0.101143 -0.227835 46.000000
4.087481 0.088628 -0.227900 60.000000
4.084742 0.076031 -0.227706 46.000000
4.089944 0.063576 -0.228029 56.000000
4.095109 0.051090 -0.228353 49.000000
4.096244 0.038535 -0.228417 44.000000
4.108318 0.026043 -0.229194 44.000000
4.118358 0.013470 -0.229841 49.000000
4.135344 0.000837 -0.230941 36.000000
4.149297 -0.011891 -0.231847 45.000000
4.159220 -0.024681 -0.232494 34.000000
4.171099 -0.037550 -0.233270 50.000000
4.180943 -0.050468 -0.233917 29.000000
4.138440 0.368099 -0.281573 33.000000
4.136569 0.355144 -0.281344 40.000000
4.137640 0.342451 -0.281344 46.000000
4.135690 0.329517 -0.281114 47.000000
4.127734 0.316140 -0.280425 64.000000
4.117746 0.302667 -0.279583 75.000000
4.112688 0.289611 -0.279124 68.000000
4.102614 0.276252 -0.278282 80.000000
4.096477 0.263215 -0.277746 80.000000
4.102242 0.250951 -0.278129 46.000000
4.096025 0.237958 -0.277593 66.000000
4.095740 0.225335 -0.277516 72.000000
4.095417 0.212717 -0.277440 89.000000
4.096049 0.200151 -0.277440 37.000000
4.088676 0.187217 -0.276827 62.000000
4.083254 0.174415 -0.276368 48.000000
4.080781 0.161767 -0.276138 38.000000
4.078269 0.149137 -0.275909 39.000000
4.076715 0.136557 -0.275756 37.000000
4.075121 0.123988 -0.275603 54.000000
4.073489 0.111430 -0.275450 51.000000
4.076802 0.099005 -0.275679 48.000000
4.076090 0.086476 -0.275603 47.000000
4.077332 0.073989 -0.275679 46.000000
4.079535 0.061510 -0.275832 28.000000
4.080701 0.049006 -0.275909 51.000000
4.083823 0.036514 -0.276138 44.000000
4.090895 0.024028 -0.276674 37.000000
4.091947 0.011480 -0.276751 48.000000
4.103928 -0.001074 -0.277669 28.000000
4.114873 -0.013698 -0.278511 28.000000
4.117803 -0.026340 -0.278741 26.000000
4.117702 -0.038973 -0.278741 24.000000
4.107594 -0.051484 -0.277976 17.000000
4.131285 0.367931 -0.331850 25.000000
4.136364 0.355596 -0.332205 42.000000
4.134458 0.342657 -0.331938 51.000000
4.130525 0.329576 -0.331495 52.000000
4.124565 0.316369 -0.330874 70.000000
4.122536 0.303495 -0.330608 46.000000
4.112518 0.290076 -0.329632 66.000000
4.110407 0.277256 -0.329365 84.000000
4.107263 0.264389 -0.329011 78.000000
4.109048 0.251848 -0.329099 73.000000
4.111791 0.239356 -0.329277 79.000000
4.109522 0.226575 -0.329011 65.000000
4.111193 0.214018 -0.329099 79.000000
4.107850 0.201210 -0.328744 57.000000
4.108449 0.188606 -0.328744 81.000000
4.102041 0.175703 -0.328123 71.000000
4.093604 0.162762 -0.327325 34.000000
4.091097 0.150093 -0.327059 36.000000
4.085566 0.137341 -0.326526 42.000000
4.081985 0.124684 -0.326172 98.000000
4.085336 0.112242 -0.326438 76.000000
4.079687 0.099563 -0.325905 54.000000
4.079973 0.087046 -0.325905 57.000000
4.075242 0.074438 -0.325462 55.000000
