ply
format ascii 1.0
element vertex 1135
property float x
property float y
property float z
property float intensity
end_header
4.281280 1.004918 0.561014 9.000000
4.288212 0.992675 0.561490 28.000000
4.271878 0.975090 0.559111 39.000000
4.277755 0.962634 0.559468 34.000000
4.274873 0.948214 0.558755 37.000000
4.278732 0.935307 0.558873 27.000000
4.272846 0.920292 0.557803 25.000000
4.287304 0.909654 0.559230 38.000000
4.308540 0.900361 0.561490 14.000000
4.315929 0.874302 0.561728 10.000000
4.347766 1.048327 0.514810 5.000000
4.322911 1.028313 0.511713 12.000000
4.292164 1.007100 0.507975 24.000000
4.269079 0.987877 0.505092 32.000000
4.264334 0.973006 0.504238 32.000000
4.257599 0.957737 0.503170 25.000000
4.248869 0.942089 0.501889 24.000000
4.257567 0.930322 0.502529 18.000000
4.262346 0.917674 0.502743 34.000000
4.279731 0.907686 0.504345 41.000000
4.288335 0.895771 0.504986 45.000000
4.292037 0.882811 0.505092 35.000000
4.377560 0.886404 0.514169 7.000000
4.302715 1.037061 0.456947 12.000000
4.291350 1.020398 0.455522 10.000000
4.234375 0.993118 0.449634 34.000000
4.233523 0.979224 0.449254 30.000000
4.217097 0.961799 0.447354 25.000000
4.239452 0.953229 0.449254 57.000000
4.230694 0.937630 0.448114 47.000000
4.236468 0.925284 0.448399 48.000000
4.249992 0.914589 0.449444 35.000000
4.247909 0.900513 0.448969 28.000000
4.256498 0.888698 0.449539 28.000000
4.294306 0.882862 0.452958 15.000000
4.302847 0.870869 0.453528 11.000000
4.147839 0.973249 0.387395 6.000000
4.180928 0.940497 0.389456 10.000000
4.199362 0.931117 0.390775 7.000000
4.236578 0.871409 0.392754 9.000000
3.745493 0.986779 0.309308 29.000000
3.739815 0.973020 0.308673 39.000000
3.749546 0.963282 0.309167 26.000000
3.750549 0.951283 0.309026 33.000000
3.752483 0.939529 0.308955 33.000000
3.754379 0.927773 0.308885 53.000000
3.761084 0.917196 0.309167 49.000000
3.771638 0.907522 0.309732 46.000000
3.775375 0.896178 0.309803 50.000000
3.787819 0.886868 0.310509 37.000000
3.783719 0.873670 0.310015 47.000000
3.783463 0.861392 0.309803 53.000000
3.829238 0.834831 0.312557 33.000000
3.817154 0.819933 0.311498 35.000000
3.814772 0.807184 0.311145 41.000000
3.805513 0.793032 0.310297 41.000000
3.801089 0.779947 0.309803 49.000000
3.818129 0.771249 0.310862 44.000000
3.823412 0.760116 0.311074 45.000000
3.823768 0.747998 0.310933 45.000000
3.831922 0.737396 0.311356 40.000000
3.827306 0.724336 0.310862 36.000000
3.826568 0.712043 0.310650 31.000000
3.820885 0.698861 0.310085 42.000000
3.820066 0.686606 0.309873 41.000000
3.818226 0.674188 0.309591 43.000000
3.822242 0.662812 0.309732 43.000000
3.822290 0.650747 0.309591 44.000000
3.825253 0.639182 0.309661 42.000000
3.827196 0.627443 0.309661 41.000000
3.822209 0.614588 0.309167 36.000000
3.829003 0.603637 0.309520 41.000000
3.832809 0.592192 0.309661 60.000000
3.836580 0.580729 0.309803 46.000000
3.842290 0.569542 0.310085 58.000000
3.845006 0.557895 0.310156 42.000000
3.847688 0.546237 0.310226 54.000000
3.849345 0.534430 0.310226 46.000000
3.848990 0.522349 0.310085 43.000000
3.849586 0.510406 0.310015 41.000000
3.845198 0.497823 0.309591 47.000000
3.849677 0.486400 0.309803 40.000000
3.854120 0.474954 0.310015 61.000000
3.858531 0.463485 0.310226 53.000000
3.869841 0.452807 0.310933 52.000000
3.866257 0.440367 0.310580 65.000000
3.870564 0.428834 0.310791 63.000000
3.906572 0.420706 0.313263 31.000000
3.692907 1.233406 0.261800 39.000000
3.691934 1.220504 0.261510 42.000000
3.695661 1.209171 0.261510 44.000000
3.697454 1.197213 0.261394 30.000000
3.704913 1.187081 0.261626 57.000000
3.710440 1.176312 0.261742 45.000000
3.714984 1.165222 0.261800 55.000000
3.720449 1.154411 0.261916 52.000000
3.723973 1.142991 0.261916 35.000000
3.728417 1.131851 0.261974 57.000000
3.733785 1.120981 0.262091 57.000000
3.736249 1.109236 0.262033 53.000000
3.738677 1.097487 0.261974 63.000000
3.742985 1.086290 0.262033 60.000000
3.741502 1.073426 0.261742 51.000000
3.742857 1.061397 0.261626 58.000000
3.746095 1.049909 0.261626 49.000000
3.748337 1.038145 0.261568 40.000000
3.753430 1.027167 0.261684 71.000000
3.753672 1.014866 0.261510 69.000000
3.754839 1.002830 0.261394 65.000000
3.755002 0.990542 0.261219 69.000000
3.753193 0.977759 0.260929 62.000000
3.750374 0.964748 0.260580 60.000000
3.746543 0.951518 0.260174 50.000000
3.750413 0.940262 0.260232 62.000000
3.756187 0.929471 0.260406 72.000000
3.760960 0.918416 0.260522 69.000000
3.769584 0.908276 0.260871 68.000000
3.773324 0.896937 0.260929 95.000000
3.780918 0.886496 0.261219 139.000000
3.789456 0.876241 0.261568 568.000000
3.792126 0.864611 0.261568 730.000000
3.783072 0.850347 0.260871 444.000000
3.785664 0.838736 0.260871 295.000000
3.794071 0.828395 0.261219 119.000000
3.794643 0.816332 0.261103 137.000000
3.793223 0.803858 0.260871 106.000000
3.797625 0.792625 0.260987 69.000000
3.797106 0.780368 0.260813 74.000000
3.802418 0.769308 0.260987 69.000000
3.805739 0.757834 0.261045 71.000000
3.810006 0.746538 0.261161 76.000000
3.816199 0.735601 0.261394 67.000000
3.816476 0.723518 0.261277 77.000000
3.820641 0.712172 0.261394 68.000000
3.825754 0.700986 0.261568 50.000000
3.828869 0.689422 0.261626 77.000000
3.837953 0.618353 0.261452 42.000000
3.839832 0.606575 0.261452 65.000000
3.841675 0.594792 0.261452 47.000000
3.842494 0.582853 0.261394 46.000000
3.845252 0.571208 0.261452 46.000000
3.845999 0.559265 0.261394 50.000000
3.847697 0.547463 0.261394 59.000000
3.850347 0.535793 0.261452 49.000000
3.853951 0.524247 0.261568 67.000000
3.856531 0.512552 0.261626 44.000000
3.858085 0.500718 0.261626 49.000000
3.859603 0.488880 0.261626 48.000000
3.864512 0.465427 0.261742 55.000000
3.871871 0.454266 0.262091 47.000000
3.879198 0.443064 0.262439 45.000000
3.881531 0.431271 0.262497 51.000000
3.889784 0.420110 0.262904 38.000000
3.678694 1.226670 0.214932 33.000000
3.685286 1.216318 0.215071 32.000000
3.689000 1.205006 0.215071 37.000000
3.697432 1.195220 0.215302 42.000000
3.702984 1.184481 0.215395 40.000000
3.706600 1.173114 0.215395 60.000000
3.711135 1.162036 0.215441 64.000000
3.712775 1.150053 0.215349 63.000000
3.715330 1.138364 0.215302 62.000000
3.718805 1.126960 0.215302 51.000000
3.723202 1.115833 0.215349 56.000000
3.725650 1.104121 0.215302 54.000000
3.728061 1.092404 0.215256 60.000000
3.732355 1.081240 0.215302 46.000000
3.735654 1.069784 0.215302 64.000000
3.741802 1.059135 0.215441 75.000000
3.751392 1.024652 0.215441 81.000000
3.754713 1.000842 0.215302 94.000000
3.755834 0.988809 0.215210 87.000000
3.755949 0.976526 0.215071 103.000000
3.756025 0.964253 0.214932 125.000000
3.756061 0.951988 0.214794 136.000000
3.763809 0.941673 0.215025 170.000000
3.771529 0.931321 0.215256 208.000000
3.777280 0.920456 0.215395 221.000000
3.781057 0.909097 0.215441 246.000000
3.783829 0.897492 0.215441 242.000000
3.787537 0.886107 0.215487 218.000000
3.790237 0.874483 0.215487 235.000000
3.794850 0.863294 0.215580 180.000000
3.797481 0.851648 0.215580 190.000000
3.798126 0.839562 0.215487 200.000000
3.803611 0.828544 0.215626 169.000000
3.806135 0.816871 0.215626 164.000000
3.808624 0.805190 0.215626 166.000000
3.809120 0.793093 0.215534 163.000000
3.806643 0.780399 0.215302 193.000000
3.809998 0.768915 0.215349 182.000000
3.816258 0.758002 0.215534 162.000000
3.822487 0.747057 0.215718 137.000000
3.812990 0.733060 0.215164 78.000000
3.816203 0.721544 0.215210 73.000000
3.820363 0.710199 0.215302 56.000000
3.825471 0.699014 0.215441 46.000000
3.823665 0.686567 0.215256 52.000000
3.826737 0.675007 0.215302 60.000000
3.825838 0.662751 0.215164 50.000000
3.827853 0.651011 0.215164 63.000000
3.832788 0.639758 0.215302 53.000000
3.834732 0.627996 0.215302 69.000000
3.839600 0.616705 0.215441 55.000000
3.842460 0.605078 0.215487 71.000000
3.843312 0.593134 0.215441 65.000000
3.848076 0.581789 0.215580 77.000000
3.848855 0.569834 0.215534 77.000000
3.850585 0.558023 0.215534 51.000000
3.853268 0.546347 0.215580 52.000000
3.854926 0.534523 0.215580 62.000000
3.858527 0.522963 0.215672 75.000000
3.861104 0.511254 0.215718 74.000000
3.863645 0.499534 0.215765 58.000000
3.867141 0.487929 0.215857 57.000000
3.867628 0.475940 0.215811 53.000000
3.867087 0.463834 0.215718 64.000000
3.865515 0.451619 0.215580 60.000000
3.866883 0.439757 0.215580 52.000000
3.868214 0.427892 0.215580 40.000000
3.866529 0.415701 0.215441 40.000000
3.693439 1.232869 0.167536 37.000000
3.695305 1.220905 0.167468 36.000000
3.698084 1.209252 0.167434 38.000000
3.704629 1.198824 0.167536 50.000000
3.708290 1.187452 0.167536 59.000000
3.711915 1.176070 0.167536 51.000000
3.713598 1.164079 0.167468 35.000000
3.723835 1.154752 0.167705 47.000000
3.723538 1.142150 0.167570 49.000000
3.724155 1.129850 0.167468 62.000000
3.723775 1.117271 0.167333 59.000000
3.724310 1.104989 0.167231 72.000000
3.725765 1.092995 0.167164 78.000000
3.726221 1.080725 0.167062 73.000000
3.729519 1.069288 0.167062 76.000000
3.731820 1.057568 0.167028 65.000000
3.735047 1.046114 0.167028 57.000000
3.738239 1.034650 0.167028 76.000000
3.741396 1.023177 0.167028 105.000000
3.749341 1.012996 0.167197 133.000000
3.747603 1.000201 0.167028 110.000000
3.762252 0.991754 0.167434 160.000000
3.768178 0.980962 0.167536 155.000000
3.776010 0.970641 0.167705 211.000000
3.777033 0.958560 0.167637 205.000000
3.776078 0.945997 0.167502 245.000000
3.777022 0.933928 0.167434 217.000000
3.777927 0.921862 0.167367 198.000000
3.779766 0.910033 0.167333 192.000000
3.783513 0.898664 0.167367 197.000000
3.787225 0.887280 0.167400 194.000000
3.791877 0.876106 0.167468 258.000000
3.806241 0.867132 0.167874 633.000000
3.787430 0.850634 0.167130 745.000000
3.810514 0.843545 0.167841 981.000000
3.805272 0.830147 0.167570 582.000000
3.814641 0.819938 0.167807 317.000000
3.809316 0.806576 0.167536 192.000000
3.811773 0.794885 0.167536 171.000000
3.812236 0.782785 0.167468 166.000000
3.813640 0.770888 0.167434 169.000000
3.815986 0.759184 0.167434 184.000000
3.818298 0.747473 0.167434 189.000000
3.821554 0.735944 0.167468 173.000000
3.816920 0.722915 0.167231 109.000000
3.816172 0.710653 0.167130 86.000000
3.819318 0.699121 0.167164 91.000000
3.822429 0.687577 0.167197 64.000000
3.841344 0.618214 0.167434 39.000000
3.846184 0.606893 0.167536 48.000000
3.850004 0.595395 0.167604 47.000000
3.855765 0.584179 0.167739 58.000000
3.859516 0.572640 0.167807 63.000000
3.862244 0.560940 0.167841 57.000000
3.863947 0.549088 0.167841 64.000000
3.862643 0.536819 0.167739 47.000000
3.863282 0.524832 0.167705 46.000000
3.863883 0.512845 0.167671 50.000000
3.863456 0.500732 0.167604 52.000000
3.865965 0.489002 0.167637 59.000000
3.869885 0.465391 0.167671 70.000000
3.871295 0.453516 0.167671 46.000000
3.873661 0.441750 0.167705 57.000000
3.874005 0.429754 0.167671 37.000000
3.871330 0.417438 0.167536 40.000000
3.845755 0.402751 0.166622 15.000000
3.683182 1.254764 0.120062 27.000000
3.687962 1.243778 0.120084 29.000000
3.698398 1.234676 0.120235 49.000000
3.703117 1.223637 0.120257 48.000000
3.704004 1.211337 0.120192 33.000000
3.706751 1.199660 0.120171 36.000000
3.712318 1.188893 0.120214 61.000000
3.714996 1.177195 0.120192 57.000000
3.719543 1.166092 0.120214 47.000000
3.723104 1.154675 0.120214 63.000000
3.723761 1.142367 0.120149 63.000000
3.724379 1.130065 0.120084 67.000000
3.724956 1.117771 0.120019 83.000000
3.724534 1.105199 0.119933 52.000000
3.726948 1.093485 0.119911 69.000000
3.727405 1.081209 0.119846 70.000000
3.729743 1.069493 0.119824 64.000000
3.734931 1.058591 0.119868 59.000000
3.744745 1.011895 0.119803 124.000000
3.745900 0.999885 0.119759 134.000000
3.751850 0.989154 0.119824 176.000000
3.757769 0.978395 0.119889 175.000000
3.765594 0.968108 0.119997 217.000000
3.771453 0.957289 0.120062 252.000000
3.776312 0.946201 0.120106 264.000000
3.779197 0.934611 0.120106 221.000000
3.780104 0.922537 0.120062 218.000000
3.780973 0.910467 0.120019 221.000000
3.782776 0.898631 0.119997 241.000000
3.782595 0.886337 0.119933 302.000000
3.783348 0.874277 0.119889 348.000000
3.783089 0.861998 0.119824 493.000000
3.817904 0.857629 0.120538 1138.000000
3.817588 0.845262 0.120474 1048.000000
3.805513 0.830345 0.120149 692.000000
3.799246 0.816772 0.119954 409.000000
3.806624 0.806149 0.120062 211.000000
3.810058 0.794671 0.120084 204.000000
3.812478 0.782978 0.120084 184.000000
3.814862 0.771278 0.120084 173.000000
3.819171 0.759961 0.120127 197.000000
3.818542 0.747664 0.120062 191.000000
3.815909 0.734998 0.119954 140.000000
3.815200 0.722728 0.119889 77.000000
3.815434 0.710653 0.119846 118.000000
3.818579 0.699125 0.119868 93.000000
3.820706 0.687406 0.119868 56.000000
3.820828 0.675333 0.119824 63.000000
3.823867 0.663779 0.119846 62.000000
3.824900 0.651876 0.119824 70.000000
3.829840 0.640634 0.119889 58.000000
3.834747 0.629368 0.119954 56.000000
3.836660 0.617600 0.119954 44.000000
3.842486 0.606451 0.120041 60.000000
3.845317 0.594813 0.120062 62.000000
3.845147 0.582712 0.120019 64.000000
3.845928 0.570766 0.119997 61.000000
3.845682 0.558676 0.119954 52.000000
3.848367 0.547016 0.119976 54.000000
3.852008 0.535483 0.120019 79.000000
3.853632 0.523662 0.120019 54.000000
3.858194 0.512233 0.120084 51.000000
3.861730 0.500651 0.120127 58.000000
3.863248 0.488801 0.120127 70.000000
3.867706 0.477315 0.120192 63.000000
3.873123 0.465926 0.120279 61.000000
3.877513 0.454391 0.120344 58.000000
3.881868 0.442833 0.120409 59.000000
3.886190 0.431254 0.120474 76.000000
3.886500 0.419221 0.120452 62.000000
3.882797 0.406773 0.120344 52.000000
3.881043 0.394555 0.120279 49.000000
3.862337 0.380679 0.119846 26.000000
3.695449 1.270741 0.072183 21.000000
3.693650 1.257464 0.072128 56.000000
3.697491 1.246126 0.072128 68.000000
3.701297 1.234777 0.072128 40.000000
3.706017 1.223729 0.072137 35.000000
3.712605 1.213285 0.072165 63.000000
3.718213 1.202504 0.072183 61.000000
3.720932 1.190786 0.072174 65.000000
3.722662 1.178762 0.072155 44.000000
3.722443 1.166140 0.072118 53.000000
3.722183 1.153530 0.072081 50.000000
3.721880 1.140933 0.072044 47.000000
3.722492 1.128639 0.072017 59.000000
3.724021 1.116639 0.071998 68.000000
3.726471 1.104925 0.071989 57.000000
3.729843 1.093487 0.071989 64.000000
3.733181 1.082039 0.071989 63.000000
3.735521 1.070305 0.071980 77.000000
3.741674 1.059657 0.072007 105.000000
3.741055 1.047095 0.071970 95.000000
3.742322 1.035080 0.071952 104.000000
3.742586 1.022803 0.071924 81.000000
3.741845 1.010274 0.071887 89.000000
3.743961 0.998532 0.071878 90.000000
3.751842 0.988314 0.071924 132.000000
3.770340 0.980825 0.072072 175.000000
3.772363 0.969005 0.072063 205.000000
3.775318 0.957427 0.072063 245.000000
3.778238 0.945840 0.072063 245.000000
3.781122 0.934244 0.072063 253.000000
3.783970 0.922639 0.072063 199.000000
3.787755 0.911259 0.072072 202.000000
3.790533 0.899634 0.072072 175.000000
3.790355 0.887317 0.072044 180.000000
3.792085 0.875460 0.072035 203.000000
3.792802 0.863378 0.072017 206.000000
3.794458 0.851519 0.072007 219.000000
3.795099 0.839442 0.071989 194.000000
3.801565 0.828646 0.072026 214.000000
3.806045 0.817399 0.072044 253.000000
3.808535 0.805718 0.072044 253.000000
3.810989 0.794030 0.072044 270.000000
3.811448 0.781933 0.072026 225.000000
3.813829 0.770236 0.072026 247.000000
3.815193 0.758337 0.072017 189.000000
3.814558 0.746053 0.071989 154.000000
3.810937 0.733213 0.071933 128.000000
3.815134 0.721890 0.071952 86.000000
3.820279 0.710730 0.071980 99.000000
3.822442 0.699006 0.071980 80.000000
3.819647 0.686392 0.071933 58.000000
3.837558 0.616920 0.071989 52.000000
3.842396 0.605611 0.072017 49.000000
3.844236 0.593820 0.072017 48.000000
3.846040 0.582023 0.072017 36.000000
3.849786 0.570513 0.072035 36.000000
3.846570 0.557983 0.071989 55.000000
3.848264 0.546179 0.071989 46.000000
3.849921 0.534370 0.071989 56.000000
3.851542 0.522556 0.071989 49.000000
3.853127 0.510737 0.071989 50.000000
3.860626 0.499683 0.072044 52.000000
3.865118 0.488212 0.072072 67.000000
3.870567 0.476841 0.072109 54.000000
3.874990 0.465321 0.072137 59.000000
3.878386 0.453663 0.072155 46.000000
3.882740 0.442101 0.072183 43.000000
3.884079 0.430187 0.072183 49.000000
3.891345 0.418910 0.072239 36.000000
3.887639 0.406450 0.072192 43.000000
3.896827 0.395328 0.072266 32.000000
3.690647 1.257309 0.023303 19.000000
3.705856 1.249819 0.023263 37.000000
3.707776 1.237810 0.023270 38.000000
3.710607 1.226115 0.023273 47.000000
3.711500 1.213791 0.023283 36.000000
3.715206 1.202399 0.023283 33.000000
3.716021 1.190079 0.023293 53.000000
3.718701 1.178371 0.023296 55.000000
3.718483 1.165759 0.023309 56.000000
3.721087 1.154049 0.023313 61.000000
3.721742 1.141747 0.023323 57.000000
3.723314 1.129742 0.023329 44.000000
3.723889 1.117450 0.023339 55.000000
3.729217 1.106590 0.023333 45.000000
3.729716 1.094298 0.023343 58.000000
3.729214 1.081735 0.023356 76.000000
3.730593 1.069737 0.023363 66.000000
3.731934 1.057740 0.023369 82.000000
3.731310 1.045206 0.023382 80.000000
3.737653 1.022291 0.023382 81.000000
3.745787 0.999855 0.023376 67.000000
3.748837 0.988358 0.023376 83.000000
3.752819 0.977104 0.023373 94.000000
3.755799 0.965586 0.023373 90.000000
3.762621 0.955045 0.023359 127.000000
3.771353 0.944956 0.023339 147.000000
3.774234 0.933382 0.023339 191.000000
3.776109 0.921561 0.023343 212.000000
3.782807 0.910909 0.023329 191.000000
3.785583 0.899299 0.023329 248.000000
3.791245 0.888366 0.023319 253.000000
3.795901 0.877182 0.023313 242.000000
3.796625 0.865087 0.023319 245.000000
3.797310 0.852996 0.023326 252.000000
3.798932 0.841126 0.023329 218.000000
3.803449 0.829894 0.023323 202.000000
3.805977 0.818221 0.023323 232.000000
3.809448 0.806748 0.023319 232.000000
3.809947 0.794648 0.023326 159.000000
3.810408 0.782553 0.023333 150.000000
3.810831 0.770462 0.023339 126.000000
3.806312 0.757399 0.023363 90.000000
3.811561 0.746295 0.023353 72.000000
3.816779 0.735166 0.023343 58.000000
3.819999 0.723639 0.023339 58.000000
3.825150 0.712466 0.023329 51.000000
3.828301 0.700908 0.023326 55.000000
3.831418 0.689337 0.023323 60.000000
3.835484 0.677928 0.023316 54.000000
3.837546 0.666157 0.023316 47.000000
3.839571 0.654381 0.023316 43.000000
3.842547 0.642763 0.023313 49.000000
3.844501 0.630972 0.023313 54.000000
3.846419 0.619174 0.023313 68.000000
3.847312 0.607214 0.023316 50.000000
3.847181 0.595102 0.023323 60.000000
3.849977 0.583446 0.023319 65.000000
3.851749 0.571632 0.023319 60.000000
3.850516 0.559380 0.023329 64.000000
3.853204 0.547705 0.023326 74.000000
3.853876 0.535743 0.023329 59.000000
3.855502 0.523917 0.023329 70.000000
3.860064 0.512482 0.023319 56.000000
3.863602 0.500894 0.023313 56.000000
3.868096 0.489416 0.023303 63.000000
3.875534 0.478283 0.023283 68.000000
3.878969 0.466631 0.023276 49.000000
3.884355 0.455195 0.023263 55.000000
3.888714 0.443616 0.023253 54.000000
3.889063 0.431573 0.023256 37.000000
3.891362 0.419747 0.023253 41.000000
3.916500 0.410315 0.023174 14.000000
3.698648 1.222723 -0.024767 30.000000
3.702382 1.211370 -0.024767 35.000000
3.705130 1.199697 -0.024752 31.000000
3.706889 1.187714 -0.024720 42.000000
3.710515 1.176336 -0.024720 59.000000
3.714106 1.164947 -0.024720 56.000000
3.718618 1.153843 -0.024736 48.000000
3.722141 1.142429 -0.024736 46.000000
3.723715 1.130423 -0.024705 54.000000
3.728122 1.119281 -0.024720 51.000000
3.732497 1.108123 -0.024736 54.000000
3.737798 1.097230 -0.024767 69.000000
3.739227 1.085200 -0.024736 57.000000
3.742538 1.073723 -0.024736 51.000000
3.746777 1.062509 -0.024752 59.000000
3.750982 1.051278 -0.024767 74.000000
3.752262 1.039232 -0.024736 67.000000
3.754468 1.027452 -0.024720 76.000000
3.757603 1.015928 -0.024720 85.000000
3.759736 1.004137 -0.024705 97.000000
3.757965 0.991323 -0.024626 107.000000
3.758085 0.979033 -0.024579 98.000000
3.760103 0.967250 -0.024563 112.000000
3.761115 0.955218 -0.024532 99.000000
3.765967 0.944160 -0.024563 96.000000
3.770787 0.933082 -0.024595 95.000000
3.775575 0.921983 -0.024626 108.000000
3.776442 0.909928 -0.024595 93.000000
3.783107 0.899262 -0.024657 113.000000
3.777086 0.885598 -0.024516 92.000000
3.783682 0.874906 -0.024579 105.000000
3.797072 0.865738 -0.024752 130.000000
3.803613 0.854961 -0.024815 134.000000
3.815004 0.845234 -0.024956 156.000000
3.809764 0.831820 -0.024830 138.000000
3.806433 0.818867 -0.024736 127.000000
3.805014 0.806356 -0.024673 99.000000
3.804534 0.794066 -0.024626 85.000000
3.806952 0.782390 -0.024626 66.000000
3.810315 0.770905 -0.024642 66.000000
3.814623 0.759602 -0.024673 65.000000
3.818898 0.748280 -0.024705 62.000000
3.822158 0.736749 -0.024720 59.000000
3.824400 0.725019 -0.024720 55.000000
3.828572 0.713649 -0.024752 61.000000
3.828777 0.701540 -0.024720 48.000000
3.825990 0.688904 -0.024642 39.000000
3.833148 0.629650 -0.024595 54.000000
3.832100 0.617410 -0.024548 47.000000
3.835951 0.605962 -0.024579 54.000000
3.837792 0.594191 -0.024579 47.000000
3.838609 0.582264 -0.024563 35.000000
3.849278 0.571806 -0.024705 66.000000
3.855962 0.560713 -0.024783 67.000000
3.863604 0.549725 -0.024877 63.000000
3.870223 0.538557 -0.024956 42.000000
3.869876 0.526412 -0.024925 63.000000
3.872464 0.514668 -0.024940 54.000000
3.874025 0.502785 -0.024940 58.000000
3.873565 0.490647 -0.024909 42.000000
3.878029 0.479128 -0.024956 52.000000
3.881466 0.467467 -0.024987 54.000000
3.882882 0.455557 -0.024987 46.000000
3.885255 0.443755 -0.025003 42.000000
3.890573 0.432275 -0.025066 53.000000
3.890887 0.420229 -0.025050 53.000000
3.936908 0.412980 -0.025757 16.000000
3.694969 1.220942 -0.071401 31.000000
3.702497 1.210844 -0.071512 36.000000
3.708096 1.200096 -0.071568 49.000000
3.714617 1.189629 -0.071651 44.000000
3.721107 1.179134 -0.071734 56.000000
3.725661 1.168012 -0.071762 43.000000
3.728272 1.156280 -0.071734 52.000000
3.730847 1.144542 -0.071706 42.000000
3.728601 1.131348 -0.071540 47.000000
3.730140 1.119328 -0.071484 55.000000
3.730682 1.107025 -0.071401 46.000000
3.734061 1.095574 -0.071401 43.000000
3.734524 1.083277 -0.071318 40.000000
3.740713 1.072642 -0.071401 55.000000
3.744948 1.061433 -0.071429 49.000000
3.763686 1.004638 -0.071512 55.000000
3.763851 0.992321 -0.071429 61.000000
3.763976 0.980013 -0.071346 50.000000
3.767933 0.968710 -0.071373 67.000000
3.768949 0.956653 -0.071318 73.000000
3.770897 0.944842 -0.071290 71.000000
3.771837 0.932788 -0.071235 88.000000
3.773710 0.920975 -0.071207 66.000000
3.779433 0.910096 -0.071290 93.000000
3.781235 0.898265 -0.071262 65.000000
3.782027 0.886203 -0.071207 83.000000
3.782780 0.874145 -0.071151 80.000000
3.784469 0.862314 -0.071124 93.000000
3.786122 0.850479 -0.071096 77.000000
3.787737 0.838643 -0.071068 68.000000
3.790293 0.827019 -0.071068 89.000000
3.793789 0.815597 -0.071096 62.000000
3.795295 0.803746 -0.071068 78.000000
3.798722 0.792303 -0.071096 82.000000
3.804072 0.781249 -0.071179 73.000000
3.808411 0.769972 -0.071235 58.000000
3.810755 0.758284 -0.071235 48.000000
3.815025 0.746974 -0.071290 46.000000
3.818280 0.735456 -0.071318 48.000000
3.823466 0.724297 -0.071401 41.000000
3.828618 0.713113 -0.071484 29.000000
3.830787 0.701364 -0.071484 31.000000
3.832921 0.689608 -0.071484 48.000000
3.837972 0.678368 -0.071568 37.000000
3.838065 0.666248 -0.071512 43.000000
3.836149 0.653797 -0.071401 53.000000
3.835180 0.641529 -0.071318 55.000000
3.831211 0.628786 -0.071151 48.000000
3.831149 0.616711 -0.071096 49.000000
3.834010 0.605111 -0.071124 54.000000
3.835849 0.593345 -0.071124 60.000000
3.840616 0.582024 -0.071207 45.000000
3.849305 0.571268 -0.071401 58.000000
3.856974 0.560320 -0.071568 70.000000
3.863623 0.549189 -0.071706 46.000000
3.868260 0.537747 -0.071790 52.000000
3.870882 0.526012 -0.071817 63.000000
3.876441 0.514661 -0.071928 61.000000
3.879984 0.503023 -0.071984 52.000000
3.881510 0.491117 -0.071984 49.000000
3.882998 0.479207 -0.071984 55.000000
3.884450 0.467292 -0.071984 56.000000
3.885865 0.455372 -0.071984 54.000000
3.887244 0.443448 -0.071984 46.000000
3.886599 0.431299 -0.071928 52.000000
3.889892 0.419588 -0.071984 48.000000
3.896131 0.408174 -0.072123 28.000000
3.701801 1.223765 -0.120458 52.000000
3.705538 1.212402 -0.120458 52.000000
3.709241 1.201028 -0.120458 53.000000
3.712908 1.189642 -0.120458 34.000000
3.720350 1.179453 -0.120619 49.000000
3.725858 1.168631 -0.120699 54.000000
3.730380 1.157491 -0.120740 52.000000
3.737734 1.147214 -0.120901 54.000000
3.739324 1.135161 -0.120820 54.000000
3.740875 1.123109 -0.120740 51.000000
3.740472 1.110489 -0.120579 55.000000
3.738109 1.097321 -0.120337 52.000000
3.738579 1.085012 -0.120216 41.000000
3.739008 1.072711 -0.120095 47.000000
3.741320 1.060962 -0.120055 40.000000
3.745520 1.049748 -0.120095 49.000000
3.749686 1.038519 -0.120135 43.000000
3.754782 1.027537 -0.120216 60.000000
3.757916 1.016013 -0.120216 65.000000
3.761016 1.004479 -0.120216 52.000000
3.764080 0.992936 -0.120216 65.000000
3.764208 0.980628 -0.120095 65.000000
3.767199 0.969075 -0.120095 52.000000
3.772091 0.958004 -0.120176 50.000000
3.775981 0.946670 -0.120216 58.000000
3.778868 0.935081 -0.120216 54.000000
3.781719 0.923483 -0.120216 49.000000
3.784534 0.911877 -0.120216 61.000000
3.786342 0.900031 -0.120176 54.000000
3.787140 0.887954 -0.120095 62.000000
3.785952 0.875431 -0.119934 74.000000
3.786672 0.863368 -0.119853 69.000000
3.789303 0.851746 -0.119853 68.000000
3.791898 0.840117 -0.119853 77.000000
3.794457 0.828480 -0.119853 68.000000
3.796981 0.816835 -0.119853 75.000000
3.799469 0.805182 -0.119853 67.000000
3.803878 0.793929 -0.119934 68.000000
3.805317 0.782054 -0.119893 58.000000
3.805740 0.769980 -0.119813 55.000000
3.809064 0.758496 -0.119853 51.000000
3.811373 0.746806 -0.119853 47.000000
3.813647 0.735109 -0.119853 49.000000
3.818829 0.723964 -0.119974 53.000000
3.825944 0.713159 -0.120176 52.000000
3.831062 0.701958 -0.120296 51.000000
3.838115 0.691086 -0.120498 45.000000
3.847278 0.631969 -0.120458 58.000000
3.849199 0.620163 -0.120458 51.000000
3.850096 0.608195 -0.120417 54.000000
3.852931 0.596533 -0.120458 54.000000
3.854743 0.584710 -0.120458 36.000000
3.857507 0.573028 -0.120498 66.000000
3.858259 0.561047 -0.120458 37.000000
3.856994 0.548785 -0.120337 43.000000
3.857670 0.536812 -0.120296 60.000000
3.860289 0.525109 -0.120337 46.000000
3.863863 0.513526 -0.120417 47.000000
3.866410 0.501798 -0.120458 46.000000
3.864958 0.489557 -0.120337 38.000000
3.872392 0.478432 -0.120579 62.000000
3.876817 0.466908 -0.120699 60.000000
3.878232 0.455011 -0.120699 52.000000
3.882587 0.443451 -0.120820 46.000000
3.883930 0.431537 -0.120820 47.000000
3.885236 0.419619 -0.120820 33.000000
3.889486 0.408010 -0.120941 29.000000
3.699351 1.220965 -0.167155 34.000000
3.701181 1.208989 -0.167051 43.000000
3.705823 1.197936 -0.167103 46.000000
3.710432 1.186866 -0.167155 52.000000
3.715008 1.175778 -0.167208 46.000000
3.717644 1.164076 -0.167155 35.000000
3.723106 1.153257 -0.167260 62.000000
3.727582 1.142122 -0.167312 51.000000
3.733935 1.131550 -0.167469 51.000000
3.736432 1.119802 -0.167417 63.000000
3.738893 1.108050 -0.167365 46.000000
3.737483 1.095168 -0.167103 36.000000
3.745621 1.085088 -0.167365 43.000000
3.747013 1.073041 -0.167260 66.000000
3.748366 1.060995 -0.167155 36.000000
3.763234 1.003116 -0.167103 45.000000
3.765328 0.991311 -0.167051 43.000000
3.766419 0.979252 -0.166946 55.000000
3.768439 0.967443 -0.166894 56.000000
3.766549 0.954649 -0.166632 46.000000
3.770429 0.943332 -0.166684 55.000000
3.774275 0.931999 -0.166737 76.000000
3.775176 0.919942 -0.166632 52.000000
3.777981 0.908356 -0.166632 53.000000
3.780750 0.896761 -0.166632 53.000000
3.781538 0.884702 -0.166527 55.000000
3.785208 0.873321 -0.166580 57.000000
3.787869 0.861704 -0.166580 45.000000
3.790495 0.850079 -0.166580 58.000000
3.796010 0.839093 -0.166737 53.000000
3.800518 0.827869 -0.166841 43.000000
3.803041 0.816205 -0.166841 60.000000
3.804550 0.804327 -0.166789 58.000000
3.806022 0.792447 -0.166737 60.000000
3.804522 0.779963 -0.166527 65.000000
3.804939 0.767892 -0.166423 74.000000
3.802380 0.755241 -0.166161 47.000000
3.800759 0.742804 -0.165952 44.000000
3.803020 0.731140 -0.165952 44.000000
3.807208 0.719841 -0.166056 44.000000
3.810380 0.708340 -0.166109 45.000000
3.815482 0.697186 -0.166266 37.000000
3.820552 0.686007 -0.166423 51.000000
3.823622 0.674457 -0.166475 41.000000
3.827641 0.663064 -0.166580 42.000000
3.832611 0.651821 -0.166737 48.000000
3.836562 0.640389 -0.166841 48.000000
3.841465 0.629101 -0.166998 48.000000
3.842391 0.617154 -0.166946 44.000000
3.846240 0.605674 -0.167051 44.000000
3.852027 0.594481 -0.167260 37.000000
3.855807 0.582960 -0.167365 42.000000
3.855602 0.570835 -0.167260 58.000000
3.856347 0.558860 -0.167208 45.000000
3.856066 0.546745 -0.167103 45.000000
3.859703 0.535187 -0.167208 44.000000
3.864296 0.523746 -0.167365 52.000000
3.866875 0.512020 -0.167417 45.000000
3.866446 0.499897 -0.167312 39.000000
3.873907 0.488785 -0.167626 61.000000
3.879352 0.477386 -0.167836 52.000000
3.883773 0.465840 -0.167993 58.000000
3.887168 0.454155 -0.168097 51.000000
3.887550 0.442114 -0.168045 62.000000
3.890874 0.430405 -0.168150 62.000000
3.894162 0.418680 -0.168254 55.000000
3.890462 0.406211 -0.167993 24.000000
3.716017 1.228463 -0.216576 34.000000
3.713129 1.214885 -0.216123 38.000000
3.713042 1.202258 -0.215864 36.000000
3.713861 1.189948 -0.215670 36.000000
3.720348 1.179453 -0.215864 60.000000
3.719188 1.166540 -0.215541 45.000000
3.727515 1.156603 -0.215864 46.000000
3.731046 1.145161 -0.215864 62.000000
3.736452 1.134289 -0.215994 48.000000
3.736091 1.121673 -0.215735 39.000000
3.738558 1.109921 -0.215670 40.000000
3.740988 1.098166 -0.215605 59.000000
3.746256 1.087239 -0.215735 52.000000
3.750533 1.076016 -0.215800 51.000000
3.751897 1.063960 -0.215670 53.000000
3.752261 1.051637 -0.215476 54.000000
3.754508 1.039854 -0.215411 48.000000
3.755755 1.027804 -0.215282 48.000000
3.756964 1.015756 -0.215153 42.000000
3.759099 1.003967 -0.215088 45.000000
3.762161 0.992430 -0.215088 57.000000
3.763257 0.980380 -0.214958 63.000000
3.763347 0.968084 -0.214764 31.000000
3.768234 0.957025 -0.214894 50.000000
3.769216 0.944975 -0.214764 49.000000
3.771129 0.933167 -0.214700 40.000000
3.773974 0.921593 -0.214700 54.000000
3.778724 0.910477 -0.214829 60.000000
3.782470 0.899111 -0.214894 34.000000
3.784240 0.887274 -0.214829 55.000000
3.787916 0.875885 -0.214894 49.000000
3.790586 0.864260 -0.214894 54.000000
3.793219 0.852626 -0.214894 54.000000
3.795817 0.840985 -0.214894 60.000000
3.798379 0.829336 -0.214894 48.000000
3.803833 0.818308 -0.215088 51.000000
3.805349 0.806427 -0.215023 44.000000
3.807805 0.794749 -0.215023 50.000000
3.811203 0.783263 -0.215088 55.000000
3.815544 0.771963 -0.215217 54.000000
3.817895 0.760253 -0.215217 73.000000
3.821189 0.748728 -0.215282 61.000000
3.823468 0.737002 -0.215282 65.000000
3.822770 0.724710 -0.215088 55.000000
3.820070 0.712065 -0.214764 44.000000
3.822236 0.700342 -0.214764 50.000000
3.825349 0.688789 -0.214829 31.000000
3.848266 0.632132 -0.215670 56.000000
3.849202 0.620164 -0.215605 39.000000
3.850101 0.608196 -0.215541 48.000000
3.853921 0.596686 -0.215670 52.000000
3.854747 0.584710 -0.215605 49.000000
3.856523 0.572881 -0.215605 48.000000
3.858262 0.561047 -0.215605 45.000000
3.861941 0.549488 -0.215735 38.000000
3.865585 0.537912 -0.215864 54.000000
3.872161 0.526722 -0.216188 53.000000
3.876727 0.515234 -0.216382 57.000000
3.883237 0.503980 -0.216705 65.000000
3.885755 0.492189 -0.216770 43.000000
3.890218 0.480633 -0.216964 64.000000
3.890684 0.468576 -0.216900 50.000000
3.889130 0.456289 -0.216705 52.000000
3.889520 0.444242 -0.216641 40.000000
3.888881 0.432087 -0.216511 63.000000
3.890188 0.420154 -0.216511 44.000000
3.889474 0.408009 -0.216382 38.000000
3.714412 1.225941 -0.262896 37.000000
3.713417 1.212990 -0.262513 39.000000
3.719018 1.202206 -0.262667 30.000000
3.722689 1.190790 -0.262667 27.000000
3.721572 1.177858 -0.262284 53.000000
3.723266 1.165838 -0.262131 49.000000
3.725873 1.154115 -0.262054 43.000000
3.726536 1.141801 -0.261825 36.000000
3.730021 1.130363 -0.261825 43.000000
3.729652 1.117768 -0.261518 41.000000
3.730196 1.105470 -0.261289 29.000000
3.731656 1.093459 -0.261136 36.000000
3.733078 1.081450 -0.260983 41.000000
3.734462 1.069442 -0.260829 33.000000
3.737725 1.057980 -0.260829 32.000000
3.786454 0.996880 -0.263202 37.000000
3.788529 0.985007 -0.263126 31.000000
3.794431 0.974124 -0.263355 37.000000
3.798368 0.962724 -0.263432 39.000000
3.811943 0.953731 -0.264274 29.000000
3.817754 0.942750 -0.264504 37.000000
3.823535 0.931742 -0.264733 35.000000
3.829283 0.920707 -0.264963 45.000000
3.829180 0.908263 -0.264733 52.000000
3.840685 0.898558 -0.265422 38.000000
3.843424 0.886771 -0.265422 34.000000
3.830572 0.871432 -0.264197 41.000000
3.854990 0.839752 -0.265499 37.000000
3.847801 0.825826 -0.264733 37.000000
3.870800 0.818354 -0.266341 38.000000
3.852796 0.802201 -0.264733 34.000000
3.843518 0.787970 -0.263815 46.000000
3.853736 0.777755 -0.264427 35.000000
3.857082 0.766123 -0.264504 41.000000
3.853544 0.753137 -0.264044 42.000000
3.854857 0.741122 -0.263968 36.000000
3.873766 0.732446 -0.265269 30.000000
3.877956 0.720923 -0.265422 31.000000
3.882111 0.709381 -0.265575 36.000000
3.882306 0.697115 -0.265422 39.000000
3.887372 0.685721 -0.265652 35.000000
3.963136 0.686578 -0.271393 23.000000
3.887575 0.661186 -0.265346 35.000000
3.864017 0.644980 -0.263355 46.000000
3.870897 0.633930 -0.263738 46.000000
3.872823 0.622051 -0.263738 34.000000
3.857970 0.607525 -0.262437 51.000000
3.862772 0.596143 -0.262667 44.000000
3.864583 0.584289 -0.262667 47.000000
3.867344 0.572577 -0.262743 45.000000
3.871055 0.560996 -0.262896 55.000000
3.872758 0.549117 -0.262896 33.000000
3.871462 0.536821 -0.262667 52.000000
3.873091 0.524941 -0.262667 54.000000
3.873694 0.512925 -0.262590 37.000000
3.875250 0.501038 -0.262590 51.000000
3.876769 0.489147 -0.262590 58.000000
3.882210 0.477739 -0.262896 45.000000
3.884647 0.465945 -0.262973 49.000000
3.885068 0.453909 -0.262896 52.000000
3.885451 0.441875 -0.262820 48.000000
3.887780 0.430062 -0.262896 44.000000
3.887099 0.417919 -0.262743 50.000000
3.890345 0.406199 -0.262896 39.000000
4.114849 1.083898 -0.341431 25.000000
4.114299 1.070266 -0.341077 14.000000
4.109846 1.055657 -0.340367 24.000000
4.108237 1.041820 -0.339923 24.000000
4.117212 1.030662 -0.340456 37.000000
4.117454 1.017309 -0.340189 27.000000
4.119587 1.004436 -0.340101 24.000000
4.136208 0.995053 -0.341343 31.000000
4.146995 0.984198 -0.342052 41.000000
4.157753 0.973286 -0.342762 24.000000
4.173337 0.963437 -0.343916 33.000000
4.179187 0.951292 -0.344182 35.000000
4.182086 0.938466 -0.344182 30.000000
4.200506 0.929071 -0.345601 64.000000
4.188738 0.913000 -0.344271 29.000000
4.202232 0.902444 -0.345246 62.000000
4.185491 0.885426 -0.343472 34.000000
4.185263 0.871972 -0.343206 25.000000
4.195724 0.860728 -0.343916 30.000000
4.199321 0.848049 -0.344004 41.000000
4.198972 0.834579 -0.343738 86.000000
4.200535 0.821502 -0.343649 44.000000
4.203036 0.808611 -0.343649 36.000000
4.211370 0.796823 -0.344182 38.000000
4.214773 0.784081 -0.344271 36.000000
4.217159 0.771147 -0.344271 33.000000
4.224407 0.759085 -0.344714 25.000000
4.242410 0.748891 -0.346134 35.000000
4.260391 0.738592 -0.347553 27.000000
4.273438 0.727356 -0.348529 33.000000
4.285474 0.715882 -0.349416 26.000000
4.293548 0.703697 -0.349949 17.000000
4.307488 0.692417 -0.351013 18.000000
4.176200 1.100391 -0.401659 13.000000
4.175705 1.086570 -0.401254 17.000000
4.175165 1.072763 -0.400849 26.000000
4.172651 1.058479 -0.400242 36.000000
4.170089 1.044221 -0.399634 36.000000
4.179067 1.032856 -0.400242 26.000000
4.179317 1.019322 -0.399938 24.000000
4.181457 1.006263 -0.399837 38.000000
4.192268 0.995270 -0.400647 40.000000
4.204019 0.984447 -0.401558 23.000000
4.214774 0.973338 -0.402368 23.000000
4.224530 0.961950 -0.403076 43.000000
4.234256 0.950512 -0.403785 36.000000
4.244923 0.939239 -0.404595 36.000000
4.251672 0.927060 -0.405000 30.000000
4.259359 0.915058 -0.405506 30.000000
4.255334 0.900542 -0.404797 21.000000
4.266841 0.889312 -0.405708 17.000000
4.245188 0.871211 -0.403178 23.000000
4.233213 0.855224 -0.401659 41.000000
4.216303 0.838347 -0.399634 49.000000
4.212022 0.824068 -0.398926 25.000000
4.207692 0.809824 -0.398217 23.000000
4.210156 0.796911 -0.398217 26.000000
4.208670 0.783262 -0.397812 37.000000
4.213988 0.770884 -0.398116 39.000000
4.216333 0.757952 -0.398116 42.000000
4.229415 0.746919 -0.399230 33.000000
4.235607 0.734621 -0.399634 53.000000
4.243726 0.722627 -0.400242 39.000000
4.257697 0.711575 -0.401457 32.000000
4.263787 0.699154 -0.401862 35.000000
4.274752 0.687494 -0.402773 19.000000
4.194357 1.091863 -0.455069 23.000000
4.191913 1.077506 -0.454391 20.000000
4.192310 1.063908 -0.454052 30.000000
4.190735 1.049834 -0.453487 23.000000
4.185255 1.034826 -0.452470 27.000000
4.181653 1.020333 -0.451679 42.000000
4.188628 1.008429 -0.452131 32.000000
4.208137 0.999476 -0.454052 26.000000
4.212150 0.986787 -0.454165 38.000000
4.228712 0.976990 -0.455748 32.000000
4.243314 0.966659 -0.457104 32.000000
4.254985 0.955595 -0.458121 34.000000
4.272449 0.945756 -0.459817 25.000000
4.275330 0.932644 -0.459817 24.000000
4.272343 0.918271 -0.459139 15.000000
4.273196 0.904748 -0.458912 25.000000
4.263307 0.888998 -0.457443 23.000000
4.257254 0.874116 -0.456426 26.000000
4.248229 0.858690 -0.455069 41.000000
4.240123 0.843521 -0.453826 26.000000
4.234890 0.828982 -0.452922 33.000000
4.227657 0.814108 -0.451792 29.000000
4.222325 0.799655 -0.450887 32.000000
4.218897 0.785607 -0.450209 28.000000
4.218356 0.772124 -0.449870 26.000000
4.217771 0.758651 -0.449531 23.000000
4.225949 0.746744 -0.450209 50.000000
4.239968 0.735813 -0.451566 33.000000
4.247103 0.723636 -0.452131 38.000000
4.252243 0.711094 -0.452470 19.000000
4.260288 0.699009 -0.453148 19.000000
4.188656 1.076233 -0.508166 27.000000
4.192900 1.063621 -0.508292 13.000000
4.187481 1.048581 -0.507164 21.000000
4.188753 1.035253 -0.506913 28.000000
4.192873 1.022633 -0.507039 34.000000
4.198884 1.010461 -0.507415 34.000000
4.208721 0.999180 -0.508292 31.000000
4.223358 0.988981 -0.509796 27.000000
4.242805 0.979819 -0.511927 27.000000
4.255464 0.969003 -0.513180 23.000000
4.266160 0.957683 -0.514183 26.000000
4.278765 0.946736 -0.515436 29.000000
4.271404 0.876598 -0.512679 15.000000
4.269211 0.862506 -0.512052 26.000000
4.261134 0.847273 -0.510673 23.000000
4.253003 0.832098 -0.509295 27.000000
4.249691 0.817919 -0.508543 19.000000
4.238534 0.802291 -0.506788 21.000000
4.238049 0.788738 -0.506412 37.000000
4.239473 0.775553 -0.506287 28.000000
4.244762 0.763071 -0.506662 34.000000
4.255876 0.751599 -0.507791 24.000000
4.268914 0.740407 -0.509169 36.000000
4.283879 0.729475 -0.510799 27.000000
4.293925 0.717639 -0.511801 28.000000
4.224628 1.087479 -0.566953 20.000000
4.205864 1.068903 -0.563792 25.000000
4.202398 1.054308 -0.562830 26.000000
4.184460 1.036174 -0.559806 51.000000
4.190506 1.024037 -0.560219 36.000000
4.200368 1.012800 -0.561181 31.000000
4.212129 1.001971 -0.562418 26.000000
4.230612 0.992663 -0.564617 36.000000
4.252939 0.984143 -0.567366 25.000000
4.268492 0.973954 -0.569152 36.000000
4.284023 0.963679 -0.570939 29.000000
4.300498 0.953532 -0.572863 13.000000
4.279459 0.866549 -0.567503 19.000000
4.272383 0.851480 -0.566129 23.000000
4.263310 0.836083 -0.564479 22.000000
4.251267 0.820186 -0.562418 30.000000
4.242085 0.804924 -0.560768 24.000000
4.231876 0.789546 -0.558982 28.000000
4.231356 0.776023 -0.558569 22.000000
4.238591 0.763916 -0.559256 27.000000
4.251644 0.752807 -0.560768 28.000000
4.265644 0.741795 -0.562418 27.000000
4.264970 0.728205 -0.562005 42.000000
4.340452 0.727388 -0.572314 13.000000
4.228566 1.085715 -0.620137 15.000000
4.224209 1.070791 -0.618943 25.000000
4.215964 1.054943 -0.617153 19.000000
4.216301 1.041291 -0.616705 26.000000
4.222358 1.029054 -0.617153 32.000000
4.228379 1.016790 -0.617600 22.000000
4.243023 1.006554 -0.619391 36.000000
4.260532 0.996915 -0.621629 33.000000
4.276096 0.986733 -0.623568 31.000000
4.289708 0.976026 -0.625209 22.000000
4.271378 0.848541 -0.618496 12.000000
4.269109 0.834483 -0.617750 19.000000
4.264853 0.820073 -0.616705 24.000000
4.260548 0.805696 -0.615661 26.000000
4.252306 0.790630 -0.614020 40.000000
4.256658 0.777937 -0.614318 33.000000
4.265836 0.766099 -0.615363 26.000000
4.265245 0.752492 -0.614915 41.000000
4.290916 0.743460 -0.618496 23.000000
4.304874 0.732286 -0.620286 32.000000
4.324655 0.722010 -0.622971 11.000000
4.247375 1.106448 -0.677628 17.000000
4.249793 1.093166 -0.677467 25.000000
4.239735 1.076723 -0.675212 38.000000
4.244933 1.064191 -0.675534 40.000000
4.247219 1.050925 -0.675373 55.000000
4.254259 1.038826 -0.676017 57.000000
4.259345 1.026232 -0.676339 50.000000
4.265354 1.013844 -0.676823 50.000000
4.266522 1.000303 -0.676500 37.000000
4.278225 0.989209 -0.677950 31.000000
4.299523 0.980245 -0.681011 10.000000
4.297544 0.842017 -0.676017 28.000000
4.294292 0.827708 -0.675051 42.000000
4.286145 0.812508 -0.673279 51.000000
4.278915 0.797547 -0.671668 51.000000
4.269692 0.782283 -0.669735 31.000000
4.265273 0.767956 -0.668607 27.000000
4.265666 0.754523 -0.668285 25.000000
4.270877 0.741939 -0.668768 36.000000
4.268269 0.728004 -0.667963 43.000000
4.281189 0.716697 -0.669735 32.000000
4.280447 0.703079 -0.669252 12.000000
4.248730 1.104804 -0.731972 30.000000
4.241607 1.089067 -0.730069 44.000000
4.248746 1.077018 -0.730761 26.000000
4.251075 1.063738 -0.730588 34.000000
4.245714 1.048564 -0.729031 30.000000
4.251781 1.036234 -0.729550 38.000000
4.257813 1.023876 -0.730069 31.000000
4.261892 1.011036 -0.730242 27.000000
4.268810 0.998854 -0.730934 36.000000
4.275693 0.986640 -0.731626 31.000000
4.298867 0.978112 -0.735258 16.000000
4.312348 0.842947 -0.732664 17.000000
4.309112 0.828595 -0.731626 24.000000
4.300020 0.813172 -0.729550 19.000000
4.292812 0.798173 -0.727821 30.000000
4.281677 0.782516 -0.725399 32.000000
4.278241 0.768330 -0.724361 34.000000
4.272819 0.753830 -0.722978 44.000000
4.271230 0.740044 -0.722286 37.000000
4.270567 0.726440 -0.721767 37.000000
4.275690 0.713822 -0.722286 63.000000
4.257450 0.697353 -0.718654 15.000000
4.249194 1.105344 -0.784914 26.000000
4.238286 1.088636 -0.782147 36.000000
4.232079 1.073213 -0.780302 43.000000
4.235352 1.060224 -0.780302 51.000000
4.236676 1.046754 -0.779933 64.000000
4.242732 1.034449 -0.780487 48.000000
4.254486 1.023496 -0.782147 47.000000
4.269082 1.013161 -0.784361 44.000000
4.277912 1.001402 -0.785467 59.000000
4.292456 0.990925 -0.787681 41.000000
4.295476 0.977751 -0.787681 41.000000
4.308013 0.842512 -0.784729 46.000000
4.308648 0.828919 -0.784361 53.000000
4.305376 0.814601 -0.783254 46.000000
4.302057 0.800311 -0.782147 51.000000
4.302559 0.786755 -0.781778 28.000000
4.295279 0.771814 -0.779933 40.000000
4.288915 0.757096 -0.778273 54.000000
4.291218 0.743934 -0.778273 37.000000
4.290574 0.730270 -0.777720 48.000000
4.289886 0.716618 -0.777166 56.000000
4.292064 0.703454 -0.777166 22.000000
