ply
format ascii 1.0
element vertex 1153
property float x
property float y
property float z
property float intensity
end_header
4.225219 0.991743 0.554116 6.000000
4.277572 0.990209 0.560182 32.000000
4.284462 0.977966 0.560657 37.000000
4.288410 0.965035 0.560776 51.000000
4.284566 0.950367 0.559944 26.000000
4.295221 0.938916 0.560895 31.000000
4.299052 0.925943 0.561014 26.000000
4.310613 0.914607 0.562084 21.000000
4.321174 0.903004 0.563036 18.000000
4.322952 0.889543 0.562917 5.000000
4.328579 0.876868 0.563274 5.000000
4.291956 1.020953 0.508296 20.000000
4.274740 1.003013 0.506053 32.000000
4.269079 0.987877 0.505092 29.000000
4.263365 0.972785 0.504131 28.000000
4.263419 0.959046 0.503811 32.000000
4.259547 0.944456 0.503063 22.000000
4.233283 0.925018 0.499860 11.000000
4.271094 0.919557 0.503704 30.000000
4.289457 0.909748 0.505413 44.000000
4.303908 0.899023 0.506694 52.000000
4.306645 0.885814 0.506694 40.000000
4.400948 0.891138 0.516732 9.000000
4.249491 1.024218 0.451723 9.000000
4.229372 1.005643 0.449444 11.000000
4.242128 0.994939 0.450393 35.000000
4.226734 0.977652 0.448589 25.000000
4.222920 0.963129 0.447924 29.000000
4.239452 0.953229 0.449254 44.000000
4.242356 0.940218 0.449254 52.000000
4.258836 0.930176 0.450583 63.000000
4.260696 0.916896 0.450488 38.000000
4.282965 0.907954 0.452388 37.000000
4.294500 0.896643 0.453243 34.000000
4.322581 0.888683 0.455712 18.000000
4.348703 0.880163 0.457992 13.000000
4.375789 0.871685 0.460366 5.000000
4.190614 0.969727 0.390775 5.000000
4.201343 0.958639 0.391435 5.000000
4.238281 0.939742 0.394074 12.000000
4.255749 0.929925 0.395311 15.000000
4.266376 0.918541 0.395970 10.000000
4.287541 0.895605 0.397290 6.000000
4.290268 0.882447 0.397290 5.000000
3.775393 0.994666 0.311498 22.000000
3.780357 0.983582 0.311639 19.000000
3.795916 0.975209 0.312557 24.000000
3.804691 0.965032 0.312981 33.000000
3.805699 0.952870 0.312840 31.000000
3.828938 0.946221 0.314323 22.000000
3.804690 0.927844 0.312345 29.000000
3.813338 0.917569 0.312769 35.000000
3.824869 0.907942 0.313405 33.000000
3.837348 0.898480 0.314111 37.000000
3.851749 0.889400 0.314958 32.000000
3.848624 0.876248 0.314535 37.000000
3.858107 0.865968 0.315029 40.000000
3.844189 0.850459 0.313828 43.000000
3.852628 0.839938 0.314252 39.000000
3.859087 0.828954 0.314535 36.000000
3.860636 0.816903 0.314464 30.000000
3.843595 0.800979 0.313051 31.000000
3.856782 0.791392 0.313828 38.000000
3.862125 0.780150 0.314040 32.000000
3.855696 0.766544 0.313405 31.000000
3.858029 0.754711 0.313405 35.000000
3.854450 0.741739 0.312981 39.000000
3.908650 0.739756 0.316724 19.000000
3.852064 0.716795 0.312486 31.000000
3.853264 0.704794 0.312416 35.000000
3.848536 0.691731 0.311921 40.000000
3.854569 0.680616 0.312204 38.000000
3.858605 0.669129 0.312345 47.000000
3.857689 0.656784 0.312133 30.000000
3.862638 0.645440 0.312345 41.000000
3.867553 0.634072 0.312557 41.000000
3.868495 0.622045 0.312486 44.000000
3.870385 0.610173 0.312486 43.000000
3.869282 0.597838 0.312275 36.000000
3.870111 0.585815 0.312204 36.000000
3.869917 0.573646 0.312063 55.000000
3.869685 0.561483 0.311921 55.000000
3.868427 0.549187 0.311710 66.000000
3.871081 0.537454 0.311780 48.000000
3.872712 0.525575 0.311780 41.000000
3.873317 0.513560 0.311710 57.000000
3.880810 0.502445 0.312133 43.000000
3.882333 0.490536 0.312133 63.000000
3.883820 0.478623 0.312133 55.000000
3.888241 0.467063 0.312345 59.000000
3.892628 0.455481 0.312557 63.000000
3.897971 0.443989 0.312840 47.000000
3.900306 0.432138 0.312910 66.000000
3.906572 0.420706 0.313263 31.000000
3.705217 1.237516 0.262555 48.000000
3.708996 1.226142 0.262555 41.000000
3.711792 1.214447 0.262497 53.000000
3.719299 1.204284 0.262730 32.000000
3.723927 1.193172 0.262788 28.000000
3.727571 1.181741 0.262788 52.000000
3.727368 1.169105 0.262555 41.000000
3.729030 1.157073 0.262439 45.000000
3.735426 1.146505 0.262613 37.000000
3.738925 1.135040 0.262613 37.000000
3.741434 1.123276 0.262555 44.000000
3.743906 1.111509 0.262497 58.000000
3.745382 1.099455 0.262381 63.000000
3.746820 1.087403 0.262265 41.000000
3.747260 1.075077 0.262091 57.000000
3.744777 1.061942 0.261742 41.000000
3.746095 1.049909 0.261626 48.000000
3.751223 1.038944 0.261742 56.000000
3.757282 1.028221 0.261916 58.000000
3.764273 1.017731 0.262149 66.000000
3.772201 1.007465 0.262439 59.000000
3.777204 0.996396 0.262555 64.000000
3.781209 0.985055 0.262613 71.000000
3.781313 0.972704 0.262439 53.000000
3.783312 0.960853 0.262381 59.000000
3.798701 0.915289 0.262613 78.000000
3.795663 0.902245 0.262265 101.000000
3.798413 0.890596 0.262265 130.000000
3.806964 0.880287 0.262613 78.000000
3.805753 0.867716 0.262381 69.000000
3.808397 0.856036 0.262381 43.000000
3.808082 0.843701 0.262207 65.000000
3.810652 0.832014 0.262207 66.000000
3.814163 0.820529 0.262265 53.000000
3.815686 0.808616 0.262207 69.000000
3.822057 0.797722 0.262439 60.000000
3.823509 0.785791 0.262381 60.000000
3.822966 0.773464 0.262207 35.000000
3.828943 0.738056 0.262149 65.000000
3.833151 0.726677 0.262265 47.000000
3.834381 0.714731 0.262207 54.000000
3.838520 0.703324 0.262323 54.000000
3.841642 0.691721 0.262381 53.000000
3.845712 0.680279 0.262497 46.000000
3.849748 0.668819 0.262613 59.000000
3.854734 0.657508 0.262788 50.000000
3.857718 0.645844 0.262846 54.000000
3.861651 0.634329 0.262962 42.000000
3.866536 0.622955 0.263136 56.000000
3.868429 0.611089 0.263136 47.000000
3.868312 0.598913 0.263020 61.000000
3.868158 0.586743 0.262904 55.000000
3.871914 0.575166 0.263020 58.000000
3.873661 0.563285 0.263020 66.000000
3.876359 0.551538 0.263078 49.000000
3.883966 0.540468 0.263427 53.000000
3.895498 0.529895 0.264008 83.000000
3.892157 0.517284 0.263717 50.000000
3.898676 0.505982 0.264008 46.000000
3.902191 0.494270 0.264124 39.000000
3.901707 0.482051 0.264008 66.000000
3.905150 0.470317 0.264124 49.000000
3.907566 0.458450 0.264182 57.000000
3.909946 0.446573 0.264240 54.000000
3.909313 0.434355 0.264124 35.000000
3.916583 0.423002 0.264472 23.000000
3.697645 1.232995 0.215857 25.000000
3.701410 1.221645 0.215857 54.000000
3.704191 1.209973 0.215811 42.000000
3.708836 1.198911 0.215857 39.000000
3.712497 1.187527 0.215857 63.000000
3.716123 1.176131 0.215857 55.000000
3.719714 1.164725 0.215857 47.000000
3.723270 1.153308 0.215857 61.000000
3.726790 1.141879 0.215857 53.000000
3.730438 1.105542 0.215534 64.000000
3.731896 1.093529 0.215441 55.000000
3.735233 1.082075 0.215441 40.000000
3.741416 1.071436 0.215580 36.000000
3.744685 1.059952 0.215580 52.000000
3.750806 1.049267 0.215718 55.000000
3.756895 1.038554 0.215857 52.000000
3.760064 1.027023 0.215857 52.000000
3.763197 1.015483 0.215857 61.000000
3.767260 1.004190 0.215903 67.000000
3.768391 0.992119 0.215811 42.000000
3.769484 0.980049 0.215718 58.000000
3.772473 0.968480 0.215718 42.000000
3.775426 0.956902 0.215718 54.000000
3.779313 0.945557 0.215765 50.000000
3.781226 0.933718 0.215718 62.000000
3.783103 0.921876 0.215672 63.000000
3.787856 0.910733 0.215765 50.000000
3.789660 0.898877 0.215718 56.000000
3.790455 0.886791 0.215626 52.000000
3.791211 0.874708 0.215534 74.000000
3.796798 0.863738 0.215672 52.000000
3.801380 0.852523 0.215765 49.000000
3.800076 0.839993 0.215580 44.000000
3.801659 0.828118 0.215534 50.000000
3.802229 0.816031 0.215441 37.000000
3.805692 0.804569 0.215487 50.000000
3.806186 0.792482 0.215395 39.000000
3.812514 0.781604 0.215580 52.000000
3.817831 0.770498 0.215718 56.000000
3.825076 0.759756 0.215950 41.000000
3.830330 0.748593 0.216088 55.000000
3.835552 0.737405 0.216227 35.000000
3.838777 0.725820 0.216273 44.000000
3.840986 0.714039 0.216273 44.000000
3.840210 0.701712 0.216135 47.000000
3.840379 0.689574 0.216042 50.000000
3.838542 0.677093 0.215857 40.000000
3.841585 0.665484 0.215903 54.000000
3.843609 0.653695 0.215903 57.000000
3.846581 0.642065 0.215950 54.000000
3.849519 0.630422 0.215996 58.000000
3.855380 0.619244 0.216181 40.000000
3.859235 0.607724 0.216273 58.000000
3.862068 0.596034 0.216320 54.000000
3.866842 0.584632 0.216458 50.000000
3.870593 0.573059 0.216551 66.000000
3.874310 0.561468 0.216643 64.000000
3.877993 0.549861 0.216736 63.000000
3.881640 0.538235 0.216828 58.000000
3.886243 0.526728 0.216967 76.000000
3.889821 0.515065 0.217059 74.000000
3.892374 0.503257 0.217106 71.000000
3.893899 0.491313 0.217106 72.000000
3.895388 0.479365 0.217106 63.000000
3.898824 0.467650 0.217198 67.000000
3.902225 0.455919 0.217290 54.000000
3.903605 0.443945 0.217290 49.000000
3.906934 0.432187 0.217383 72.000000
3.908242 0.420199 0.217383 28.000000
3.696283 1.233818 0.167637 35.000000
3.700050 1.222473 0.167637 35.000000
3.709483 1.212978 0.167841 46.000000
3.713187 1.201592 0.167841 47.000000
3.719712 1.191109 0.167942 51.000000
3.725254 1.180295 0.168010 66.000000
3.722182 1.166768 0.167773 40.000000
3.725744 1.155343 0.167773 52.000000
3.727360 1.143322 0.167705 44.000000
3.724155 1.129850 0.167468 49.000000
3.725689 1.117845 0.167400 49.000000
3.724310 1.104989 0.167231 50.000000
3.725765 1.092995 0.167164 52.000000
3.731020 1.082116 0.167231 57.000000
3.735283 1.070940 0.167265 50.000000
3.741436 1.060292 0.167367 49.000000
3.748521 1.049886 0.167502 60.000000
3.755577 1.039447 0.167637 71.000000
3.761641 1.028711 0.167739 64.000000
3.765744 1.017426 0.167773 55.000000
3.767882 1.005611 0.167739 68.000000
3.769017 0.993537 0.167671 57.000000
3.772047 0.981969 0.167671 75.000000
3.773106 0.969894 0.167604 60.000000
3.776064 0.958314 0.167604 55.000000
3.790455 0.912605 0.167705 54.000000
3.791292 0.900510 0.167637 83.000000
3.795010 0.889103 0.167671 64.000000
3.796746 0.877231 0.167637 55.000000
3.798445 0.865356 0.167604 61.000000
3.804982 0.854574 0.167739 81.000000
3.807586 0.842897 0.167739 54.000000
3.807225 0.830573 0.167637 49.000000
3.810732 0.819098 0.167671 56.000000
3.814205 0.807610 0.167705 51.000000
3.817643 0.796108 0.167739 52.000000
3.823005 0.784995 0.167841 57.000000
3.823436 0.772867 0.167773 49.000000
3.839220 0.739344 0.168078 51.000000
3.841470 0.727562 0.168078 48.000000
3.842701 0.715590 0.168044 59.000000
3.838980 0.702719 0.167841 38.000000
3.844069 0.691468 0.167942 49.000000
3.845188 0.679497 0.167908 41.000000
3.848240 0.667868 0.167942 49.000000
3.853226 0.656562 0.168044 51.000000
3.855222 0.644738 0.168044 65.000000
3.858169 0.633069 0.168078 58.000000
3.860093 0.621229 0.168078 52.000000
3.860993 0.609228 0.168044 52.000000
3.860869 0.597074 0.167976 61.000000
3.865647 0.585675 0.168078 49.000000
3.868414 0.573959 0.168111 56.000000
3.872135 0.562376 0.168179 54.000000
3.875821 0.550775 0.168247 61.000000
3.880462 0.539294 0.168348 62.000000
3.883089 0.527520 0.168382 50.000000
3.886670 0.515868 0.168450 56.000000
3.887243 0.503813 0.168416 68.000000
3.889762 0.492010 0.168450 55.000000
3.887286 0.479585 0.168315 54.000000
3.892708 0.468133 0.168450 52.000000
3.896111 0.456421 0.168518 46.000000
3.895507 0.444239 0.168450 43.000000
3.903805 0.433057 0.168687 47.000000
3.913065 0.421934 0.168958 28.000000
3.657633 1.246052 0.119478 26.000000
3.667122 1.236743 0.119608 27.000000
3.705035 1.236894 0.120387 56.000000
3.709762 1.225835 0.120409 45.000000
3.713505 1.214448 0.120409 53.000000
3.720067 1.203974 0.120474 49.000000
3.722791 1.192250 0.120452 61.000000
3.722620 1.179614 0.120365 62.000000
3.722405 1.166990 0.120279 62.000000
3.720239 1.153785 0.120149 68.000000
3.720894 1.141486 0.120084 66.000000
3.728368 1.106337 0.120019 54.000000
3.732703 1.095176 0.120041 64.000000
3.737006 1.083997 0.120062 67.000000
3.741275 1.072803 0.120084 45.000000
3.744549 1.061320 0.120084 53.000000
3.747787 1.049827 0.120084 58.000000
3.750990 1.038324 0.120084 57.000000
3.753194 1.026547 0.120062 60.000000
3.754395 1.014506 0.120019 65.000000
3.754593 1.002208 0.119954 64.000000
3.757650 0.990684 0.119954 74.000000
3.760671 0.979151 0.119954 93.000000
3.765594 0.968108 0.119997 74.000000
3.772423 0.957536 0.120084 80.000000
3.777282 0.946444 0.120127 77.000000
3.781138 0.935091 0.120149 78.000000
3.783018 0.923249 0.120127 73.000000
3.784861 0.911404 0.120106 63.000000
3.786666 0.899557 0.120084 95.000000
3.790382 0.888164 0.120106 76.000000
3.795037 0.876982 0.120149 90.000000
3.799659 0.865779 0.120192 65.000000
3.804248 0.854557 0.120235 81.000000
3.805876 0.842665 0.120214 52.000000
3.810396 0.831412 0.120257 73.000000
3.813907 0.819928 0.120279 61.000000
3.816404 0.808223 0.120279 49.000000
3.819845 0.796715 0.120300 51.000000
3.822271 0.784993 0.120300 41.000000
3.823681 0.773064 0.120279 45.000000
3.826035 0.761329 0.120279 46.000000
3.826391 0.749203 0.120235 56.000000
3.828671 0.737460 0.120235 50.000000
3.828951 0.725338 0.120192 34.000000
3.834107 0.714137 0.120257 42.000000
3.837263 0.702551 0.120279 45.000000
3.837433 0.690421 0.120235 42.000000
3.839533 0.678645 0.120235 56.000000
3.843566 0.667204 0.120279 50.000000
3.846581 0.655578 0.120300 54.000000
3.849560 0.643939 0.120322 49.000000
3.857437 0.633099 0.120452 69.000000
3.858374 0.621102 0.120430 55.000000
3.865199 0.610043 0.120538 65.000000
3.863101 0.597569 0.120452 73.000000
3.864915 0.585714 0.120452 56.000000
3.866694 0.573854 0.120452 73.000000
3.873383 0.562709 0.120560 56.000000
3.875091 0.550823 0.120560 62.000000
3.879734 0.539345 0.120625 63.000000
3.883351 0.527710 0.120668 45.000000
3.881979 0.515398 0.120603 67.000000
3.883542 0.503486 0.120603 58.000000
3.882093 0.491191 0.120538 60.000000
3.883581 0.479279 0.120538 43.000000
3.885034 0.467362 0.120538 61.000000
3.886449 0.455441 0.120538 67.000000
3.889815 0.443742 0.120582 71.000000
3.899107 0.432691 0.120755 62.000000
3.905386 0.421264 0.120863 47.000000
3.909643 0.409594 0.120928 53.000000
3.913865 0.397902 0.120993 55.000000
3.924021 0.386778 0.121188 16.000000
3.699330 1.259397 0.072183 47.000000
3.703177 1.248042 0.072183 47.000000
3.704142 1.235726 0.072155 50.000000
3.705067 1.223415 0.072128 42.000000
3.707853 1.211732 0.072118 54.000000
3.707747 1.199120 0.072081 54.000000
3.707599 1.186521 0.072044 50.000000
3.708362 1.174235 0.072017 57.000000
3.710992 1.162554 0.072007 69.000000
3.713586 1.150867 0.071998 52.000000
3.717100 1.139469 0.071998 55.000000
3.718664 1.127479 0.071980 55.000000
3.721148 1.115778 0.071970 69.000000
3.726471 1.104925 0.071989 52.000000
3.731762 1.094049 0.072007 56.000000
3.736062 1.082874 0.072017 68.000000
3.740328 1.071682 0.072026 65.000000
3.743598 1.060202 0.072026 71.000000
3.747796 1.048981 0.072035 79.000000
3.751960 1.037744 0.072044 95.000000
3.748374 1.024384 0.071980 68.000000
3.749568 1.012358 0.071961 87.000000
3.749758 1.000077 0.071933 83.000000
3.752809 0.988568 0.071933 82.000000
3.758727 0.977805 0.071961 102.000000
3.757835 0.965274 0.071924 69.000000
3.764656 0.954724 0.071961 76.000000
3.774144 0.907986 0.071943 99.000000
3.778858 0.896865 0.071961 106.000000
3.781592 0.885267 0.071961 89.000000
3.785264 0.873886 0.071970 86.000000
3.788902 0.862491 0.071980 86.000000
3.789579 0.850425 0.071961 83.000000
3.789241 0.838147 0.071933 107.000000
3.796680 0.827582 0.071980 93.000000
3.800179 0.816140 0.071989 71.000000
3.805600 0.805098 0.072017 71.000000
3.810989 0.794030 0.072044 63.000000
3.815366 0.782736 0.072063 61.000000
3.818730 0.771225 0.072072 63.000000
3.825666 0.736046 0.072072 63.000000
3.825942 0.723934 0.072054 59.000000
3.826178 0.711827 0.072035 43.000000
3.828344 0.700085 0.072035 52.000000
3.830473 0.688336 0.072035 52.000000
3.833552 0.676755 0.072044 44.000000
3.838566 0.665503 0.072072 51.000000
3.843547 0.654226 0.072100 53.000000
3.849481 0.643090 0.072137 64.000000
3.856370 0.632085 0.072183 48.000000
3.858291 0.620251 0.072183 57.000000
3.865115 0.609189 0.072229 50.000000
3.870919 0.597938 0.072266 37.000000
3.873724 0.586209 0.072276 56.000000
3.879461 0.574908 0.072313 37.000000
3.881207 0.563003 0.072313 51.000000
3.880935 0.550813 0.072294 48.000000
3.884588 0.539178 0.072313 53.000000
3.881269 0.526586 0.072266 51.000000
3.881875 0.514545 0.072257 45.000000
3.881452 0.502376 0.072239 57.000000
3.882975 0.490466 0.072239 48.000000
3.885454 0.478673 0.072248 68.000000
3.890876 0.467227 0.072285 62.000000
3.891298 0.455172 0.072276 53.000000
3.894663 0.443457 0.072294 51.000000
3.897993 0.431726 0.072313 54.000000
3.900293 0.419872 0.072322 49.000000
3.899574 0.407697 0.072303 62.000000
3.900806 0.395731 0.072303 43.000000
3.908968 0.384446 0.072368 11.000000
3.699224 1.247580 0.023286 30.000000
3.706828 1.237493 0.023273 54.000000
3.705860 1.224545 0.023290 46.000000
3.705798 1.211925 0.023303 45.000000
3.705693 1.199317 0.023316 40.000000
3.701737 1.185500 0.023343 65.000000
3.703450 1.173533 0.023349 63.000000
3.707033 1.162166 0.023349 39.000000
3.710581 1.150787 0.023349 60.000000
3.716007 1.139985 0.023343 58.000000
3.727299 1.106020 0.023339 68.000000
3.730675 1.094580 0.023339 75.000000
3.734016 1.083129 0.023339 82.000000
3.737321 1.071668 0.023339 76.000000
3.739630 1.059924 0.023343 63.000000
3.743827 1.048716 0.023339 77.000000
3.746063 1.036958 0.023343 89.000000
3.747298 1.024933 0.023349 93.000000
3.751390 1.013692 0.023346 77.000000
3.754482 1.002178 0.023346 83.000000
3.759473 0.991166 0.023339 97.000000
3.765399 0.980384 0.023329 104.000000
3.767421 0.968578 0.023333 92.000000
3.770374 0.957015 0.023333 102.000000
3.771353 0.944956 0.023339 110.000000
3.771322 0.932661 0.023349 110.000000
3.773194 0.920849 0.023353 116.000000
3.779890 0.910206 0.023339 126.000000
3.783638 0.898836 0.023336 120.000000
3.787351 0.887453 0.023333 105.000000
3.790056 0.875829 0.023333 101.000000
3.794675 0.864642 0.023326 101.000000
3.797310 0.852996 0.023326 102.000000
3.799909 0.841342 0.023326 100.000000
3.804426 0.830107 0.023319 79.000000
3.807932 0.818642 0.023316 68.000000
3.813361 0.807578 0.023306 81.000000
3.814842 0.795670 0.023309 68.000000
3.818244 0.784164 0.023306 56.000000
3.820632 0.772446 0.023306 50.000000
3.824945 0.761112 0.023300 65.000000
3.829225 0.749759 0.023293 61.000000
3.830525 0.737818 0.023296 51.000000
3.828841 0.725317 0.023309 54.000000
3.831048 0.713567 0.023309 55.000000
3.832236 0.701629 0.023313 40.000000
3.834370 0.689869 0.023313 45.000000
3.836469 0.678102 0.023313 66.000000
3.839516 0.666500 0.023309 55.000000
3.845486 0.655391 0.023296 45.000000
3.848464 0.643755 0.023293 44.000000
3.850421 0.631945 0.023293 54.000000
3.852342 0.620129 0.023293 60.000000
3.854227 0.608308 0.023293 60.000000
3.858051 0.596786 0.023286 52.000000
3.861841 0.585247 0.023280 53.000000
3.865597 0.573691 0.023273 43.000000
3.865360 0.561541 0.023280 54.000000
3.868054 0.549820 0.023276 52.000000
3.867742 0.537675 0.023283 63.000000
3.869373 0.525806 0.023283 57.000000
3.867995 0.513537 0.023293 59.000000
3.869552 0.501668 0.023293 66.000000
3.871073 0.489794 0.023293 70.000000
3.875534 0.478283 0.023283 71.000000
3.879962 0.466750 0.023273 62.000000
3.883362 0.455078 0.023266 50.000000
3.887721 0.443503 0.023256 62.000000
3.893038 0.432016 0.023243 42.000000
3.897328 0.420393 0.023233 35.000000
3.711940 1.227115 -0.024987 45.000000
3.711885 1.214478 -0.024925 54.000000
3.712740 1.202160 -0.024877 44.000000
3.715459 1.190459 -0.024862 69.000000
3.712421 1.176940 -0.024752 55.000000
3.714106 1.164947 -0.024720 49.000000
3.715753 1.152954 -0.024689 61.000000
3.720229 1.141842 -0.024705 68.000000
3.722758 1.130133 -0.024689 84.000000
3.725250 1.118419 -0.024673 83.000000
3.728663 1.106985 -0.024673 75.000000
3.732042 1.095541 -0.024673 94.000000
3.735385 1.084086 -0.024673 74.000000
3.738694 1.072621 -0.024673 87.000000
3.741005 1.060872 -0.024657 101.000000
3.745205 1.049660 -0.024673 93.000000
3.752262 1.039232 -0.024736 154.000000
3.759290 1.028771 -0.024799 165.000000
3.764359 1.017754 -0.024830 203.000000
3.769396 1.006716 -0.024862 236.000000
3.770533 0.994637 -0.024830 216.000000
3.780340 0.984829 -0.024940 281.000000
3.782376 0.972977 -0.024925 285.000000
3.783405 0.960876 -0.024893 300.000000
3.782455 0.948292 -0.024830 307.000000
3.781464 0.935723 -0.024767 353.000000
3.782374 0.923643 -0.024736 310.000000
3.785190 0.912035 -0.024736 316.000000
3.791862 0.901342 -0.024799 283.000000
3.796556 0.890161 -0.024830 271.000000
3.800244 0.878734 -0.024846 271.000000
3.802922 0.867071 -0.024846 230.000000
3.805564 0.855400 -0.024846 238.000000
3.809146 0.843937 -0.024862 212.000000
3.809764 0.831820 -0.024830 190.000000
3.807410 0.819077 -0.024752 138.000000
3.812840 0.808014 -0.024799 138.000000
3.816280 0.796516 -0.024815 122.000000
3.812829 0.783597 -0.024720 88.000000
3.814235 0.771698 -0.024705 77.000000
3.819212 0.736182 -0.024673 61.000000
3.820471 0.724275 -0.024657 73.000000
3.825623 0.713100 -0.024705 72.000000
3.829760 0.701720 -0.024736 62.000000
3.834847 0.690498 -0.024783 63.000000
3.840886 0.679426 -0.024846 61.000000
3.842952 0.667639 -0.024846 63.000000
3.844982 0.655846 -0.024846 68.000000
3.847963 0.644212 -0.024862 70.000000
3.846961 0.631917 -0.024815 49.000000
3.851843 0.620589 -0.024862 54.000000
3.856692 0.609236 -0.024909 68.000000
3.858543 0.597401 -0.024909 46.000000
3.864312 0.586160 -0.024972 50.000000
3.865103 0.574155 -0.024956 50.000000
3.863878 0.561863 -0.024909 40.000000
3.867563 0.550288 -0.024940 58.000000
3.866262 0.538007 -0.024893 50.000000
3.870867 0.526547 -0.024940 76.000000
3.870482 0.514405 -0.024909 58.000000
3.872042 0.502528 -0.024909 57.000000
3.875549 0.490898 -0.024940 67.000000
3.876045 0.478883 -0.024925 39.000000
3.879481 0.467228 -0.024956 49.000000
3.882882 0.455557 -0.024987 46.000000
3.885255 0.443755 -0.025003 54.000000
3.890573 0.432275 -0.025066 66.000000
3.893869 0.420551 -0.025097 40.000000
3.879230 0.406935 -0.024846 14.000000
3.693070 1.220314 -0.071346 37.000000
3.695847 1.208667 -0.071318 43.000000
3.697636 1.196707 -0.071262 40.000000
3.704146 1.186273 -0.071346 51.000000
3.704909 1.173996 -0.071262 49.000000
3.706586 1.162025 -0.071207 67.000000
3.710134 1.150648 -0.071207 65.000000
3.714602 1.139554 -0.071235 69.000000
3.727807 1.106171 -0.071318 92.000000
3.732143 1.095011 -0.071346 56.000000
3.735485 1.083556 -0.071346 52.000000
3.737830 1.071815 -0.071318 67.000000
3.738216 1.059523 -0.071235 101.000000
3.750111 1.050479 -0.071484 164.000000
3.753317 1.038969 -0.071484 196.000000
3.756486 1.027449 -0.071484 212.000000
3.758656 1.015658 -0.071457 210.000000
3.759823 1.003606 -0.071401 191.000000
3.760951 0.991556 -0.071346 180.000000
3.765910 0.980517 -0.071401 156.000000
3.768901 0.968959 -0.071401 182.000000
3.768949 0.956653 -0.071318 252.000000
3.777684 0.946545 -0.071484 212.000000
3.778629 0.934470 -0.071429 262.000000
3.783421 0.923348 -0.071484 251.000000
3.788179 0.912205 -0.071540 193.000000
3.789015 0.900116 -0.071484 201.000000
3.791759 0.888487 -0.071484 229.000000
3.794466 0.876850 -0.071484 222.000000
3.797139 0.865204 -0.071484 205.000000
3.800751 0.853770 -0.071512 211.000000
3.804328 0.842322 -0.071540 261.000000
3.806894 0.830647 -0.071540 236.000000
3.804538 0.817911 -0.071401 146.000000
3.806052 0.806028 -0.071373 140.000000
3.808507 0.794347 -0.071373 126.000000
3.806031 0.781652 -0.071235 95.000000
3.810370 0.770369 -0.071290 65.000000
3.812716 0.758675 -0.071290 58.000000
3.816987 0.747359 -0.071346 59.000000
3.820244 0.735834 -0.071373 51.000000
3.823466 0.724297 -0.071401 36.000000
3.828618 0.713113 -0.071484 48.000000
3.830787 0.701364 -0.071484 37.000000
3.835872 0.690140 -0.071568 55.000000
3.836987 0.678194 -0.071540 41.000000
3.837080 0.666076 -0.071484 55.000000
3.840091 0.654470 -0.071512 52.000000
3.842081 0.642685 -0.071512 34.000000
3.845021 0.631057 -0.071540 42.000000
3.847926 0.619417 -0.071568 53.000000
3.851782 0.607921 -0.071623 48.000000
3.857581 0.596713 -0.071734 58.000000
3.861370 0.585176 -0.071790 43.000000
3.862158 0.573180 -0.071762 37.000000
3.862909 0.561184 -0.071734 60.000000
3.865602 0.549471 -0.071762 57.000000
3.866280 0.537471 -0.071734 58.000000
3.869891 0.525877 -0.071790 55.000000
3.872478 0.514133 -0.071817 70.000000
3.874037 0.502250 -0.071817 54.000000
3.878535 0.490740 -0.071901 62.000000
3.882006 0.479084 -0.071956 56.000000
3.885442 0.467411 -0.072012 48.000000
3.886858 0.455489 -0.072012 47.000000
3.888237 0.443562 -0.072012 44.000000
3.892560 0.431962 -0.072095 65.000000
3.892873 0.419911 -0.072067 43.000000
3.687570 1.219062 -0.119853 35.000000
3.695092 1.208985 -0.120014 51.000000
3.696882 1.197028 -0.119934 38.000000
3.693876 1.183547 -0.119652 78.000000
3.707015 1.175227 -0.120055 61.000000
3.708696 1.163250 -0.119974 48.000000
3.709385 1.150979 -0.119853 58.000000
3.713853 1.139886 -0.119893 57.000000
3.716377 1.128197 -0.119853 49.000000
3.716950 1.115928 -0.119732 82.000000
3.720356 1.104520 -0.119732 93.000000
3.721810 1.092538 -0.119652 122.000000
3.726103 1.081393 -0.119692 126.000000
3.736127 1.071884 -0.119974 165.000000
3.741320 1.060962 -0.120055 180.000000
3.743596 1.049209 -0.120014 207.000000
3.745834 1.037452 -0.119974 215.000000
3.748999 1.025956 -0.119974 225.000000
3.751164 1.014188 -0.119934 189.000000
3.755224 1.002933 -0.119974 180.000000
3.758283 0.991407 -0.119974 185.000000
3.762274 0.980124 -0.120014 303.000000
3.780746 0.972558 -0.120659 429.000000
3.784681 0.961200 -0.120699 1073.000000
3.810873 0.955414 -0.121667 1783.000000
3.813787 0.943718 -0.121667 1696.000000
3.816664 0.932013 -0.121667 1803.000000
3.796191 0.914684 -0.120699 1149.000000
3.787314 0.900262 -0.120216 529.000000
3.786167 0.887726 -0.120055 230.000000
3.788873 0.876106 -0.120055 179.000000
3.792517 0.864700 -0.120095 182.000000
3.798077 0.853718 -0.120216 204.000000
3.800678 0.842061 -0.120216 284.000000
3.806172 0.831036 -0.120337 274.000000
3.808704 0.819355 -0.120337 270.000000
3.813154 0.808080 -0.120417 235.000000
3.796053 0.792297 -0.119611 150.000000
3.796508 0.780245 -0.119531 111.000000
3.799864 0.768792 -0.119571 97.000000
3.812939 0.722848 -0.119732 74.000000
3.816121 0.711329 -0.119772 44.000000
3.818285 0.699619 -0.119772 64.000000
3.824347 0.688609 -0.119934 51.000000
3.827426 0.677047 -0.119974 48.000000
3.833423 0.665985 -0.120135 42.000000
3.838403 0.654724 -0.120256 55.000000
3.842365 0.643275 -0.120337 62.000000
3.844320 0.631484 -0.120337 58.000000
3.846239 0.619687 -0.120337 45.000000
3.846148 0.607572 -0.120256 50.000000
3.850956 0.596228 -0.120377 39.000000
3.853756 0.584560 -0.120417 44.000000
3.859484 0.573321 -0.120579 47.000000
3.867158 0.562340 -0.120820 60.000000
3.868865 0.550473 -0.120820 44.000000
3.874494 0.539151 -0.120982 49.000000
3.879100 0.527666 -0.121103 41.000000
3.876739 0.515236 -0.120941 52.000000
3.880283 0.503597 -0.121022 55.000000
3.880818 0.491565 -0.120982 61.000000
3.883300 0.479779 -0.121022 56.000000
3.887730 0.468221 -0.121143 59.000000
3.890141 0.456407 -0.121183 76.000000
3.893507 0.444697 -0.121264 57.000000
3.895847 0.432860 -0.121304 49.000000
3.897156 0.420906 -0.121304 61.000000
3.895448 0.408635 -0.121183 20.000000
3.687973 1.217206 -0.166527 41.000000
3.695486 1.207127 -0.166737 37.000000
3.701072 1.196399 -0.166841 49.000000
3.702823 1.184429 -0.166737 47.000000
3.709296 1.173968 -0.166894 48.000000
3.715739 1.163479 -0.167051 49.000000
3.719291 1.152074 -0.167051 58.000000
3.722808 1.140658 -0.167051 53.000000
3.723423 1.128361 -0.166894 88.000000
3.724532 1.103789 -0.166580 85.000000
3.724068 1.091233 -0.166370 101.000000
3.725480 1.079246 -0.166266 99.000000
3.728773 1.067812 -0.166266 100.000000
3.732032 1.056367 -0.166266 96.000000
3.734294 1.044643 -0.166213 123.000000
3.744218 1.035046 -0.166580 153.000000
3.750266 1.024344 -0.166737 168.000000
3.755319 1.013355 -0.166841 170.000000
3.759375 1.002086 -0.166894 183.000000
3.762432 0.990548 -0.166894 156.000000
3.767386 0.979503 -0.166998 166.000000
3.772307 0.968438 -0.167103 214.000000
3.776229 0.957106 -0.167155 213.000000
3.780116 0.945758 -0.167208 252.000000
3.781061 0.933677 -0.167103 222.000000
3.785848 0.922546 -0.167208 243.000000
3.788660 0.910927 -0.167208 280.000000
3.785608 0.897915 -0.166894 232.000000
3.779594 0.884246 -0.166423 173.000000
3.785208 0.873321 -0.166580 187.000000
3.785922 0.861260 -0.166475 181.000000
3.793418 0.850735 -0.166737 242.000000
3.797961 0.839525 -0.166841 253.000000
3.801494 0.828082 -0.166894 253.000000
3.804017 0.816415 -0.166894 193.000000
3.798688 0.803086 -0.166475 134.000000
3.799178 0.791020 -0.166370 117.000000
3.800609 0.779160 -0.166318 102.000000
3.802981 0.767496 -0.166318 100.000000
3.798463 0.754461 -0.165952 118.000000
3.815460 0.745682 -0.166737 61.000000
3.814787 0.733406 -0.166580 71.000000
3.818982 0.722071 -0.166684 55.000000
3.821179 0.710351 -0.166684 51.000000
3.822358 0.698445 -0.166632 45.000000
3.829397 0.687598 -0.166894 39.000000
3.832472 0.676021 -0.166946 41.000000
3.837480 0.664772 -0.167103 53.000000
3.838517 0.652828 -0.167051 50.000000
3.837547 0.640554 -0.166894 42.000000
3.841465 0.629101 -0.166998 50.000000
3.842391 0.617154 -0.166946 49.000000
3.842294 0.605051 -0.166841 64.000000
3.845119 0.593413 -0.166894 52.000000
3.849883 0.582062 -0.167051 55.000000
3.857578 0.571128 -0.167365 51.000000
3.862276 0.559721 -0.167522 56.000000
3.863976 0.547869 -0.167522 59.000000
3.865638 0.536012 -0.167522 54.000000
3.870234 0.524553 -0.167679 52.000000
3.868855 0.512283 -0.167522 52.000000
3.870408 0.500411 -0.167522 58.000000
3.872916 0.488659 -0.167574 58.000000
3.875388 0.476897 -0.167626 53.000000
3.878816 0.465244 -0.167731 61.000000
3.882208 0.453574 -0.167836 66.000000
3.884574 0.441775 -0.167888 51.000000
3.889881 0.430295 -0.168097 52.000000
3.883240 0.417503 -0.167679 38.000000
3.875564 0.404651 -0.167208 22.000000
3.685697 1.218443 -0.214505 30.000000
3.690366 1.207439 -0.214570 33.000000
3.701648 1.198570 -0.215088 41.000000
3.707209 1.187817 -0.215217 60.000000
3.711787 1.176739 -0.215282 55.000000
3.720140 1.166839 -0.215605 61.000000
3.723703 1.155420 -0.215605 58.000000
3.725322 1.143405 -0.215476 51.000000
3.725948 1.131101 -0.215282 49.000000
3.725577 1.118518 -0.215023 64.000000
3.725165 1.105947 -0.214764 66.000000
3.728540 1.094513 -0.214764 56.000000
3.730922 1.082791 -0.214700 71.000000
3.735186 1.071614 -0.214764 94.000000
3.735576 1.059333 -0.214570 71.000000
3.740730 1.048406 -0.214700 104.000000
3.741044 1.036126 -0.214505 99.000000
3.741317 1.023854 -0.214311 111.000000
3.750221 1.013933 -0.214700 135.000000
3.756206 1.003195 -0.214894 174.000000
3.761196 0.992175 -0.215023 175.000000
3.763257 0.980380 -0.214958 131.000000
3.766247 0.968830 -0.214958 147.000000
3.768234 0.957025 -0.214894 128.000000
3.771152 0.945460 -0.214894 179.000000
3.776942 0.934604 -0.215088 187.000000
3.779791 0.923013 -0.215088 235.000000
3.782605 0.911412 -0.215088 201.000000
3.779558 0.898419 -0.214700 174.000000
3.773552 0.884770 -0.214117 114.000000
3.777221 0.873413 -0.214182 132.000000
3.775018 0.860712 -0.213858 92.000000
3.788351 0.851533 -0.214570 150.000000
3.789972 0.839690 -0.214505 106.000000
3.795455 0.828697 -0.214700 114.000000
3.796028 0.816629 -0.214570 116.000000
3.795587 0.804359 -0.214376 96.000000
3.797060 0.792507 -0.214311 87.000000
3.799473 0.780854 -0.214311 71.000000
3.804785 0.769787 -0.214505 66.000000
3.822770 0.724710 -0.215088 65.000000
3.823994 0.712796 -0.215023 45.000000
3.824199 0.700702 -0.214894 52.000000
3.828295 0.689319 -0.215023 40.000000
3.826461 0.676876 -0.214764 37.000000
3.831470 0.665646 -0.214958 52.000000
3.835461 0.654223 -0.215088 46.000000
3.840403 0.642947 -0.215282 66.000000
3.839404 0.630677 -0.215088 50.000000
3.841320 0.618895 -0.215088 47.000000
3.845172 0.607418 -0.215217 56.000000
3.849976 0.596076 -0.215411 41.000000
3.852773 0.584411 -0.215476 52.000000
3.859484 0.573321 -0.215800 54.000000
3.863199 0.561765 -0.215929 50.000000
3.869845 0.550612 -0.216253 51.000000
3.873492 0.539012 -0.216382 45.000000
3.871173 0.526588 -0.216123 56.000000
3.870791 0.514446 -0.215994 42.000000
3.876310 0.503082 -0.216253 58.000000
3.880805 0.491563 -0.216447 48.000000
3.885267 0.480021 -0.216641 51.000000
3.893656 0.468934 -0.217094 67.000000
3.899041 0.457451 -0.217353 68.000000
3.905383 0.446052 -0.217676 54.000000
3.910701 0.434509 -0.217935 53.000000
3.909039 0.422188 -0.217741 54.000000
3.874587 0.406449 -0.215411 19.000000
3.686010 1.216557 -0.260600 40.000000
3.689725 1.205243 -0.260600 57.000000
3.693405 1.193918 -0.260600 36.000000
3.696101 1.182277 -0.260523 39.000000
3.695909 1.169727 -0.260217 23.000000
3.706140 1.160470 -0.260753 34.000000
3.710635 1.149390 -0.260829 29.000000
3.716051 1.138585 -0.260983 45.000000
3.732613 1.093740 -0.261212 41.000000
3.734993 1.082005 -0.261136 36.000000
3.740212 1.071091 -0.261289 45.000000
3.743481 1.059611 -0.261289 32.000000
3.746714 1.048121 -0.261289 40.000000
3.751834 1.037154 -0.261442 33.000000
3.753075 1.025112 -0.261289 37.000000
3.754277 1.013073 -0.261136 49.000000
3.758331 1.001807 -0.261212 45.000000
3.759458 0.989764 -0.261059 44.000000
3.764407 0.978728 -0.261212 44.000000
3.765460 0.966678 -0.261059 35.000000
3.764543 0.954140 -0.260753 52.000000
3.774222 0.944282 -0.261289 36.000000
3.774198 0.931980 -0.261059 49.000000
3.779946 0.921106 -0.261289 35.000000
3.783723 0.909738 -0.261365 38.000000
3.779706 0.896513 -0.260829 29.000000
3.789234 0.886505 -0.261365 38.000000
3.790964 0.874651 -0.261289 38.000000
3.794602 0.863238 -0.261365 48.000000
3.796259 0.851374 -0.261289 37.000000
3.797880 0.839507 -0.261212 32.000000
3.801412 0.828064 -0.261289 30.000000
3.806859 0.817026 -0.261518 25.000000
3.804471 0.804310 -0.261136 43.000000
3.810824 0.793449 -0.261442 31.000000
3.821054 0.783358 -0.262054 37.000000
3.831258 0.773212 -0.262667 30.000000
3.836546 0.762038 -0.262896 35.000000
3.852565 0.752945 -0.263968 31.000000
3.853878 0.740934 -0.263891 28.000000
3.857112 0.729292 -0.263968 38.000000
3.862273 0.718003 -0.264197 38.000000
3.853668 0.704175 -0.263355 44.000000
3.864642 0.693938 -0.264044 35.000000
3.857916 0.680516 -0.263355 44.000000
3.863916 0.669359 -0.263662 41.000000
3.864968 0.657334 -0.263585 36.000000
3.863033 0.644816 -0.263279 32.000000
3.859090 0.631993 -0.262820 43.000000
3.859041 0.619833 -0.262667 36.000000
3.854031 0.606903 -0.262131 55.000000
3.853904 0.594772 -0.261978 48.000000
3.856696 0.583095 -0.262054 37.000000
3.860440 0.571552 -0.262207 44.000000
3.862175 0.559706 -0.262207 46.000000
3.866836 0.548275 -0.262437 44.000000
3.868499 0.536409 -0.262437 49.000000
3.867163 0.524136 -0.262207 47.000000
3.870729 0.512531 -0.262360 44.000000
3.876239 0.501166 -0.262667 50.000000
3.882704 0.489897 -0.263049 42.000000
3.885178 0.478105 -0.263126 43.000000
3.888607 0.466421 -0.263279 44.000000
3.896951 0.455301 -0.263815 38.000000
3.908236 0.444473 -0.264580 46.000000
3.914536 0.433030 -0.264963 46.000000
3.916838 0.421125 -0.265039 48.000000
3.911170 0.408380 -0.264504 23.000000
4.099438 1.079840 -0.340012 17.000000
4.100803 1.066757 -0.339834 31.000000
4.115634 1.057144 -0.340899 18.000000
4.090858 1.037414 -0.338326 21.000000
4.105617 1.027760 -0.339391 35.000000
4.092311 1.011099 -0.337883 36.000000
4.079911 0.994766 -0.336463 34.000000
4.096501 0.985505 -0.337705 32.000000
4.099506 0.972932 -0.337705 33.000000
4.077255 0.954450 -0.335398 25.000000
4.081135 0.942161 -0.335487 22.000000
4.094689 0.932066 -0.336463 26.000000
4.090726 0.917974 -0.335842 28.000000
4.173274 0.923051 -0.343117 55.000000
4.068058 0.886707 -0.333269 17.000000
4.216840 0.905580 -0.346577 67.000000
4.122148 0.872032 -0.337705 29.000000
4.125779 0.859585 -0.337794 32.000000
4.129373 0.847123 -0.337883 35.000000
4.152456 0.838589 -0.339746 41.000000
4.179433 0.830698 -0.341964 59.000000
4.133084 0.808317 -0.337528 35.000000
4.137500 0.796009 -0.337705 29.000000
4.139924 0.783312 -0.337705 34.000000
4.156017 0.773156 -0.338947 40.000000
4.163269 0.761297 -0.339391 36.000000
4.138134 0.743591 -0.336907 18.000000
4.173747 0.736776 -0.339923 29.000000
4.177951 0.724308 -0.340101 27.000000
4.187027 0.712656 -0.340722 23.000000
4.200983 0.701775 -0.341786 25.000000
4.182474 0.685502 -0.339923 24.000000
4.115716 0.661608 -0.333713 12.000000
4.190629 1.104197 -0.403178 23.000000
4.181482 1.088075 -0.401862 24.000000
4.165530 1.070284 -0.399837 27.000000
4.158187 1.054806 -0.398723 51.000000
4.157544 1.041076 -0.398318 33.000000
4.160718 1.028316 -0.398318 39.000000
4.161921 1.015074 -0.398116 28.000000
4.168884 1.003233 -0.398521 27.000000
4.178717 0.992049 -0.399230 25.000000
4.191427 0.981495 -0.400242 43.000000
4.200235 0.969976 -0.400849 30.000000
4.207070 0.957970 -0.401254 28.000000
4.212902 0.945713 -0.401558 49.000000
4.223554 0.934505 -0.402368 30.000000
4.228345 0.921967 -0.402570 20.000000
4.227263 0.908153 -0.402165 38.000000
4.223217 0.893736 -0.401457 18.000000
4.214252 0.878337 -0.400242 16.000000
4.216927 0.865403 -0.400242 25.000000
4.210786 0.850686 -0.399331 28.000000
4.201668 0.835433 -0.398116 45.000000
4.198353 0.821390 -0.397509 33.000000
4.194015 0.807188 -0.396800 17.000000
4.192562 0.793576 -0.396395 29.000000
4.191065 0.779981 -0.395990 28.000000
4.190503 0.766581 -0.395687 41.000000
4.190876 0.753369 -0.395484 54.000000
4.201985 0.742067 -0.396395 46.000000
4.214043 0.730875 -0.397407 46.000000
4.219208 0.718445 -0.397711 54.000000
4.234148 0.707632 -0.399027 33.000000
4.245134 0.696090 -0.399938 20.000000
4.252161 0.683854 -0.400444 16.000000
4.221733 1.112827 -0.458686 8.000000
4.203972 1.094365 -0.456200 14.000000
4.189026 1.076764 -0.454052 23.000000
4.175938 1.059754 -0.452131 25.000000
4.171458 1.045007 -0.451226 23.000000
4.170787 1.031250 -0.450774 26.000000
4.173931 1.018450 -0.450774 33.000000
4.180900 1.006569 -0.451226 35.000000
4.191702 0.995574 -0.452131 39.000000
4.198606 0.983615 -0.452583 31.000000
4.212254 0.973189 -0.453826 29.000000
4.217157 0.960703 -0.454052 28.000000
4.220084 0.947760 -0.454052 31.000000
4.228793 0.936097 -0.454730 28.000000
4.242323 0.925447 -0.455974 25.000000
4.254726 0.900839 -0.456765 16.000000
4.255525 0.887376 -0.456539 32.000000
4.252388 0.873118 -0.455861 25.000000
4.248229 0.858690 -0.455069 31.000000
4.239149 0.843327 -0.453713 37.000000
4.226115 0.827265 -0.451905 32.000000
4.224730 0.813545 -0.451452 32.000000
4.221348 0.799471 -0.450774 29.000000
4.217921 0.785425 -0.450096 29.000000
4.223242 0.773018 -0.450435 24.000000
4.232440 0.761288 -0.451226 19.000000
4.234755 0.748299 -0.451226 34.000000
4.245842 0.736832 -0.452244 26.000000
4.244165 0.723135 -0.451792 33.000000
4.250283 0.710766 -0.452244 31.000000
4.257346 0.698527 -0.452809 20.000000
4.178087 1.073514 -0.506788 14.000000
4.174629 1.058981 -0.505911 19.000000
4.180745 1.046893 -0.506287 14.000000
4.172380 1.031202 -0.504782 25.000000
4.172633 1.017690 -0.504407 41.000000
4.179594 1.005813 -0.504908 36.000000
4.190382 0.994821 -0.505911 31.000000
4.202108 0.983999 -0.507039 35.000000
4.223472 0.975349 -0.509420 30.000000
4.231281 0.963490 -0.510046 18.000000
4.246801 0.953332 -0.511676 37.000000
4.252612 0.940942 -0.512052 19.000000
4.245165 0.871206 -0.509295 13.000000
4.247818 0.858178 -0.509295 14.000000
4.244592 0.843980 -0.508543 19.000000
4.234505 0.828474 -0.506913 26.000000
4.233130 0.814727 -0.506412 18.000000
4.218064 0.798410 -0.504156 25.000000
4.220493 0.785466 -0.504156 33.000000
4.223859 0.772693 -0.504281 34.000000
4.231092 0.760609 -0.504908 29.000000
4.244152 0.749526 -0.506287 30.000000
4.255229 0.738030 -0.507415 34.000000
4.266275 0.726473 -0.508543 30.000000
4.276312 0.714691 -0.509545 27.000000
4.198728 1.080814 -0.563242 16.000000
4.188583 1.064513 -0.561318 23.000000
4.185104 1.049971 -0.560356 28.000000
4.185422 1.036412 -0.559944 34.000000
4.185695 1.022862 -0.559531 39.000000
4.190739 1.010479 -0.559806 45.000000
4.210202 1.001513 -0.562143 37.000000
4.235434 0.993794 -0.565304 23.000000
4.250043 0.983474 -0.566953 26.000000
4.262698 0.972633 -0.568328 28.000000
4.274359 0.961506 -0.569565 27.000000
4.282124 0.949459 -0.570252 10.000000
4.269750 0.864584 -0.566129 19.000000
4.254897 0.847997 -0.563655 37.000000
4.247758 0.833034 -0.562280 23.000000
4.243486 0.818685 -0.561318 19.000000
4.232354 0.803079 -0.559394 29.000000
4.229929 0.789182 -0.558707 27.000000
4.235253 0.776737 -0.559119 29.000000
4.239565 0.764091 -0.559394 24.000000
4.255545 0.753497 -0.561318 22.000000
4.258812 0.740608 -0.561456 16.000000
4.265946 0.728371 -0.562143 22.000000
4.252531 0.712662 -0.559944 11.000000
4.255381 1.092607 -0.624314 15.000000
4.234752 1.073466 -0.620584 25.000000
4.229393 1.058307 -0.619241 24.000000
4.222061 1.042715 -0.617600 32.000000
4.223319 1.029289 -0.617302 35.000000
4.212998 1.013087 -0.615213 19.000000
4.236289 1.004955 -0.618346 25.000000
4.258607 0.996464 -0.621330 47.000000
4.265498 0.984285 -0.621927 20.000000
4.297421 0.977783 -0.626403 11.000000
4.259741 0.846226 -0.616705 18.000000
4.250671 0.830874 -0.614915 22.000000
4.249317 0.817081 -0.614318 13.000000
4.238202 0.801464 -0.612230 21.000000
4.230920 0.786648 -0.610738 23.000000
4.234286 0.773842 -0.610887 29.000000
4.239560 0.761373 -0.611334 35.000000
4.253561 0.750427 -0.613125 33.000000
4.269482 0.739741 -0.615213 26.000000
4.284404 0.728798 -0.617153 17.000000
4.260746 1.109930 -0.679883 14.000000
4.227808 1.087513 -0.673762 22.000000
4.230169 1.074295 -0.673601 25.000000
4.236316 1.062031 -0.674084 30.000000
4.239555 1.049029 -0.674084 62.000000
4.245630 1.036720 -0.674567 56.000000
4.251669 1.024383 -0.675051 42.000000
4.262473 1.013159 -0.676339 45.000000
4.276132 1.002555 -0.678111 38.000000
4.287841 0.991431 -0.679561 33.000000
4.332240 0.987701 -0.686488 16.000000
4.297544 0.842017 -0.676017 29.000000
4.292354 0.827335 -0.674729 39.000000
4.288085 0.812876 -0.673601 34.000000
4.281826 0.798090 -0.672151 37.000000
4.272604 0.782816 -0.670218 41.000000
4.273044 0.769355 -0.669896 30.000000
4.274412 0.756070 -0.669735 29.000000
4.279628 0.743459 -0.670218 27.000000
4.287727 0.731321 -0.671185 31.000000
4.294817 0.718977 -0.671990 27.000000
4.312585 0.708355 -0.674567 15.000000
4.228714 1.099594 -0.728339 21.000000
4.220620 1.083673 -0.726264 39.000000
4.223925 1.070719 -0.726264 35.000000
4.230056 1.058473 -0.726783 35.000000
4.234240 1.045727 -0.726956 40.000000
4.243169 1.034132 -0.727994 56.000000
4.249195 1.021801 -0.728512 42.000000
4.260934 1.010808 -0.730069 16.000000
4.269769 0.999079 -0.731107 41.000000
4.274733 0.986418 -0.731453 33.000000
4.234525 0.963455 -0.723670 13.000000
4.298816 0.840298 -0.730242 20.000000
4.297505 0.826360 -0.729550 23.000000
4.297117 0.812622 -0.729031 24.000000
4.293780 0.798353 -0.727994 32.000000
4.289427 0.783935 -0.726783 43.000000
4.289874 0.770423 -0.726437 28.000000
4.289308 0.756744 -0.725918 56.000000
4.292580 0.743749 -0.726091 52.000000
4.294841 0.730576 -0.726091 53.000000
4.298033 0.717559 -0.726264 39.000000
4.295355 0.703572 -0.725399 21.000000
4.249194 1.105344 -0.784914 23.000000
4.228766 1.086192 -0.780302 41.000000
4.221599 1.070556 -0.778273 63.000000
4.232491 1.059508 -0.779749 52.000000
4.239538 1.047461 -0.780487 56.000000
4.247507 1.035613 -0.781409 45.000000
4.257353 1.024185 -0.782700 43.000000
4.269082 1.013161 -0.784361 50.000000
4.275041 1.000731 -0.784914 61.000000
4.282880 0.988715 -0.785836 48.000000
4.285893 0.975571 -0.785836 44.000000
4.294509 0.839872 -0.782147 39.000000
4.297066 0.826692 -0.782147 73.000000
4.287027 0.811131 -0.779749 47.000000
4.290462 0.798155 -0.779933 51.000000
4.287090 0.783928 -0.778826 37.000000
4.286572 0.770250 -0.778273 40.000000
4.286980 0.756754 -0.777904 52.000000
4.289281 0.743598 -0.777904 47.000000
4.296387 0.731259 -0.778826 39.000000
4.300549 0.718399 -0.779195 32.000000
4.296914 0.704248 -0.778089 25.000000
