ply
format ascii 1.0
element vertex 1200
property float x
property float y
property float z
property float intensity
end_header
4.405001 1.033993 0.576236 6.000000
4.364801 0.996327 0.570528 13.000000
4.327155 0.973765 0.565533 37.000000
4.350477 0.965005 0.568031 18.000000
4.338869 0.948469 0.566247 26.000000
4.341758 0.935153 0.566247 29.000000
4.361117 0.925336 0.568268 21.000000
4.374626 0.914189 0.569577 13.000000
4.394915 0.904371 0.571717 7.000000
4.394749 0.890291 0.571360 9.000000
4.439955 1.056145 0.524634 6.000000
4.349277 1.020495 0.514276 15.000000
4.300077 0.995047 0.508509 33.000000
4.306987 0.982734 0.508937 26.000000
4.302222 0.967771 0.508082 25.000000
4.305171 0.954567 0.508082 39.000000
4.307108 0.941143 0.507975 34.000000
4.315807 0.929179 0.508616 53.000000
4.332254 0.918821 0.510111 21.000000
4.333107 0.905119 0.509898 29.000000
4.339758 0.892622 0.510325 33.000000
4.350273 0.880882 0.511179 18.000000
4.318198 1.040798 0.458466 28.000000
4.306090 1.009958 0.456662 14.000000
4.291712 0.992700 0.454952 17.000000
4.297648 0.980193 0.455237 6.000000
4.283154 0.963068 0.453528 9.000000
4.271511 0.946688 0.452103 17.000000
4.273423 0.933366 0.452008 38.000000
4.273347 0.919622 0.451723 26.000000
4.277122 0.906714 0.451818 22.000000
4.299372 0.897662 0.453718 13.000000
4.311856 0.886475 0.454667 21.000000
4.322361 0.874824 0.455427 8.000000
4.331858 0.862922 0.456092 9.000000
4.350115 0.852696 0.457612 20.000000
4.291438 1.006929 0.399599 8.000000
4.293535 0.993534 0.399516 10.000000
4.287883 0.964547 0.398527 8.000000
4.289849 0.951172 0.398444 13.000000
4.275221 0.934178 0.396960 13.000000
4.278923 0.907515 0.396795 10.000000
4.296321 0.897439 0.398032 7.000000
4.313696 0.887264 0.399269 11.000000
4.319329 0.874618 0.399516 14.000000
4.331765 0.863310 0.400341 8.000000
4.250777 1.064449 0.345328 31.000000
4.271452 1.055716 0.346599 41.000000
4.267888 1.040950 0.346105 70.000000
4.278819 1.029720 0.346670 64.000000
4.299427 1.020740 0.347941 42.000000
4.291855 1.005040 0.347164 60.000000
4.305608 0.994340 0.347941 50.000000
4.303776 0.980018 0.347588 53.000000
4.305789 0.966590 0.347517 64.000000
4.309709 0.953592 0.347588 80.000000
4.313588 0.940578 0.347659 67.000000
4.322305 0.928598 0.348082 90.000000
4.322206 0.914713 0.347871 75.000000
4.323039 0.901041 0.347729 63.000000
4.320898 0.886770 0.347376 36.000000
4.325552 0.873905 0.347517 55.000000
4.326257 0.860240 0.347376 43.000000
4.325939 0.846388 0.347164 26.000000
4.340269 0.835378 0.348012 76.000000
4.344772 0.822430 0.348153 47.000000
4.346294 0.808914 0.348082 37.000000
4.352680 0.796295 0.348365 34.000000
4.369828 0.785588 0.349424 17.000000
4.204700 1.136761 0.288694 30.000000
4.210098 1.124370 0.288811 42.000000
4.214492 1.111703 0.288869 54.000000
4.216917 1.098517 0.288811 47.000000
4.223168 1.086320 0.288985 68.000000
4.221643 1.072130 0.288694 62.000000
4.226849 1.059659 0.288811 58.000000
4.234926 1.047884 0.289101 55.000000
4.236181 1.034413 0.288985 46.000000
4.253893 1.024919 0.289856 77.000000
4.251190 1.010478 0.289508 56.000000
4.257185 0.998114 0.289682 50.000000
4.263146 0.985723 0.289856 52.000000
4.266150 0.972640 0.289856 54.000000
4.273984 0.960641 0.290147 35.000000
4.273013 0.946660 0.289914 63.000000
4.273946 0.933121 0.289798 67.000000
4.274837 0.919585 0.289682 52.000000
4.274707 0.905845 0.289508 62.000000
4.275512 0.892318 0.289391 57.000000
4.280186 0.879598 0.289508 52.000000
4.281886 0.866265 0.289449 56.000000
4.271794 0.850591 0.288694 33.000000
4.299857 0.842470 0.290205 76.000000
4.298499 0.828519 0.289972 40.000000
4.299060 0.814955 0.289856 92.000000
4.307428 0.802859 0.290205 37.000000
4.295141 0.786943 0.289333 84.000000
4.300483 0.774292 0.289508 68.000000
4.299889 0.760574 0.289333 76.000000
4.305152 0.747891 0.289508 43.000000
4.304474 0.734176 0.289333 56.000000
4.306707 0.720966 0.289333 59.000000
4.313824 0.708559 0.289624 27.000000
4.319920 0.695956 0.289856 15.000000
4.130763 1.155681 0.233981 20.000000
4.137177 1.143802 0.234120 26.000000
4.156084 1.135319 0.234860 47.000000
4.163405 1.123605 0.235045 62.000000
4.170692 1.111857 0.235230 66.000000
4.171186 1.098293 0.235091 52.000000
4.177437 1.086246 0.235230 60.000000
4.188489 1.075414 0.235599 94.000000
4.185959 1.061084 0.235322 80.000000
4.187257 1.047751 0.235230 58.000000
4.189482 1.034660 0.235183 76.000000
4.187784 1.020618 0.234952 69.000000
4.186040 1.006597 0.234721 29.000000
4.196884 0.995596 0.235091 41.000000
4.197001 0.982032 0.234952 55.000000
4.205833 0.970500 0.235230 38.000000
4.209765 0.957814 0.235276 57.000000
4.215608 0.945551 0.235414 62.000000
4.222390 0.933477 0.235599 61.000000
4.224258 0.920305 0.235553 46.000000
4.232921 0.908601 0.235831 92.000000
4.229826 0.894368 0.235553 63.000000
4.231572 0.881183 0.235507 71.000000
4.223491 0.865987 0.234998 61.000000
4.216337 0.851046 0.234536 35.000000
4.215009 0.837327 0.234351 30.000000
4.224421 0.825735 0.234675 35.000000
4.224973 0.812393 0.234582 35.000000
4.240204 0.801844 0.235183 55.000000
4.252465 0.790660 0.235646 73.000000
4.258801 0.778329 0.235831 76.000000
4.263134 0.765613 0.235923 60.000000
4.267431 0.752878 0.236015 89.000000
4.264800 0.738928 0.235784 72.000000
4.267046 0.725841 0.235784 80.000000
4.262357 0.711593 0.235461 65.000000
4.261562 0.698027 0.235322 68.000000
4.260725 0.684474 0.235183 34.000000
4.262805 0.671399 0.235183 34.000000
4.266819 0.658623 0.235276 27.000000
4.048182 1.147189 0.178166 7.000000
4.103654 1.149314 0.179994 25.000000
4.124499 1.141515 0.180603 56.000000
4.129910 1.129383 0.180671 47.000000
4.132390 1.116447 0.180637 71.000000
4.150280 1.107628 0.181145 43.000000
4.152693 1.094635 0.181111 24.000000
4.166671 1.084659 0.181483 32.000000
4.192243 1.077591 0.182262 179.000000
4.182935 1.061529 0.181822 81.000000
4.175508 1.046021 0.181449 39.000000
4.168995 1.030808 0.181111 35.000000
4.172138 1.018012 0.181111 54.000000
4.167468 1.003337 0.180840 54.000000
4.164692 0.989161 0.180637 61.000000
4.169654 0.976835 0.180705 36.000000
4.178474 0.965388 0.180908 28.000000
4.186288 0.953673 0.181077 25.000000
4.208697 0.945204 0.181754 13.000000
4.189134 0.927321 0.180975 16.000000
4.191959 0.914465 0.180975 54.000000
4.187904 0.900130 0.180739 33.000000
4.160336 0.880863 0.179689 19.000000
4.142472 0.863813 0.178978 14.000000
4.186222 0.859538 0.180400 39.000000
4.197656 0.848472 0.180705 54.000000
4.203180 0.836175 0.180806 63.000000
4.208668 0.823852 0.180908 63.000000
4.217064 0.812069 0.181111 49.000000
4.231319 0.801358 0.181517 37.000000
4.239654 0.789470 0.181720 47.000000
4.248937 0.777718 0.181957 54.000000
4.259172 0.766094 0.182228 58.000000
4.264456 0.753545 0.182330 73.000000
4.283488 0.743362 0.182905 115.000000
4.237471 0.721995 0.181246 30.000000
4.235723 0.708333 0.181111 26.000000
4.235904 0.695011 0.181043 32.000000
4.228148 0.680425 0.180705 37.000000
4.218369 0.665582 0.180298 49.000000
4.215453 0.651874 0.180129 53.000000
4.210516 0.637891 0.179892 43.000000
4.206522 0.624090 0.179689 33.000000
4.304356 0.625106 0.182973 5.000000
3.972514 1.165614 0.125451 9.000000
3.937667 1.142269 0.124585 31.000000
4.002654 1.147838 0.125970 64.000000
3.988844 1.130640 0.125581 41.000000
3.977855 1.114348 0.125256 38.000000
4.034245 1.116824 0.126446 57.000000
4.004867 1.095464 0.125711 46.000000
3.965746 1.071684 0.124758 29.000000
4.024070 1.074226 0.125992 12.000000
3.988680 1.051669 0.125126 26.000000
4.079925 1.062377 0.127095 43.000000
4.058959 1.043624 0.126554 47.000000
4.009818 1.017869 0.125386 28.000000
3.982861 0.998020 0.124715 26.000000
4.032486 0.997331 0.125754 39.000000
4.022902 0.981869 0.125472 33.000000
4.040474 0.973038 0.125797 39.000000
4.037604 0.959249 0.125667 50.000000
3.999648 0.937265 0.124758 33.000000
3.984972 0.920933 0.124369 24.000000
3.967310 0.904033 0.123914 37.000000
3.954458 0.888346 0.123568 33.000000
3.980591 0.881404 0.124087 39.000000
3.950068 0.861931 0.123352 38.000000
3.961489 0.851702 0.123546 38.000000
3.970930 0.840997 0.123698 34.000000
3.950983 0.824108 0.123200 38.000000
3.947617 0.810774 0.123070 30.000000
3.957925 0.800247 0.123243 49.000000
3.943693 0.784778 0.122876 35.000000
3.942158 0.771906 0.122789 25.000000
3.943526 0.759619 0.122767 33.000000
3.955660 0.749380 0.122984 31.000000
3.955975 0.736874 0.122941 30.000000
3.952317 0.723652 0.122811 42.000000
3.939759 0.708863 0.122486 28.000000
3.930103 0.694681 0.122226 35.000000
3.941080 0.684162 0.122421 36.000000
3.940204 0.671563 0.122356 43.000000
3.959994 0.662446 0.122746 37.000000
3.958062 0.649645 0.122659 44.000000
3.962010 0.637817 0.122702 36.000000
3.969873 0.626595 0.122832 38.000000
3.975729 0.615026 0.122919 44.000000
3.956840 0.599673 0.122464 27.000000
3.964594 0.588413 0.122594 57.000000
3.967370 0.576391 0.122616 45.000000
3.966151 0.563794 0.122551 47.000000
3.958950 0.550382 0.122356 51.000000
3.956657 0.537694 0.122270 47.000000
3.952342 0.524761 0.122140 62.000000
3.954925 0.512762 0.122161 57.000000
3.956479 0.500626 0.122161 42.000000
3.957996 0.488485 0.122161 52.000000
3.965432 0.477058 0.122291 44.000000
3.968863 0.465123 0.122335 44.000000
3.965305 0.452377 0.122226 61.000000
3.972636 0.440873 0.122356 65.000000
3.972975 0.428575 0.122335 46.000000
3.969301 0.415862 0.122226 34.000000
3.759126 1.215731 0.072581 35.000000
3.764743 1.204802 0.072599 47.000000
3.764609 1.192039 0.072562 36.000000
3.766339 1.179886 0.072544 34.000000
3.769941 1.168326 0.072544 55.000000
3.775420 1.157340 0.072562 41.000000
3.774168 1.144302 0.072516 33.000000
3.776704 1.132430 0.072507 34.000000
3.781118 1.121122 0.072516 37.000000
3.783581 1.109236 0.072507 56.000000
3.787926 1.097901 0.072516 42.000000
3.794161 1.087100 0.072544 33.000000
3.797478 1.075455 0.072544 41.000000
3.800760 1.063799 0.072544 65.000000
3.803041 1.051867 0.072535 55.000000
3.801428 1.038877 0.072488 52.000000
3.804597 1.027210 0.072488 45.000000
3.802900 1.014245 0.072442 44.000000
3.805027 1.002318 0.072433 48.000000
3.808084 0.990640 0.072433 38.000000
3.814979 0.979947 0.072470 34.000000
3.818937 0.968484 0.072479 55.000000
3.823830 0.957248 0.072498 56.000000
3.827720 0.945752 0.072507 51.000000
3.830603 0.934004 0.072507 49.000000
3.831506 0.921780 0.072488 46.000000
3.836262 0.910483 0.072507 40.000000
3.838064 0.898481 0.072498 45.000000
3.842751 0.887151 0.072516 46.000000
3.848379 0.876023 0.072544 40.000000
3.853001 0.864650 0.072562 47.000000
3.853682 0.852394 0.072544 55.000000
3.857256 0.840780 0.072553 45.000000
3.858840 0.828732 0.072544 50.000000
3.862343 0.817096 0.072553 61.000000
3.862874 0.804835 0.072535 47.000000
3.865325 0.792980 0.072535 51.000000
3.872640 0.782107 0.072581 41.000000
3.876002 0.770417 0.072590 46.000000
3.874422 0.757755 0.072553 59.000000
3.876729 0.745865 0.072553 51.000000
3.878016 0.733782 0.072544 51.000000
3.884181 0.722612 0.072581 58.000000
3.885396 0.710512 0.072572 55.000000
3.888542 0.698765 0.072581 44.000000
3.893622 0.687353 0.072609 45.000000
3.897683 0.675746 0.072627 45.000000
3.903681 0.664456 0.072664 45.000000
3.905701 0.652476 0.072664 58.000000
3.905711 0.640168 0.072646 58.000000
3.906669 0.628023 0.072636 57.000000
3.910553 0.616346 0.072655 43.000000
3.911437 0.604193 0.072646 50.000000
3.909318 0.591592 0.072609 38.000000
3.913092 0.579889 0.072627 34.000000
3.917822 0.568311 0.072655 53.000000
3.925487 0.557131 0.072710 62.000000
3.924207 0.544673 0.072683 51.000000
3.925859 0.532631 0.072683 61.000000
3.932431 0.521241 0.072729 39.000000
3.929054 0.508533 0.072683 51.000000
3.929603 0.496351 0.072673 57.000000
3.930115 0.484171 0.072664 58.000000
3.935553 0.472587 0.072701 42.000000
3.943937 0.461324 0.072766 40.000000
3.942353 0.448883 0.072738 61.000000
3.951663 0.437665 0.072812 50.000000
3.956964 0.425967 0.072849 43.000000
3.960241 0.414033 0.072868 50.000000
3.962488 0.401982 0.072877 16.000000
3.743746 1.211645 0.023183 35.000000
3.749350 1.200764 0.023177 36.000000
3.752063 1.188953 0.023180 31.000000
3.758555 1.178335 0.023170 50.000000
3.763108 1.167095 0.023167 39.000000
3.764759 1.154957 0.023174 64.000000
3.765414 1.142530 0.023183 47.000000
3.763155 1.129246 0.023203 38.000000
3.766602 1.117695 0.023203 43.000000
3.769054 1.105853 0.023207 51.000000
3.773389 1.094563 0.023203 34.000000
3.779613 1.083809 0.023193 34.000000
3.785806 1.073027 0.023183 33.000000
3.791969 1.062217 0.023174 46.000000
3.795210 1.050579 0.023174 55.000000
3.795522 1.038138 0.023183 40.000000
3.797724 1.026228 0.023187 40.000000
3.796024 1.013281 0.023203 50.000000
3.799114 1.001630 0.023203 50.000000
3.802170 0.989969 0.023203 52.000000
3.807126 0.978799 0.023197 45.000000
3.812049 0.967606 0.023190 45.000000
3.815970 0.956150 0.023187 48.000000
3.819856 0.944679 0.023183 51.000000
3.822736 0.932955 0.023183 39.000000
3.824608 0.920988 0.023187 36.000000
3.830334 0.909944 0.023177 31.000000
3.832134 0.897960 0.023180 47.000000
3.831949 0.885523 0.023190 30.000000
3.836597 0.874208 0.023183 52.000000
3.836334 0.861775 0.023193 31.000000
3.837984 0.849784 0.023197 34.000000
3.839596 0.837792 0.023200 49.000000
3.838238 0.825167 0.023213 49.000000
3.840751 0.813387 0.023213 45.000000
3.843229 0.801600 0.023213 46.000000
3.848608 0.790410 0.023203 45.000000
3.851015 0.778599 0.023203 49.000000
3.853386 0.766780 0.023203 41.000000
3.857683 0.755340 0.023197 48.000000
3.859982 0.743501 0.023197 41.000000
3.864210 0.732028 0.023190 51.000000
3.869386 0.720719 0.023180 41.000000
3.868628 0.708304 0.023190 26.000000
3.876688 0.697496 0.023170 40.000000
3.883733 0.686471 0.023154 48.000000
3.883851 0.674210 0.023160 45.000000
3.888858 0.662796 0.023150 48.000000
3.888901 0.650532 0.023157 58.000000
3.883971 0.637462 0.023180 41.000000
3.887883 0.625861 0.023174 65.000000
3.892748 0.614399 0.023164 44.000000
3.891650 0.601994 0.023174 42.000000
3.894467 0.590202 0.023170 49.000000
3.899227 0.578692 0.023160 65.000000
3.902963 0.567015 0.023154 49.000000
3.905674 0.555179 0.023150 46.000000
3.911321 0.543746 0.023137 59.000000
3.910989 0.531474 0.023144 60.000000
3.913592 0.519605 0.023140 62.000000
3.920126 0.508240 0.023124 41.000000
3.922659 0.496336 0.023120 60.000000
3.928133 0.484791 0.023107 73.000000
3.929602 0.472737 0.023107 61.000000
3.929048 0.460446 0.023114 60.000000
3.930442 0.448389 0.023114 55.000000
3.931799 0.436329 0.023114 29.000000
3.936101 0.424587 0.023104 59.000000
3.941363 0.412927 0.023091 43.000000
3.944602 0.401036 0.023084 20.000000
3.724282 1.231194 -0.025192 32.000000
3.721389 1.217586 -0.025082 42.000000
3.726058 1.206471 -0.025097 40.000000
3.729742 1.195034 -0.025097 34.000000
3.733391 1.183586 -0.025097 46.000000
3.737004 1.172127 -0.025097 48.000000
3.737718 1.159767 -0.025050 47.000000
3.738391 1.147415 -0.025003 48.000000
3.742850 1.136231 -0.025019 53.000000
3.742488 1.123593 -0.024956 56.000000
3.740166 1.110399 -0.024862 36.000000
3.743555 1.098919 -0.024862 43.000000
3.746909 1.087429 -0.024862 27.000000
3.751188 1.076204 -0.024877 46.000000
3.758320 1.065781 -0.024940 55.000000
3.762535 1.054515 -0.024956 54.000000
3.769607 1.044034 -0.025019 47.000000
3.774721 1.032992 -0.025050 57.000000
3.775942 1.020885 -0.025019 55.000000
3.775192 1.008264 -0.024956 54.000000
3.778268 0.996677 -0.024956 60.000000
3.782276 0.985333 -0.024972 42.000000
3.786249 0.973973 -0.024987 54.000000
3.793096 0.963337 -0.025050 54.000000
3.797004 0.951938 -0.025066 61.000000
3.796994 0.939564 -0.025019 44.000000
3.801802 0.928385 -0.025050 48.000000
3.801716 0.916015 -0.025003 59.000000
3.802562 0.903885 -0.024972 50.000000
3.806291 0.892442 -0.024987 54.000000
3.807063 0.880310 -0.024956 43.000000
3.812670 0.869293 -0.025003 62.000000
3.818246 0.858249 -0.025050 50.000000
3.821837 0.846747 -0.025066 58.000000
3.823440 0.834805 -0.025050 49.000000
3.825984 0.823071 -0.025050 43.000000
3.832403 0.812158 -0.025113 51.000000
3.834877 0.800396 -0.025113 49.000000
3.839273 0.789029 -0.025144 59.000000
3.840696 0.777049 -0.025129 53.000000
3.843062 0.765262 -0.025129 51.000000
3.849316 0.754237 -0.025192 45.000000
3.853576 0.742802 -0.025223 53.000000
3.853872 0.730604 -0.025192 48.000000
3.856095 0.718777 -0.025192 41.000000
3.861233 0.707483 -0.025239 32.000000
3.864369 0.695811 -0.025254 53.000000
3.868455 0.684300 -0.025286 56.000000
3.870536 0.672429 -0.025286 55.000000
3.873567 0.660719 -0.025301 52.000000
3.868672 0.647677 -0.025192 35.000000
3.873601 0.636291 -0.025239 50.000000
3.869612 0.623450 -0.025144 62.000000
3.870519 0.611419 -0.025129 45.000000
3.871388 0.599389 -0.025113 41.000000
3.876175 0.587959 -0.025160 40.000000
3.878950 0.576211 -0.025176 46.000000
3.886636 0.565170 -0.025270 50.000000
3.889341 0.553384 -0.025286 50.000000
3.893992 0.541862 -0.025333 45.000000
3.897618 0.530183 -0.025364 43.000000
3.899226 0.518222 -0.025364 43.000000
3.900797 0.506257 -0.025364 55.000000
3.906300 0.494790 -0.025427 53.000000
3.910777 0.483171 -0.025474 52.000000
3.915219 0.471529 -0.025521 56.000000
3.918633 0.459747 -0.025553 49.000000
3.923999 0.448176 -0.025616 62.000000
3.926349 0.436246 -0.025631 49.000000
3.929657 0.424413 -0.025663 72.000000
3.933924 0.412667 -0.025710 57.000000
3.936166 0.400697 -0.025726 66.000000
3.937377 0.388620 -0.025726 51.000000
3.940542 0.376728 -0.025757 36.000000
3.712051 1.226593 -0.071901 38.000000
3.716747 1.215509 -0.071928 54.000000
3.713802 1.201944 -0.071734 38.000000
3.712713 1.189019 -0.071595 34.000000
3.700145 1.172485 -0.071124 27.000000
3.710401 1.163223 -0.071318 48.000000
3.708224 1.150055 -0.071151 43.000000
3.713646 1.139260 -0.071207 48.000000
3.715211 1.127281 -0.071151 41.000000
3.721524 1.116740 -0.071235 55.000000
3.724932 1.105317 -0.071235 39.000000
3.730224 1.094447 -0.071290 41.000000
3.734524 1.083277 -0.071318 35.000000
3.737830 1.071815 -0.071318 46.000000
3.739178 1.059796 -0.071262 42.000000
3.744337 1.048859 -0.071318 47.000000
3.747537 1.037367 -0.071318 46.000000
3.751666 1.026129 -0.071346 44.000000
3.758656 1.015658 -0.071457 46.000000
3.763686 1.004638 -0.071512 34.000000
3.768683 0.993597 -0.071568 47.000000
3.771714 0.982030 -0.071568 45.000000
3.774709 0.970454 -0.071568 33.000000
3.775731 0.958376 -0.071512 38.000000
3.777684 0.946545 -0.071484 43.000000
3.774748 0.933509 -0.071318 35.000000
3.777594 0.921924 -0.071318 46.000000
3.781377 0.910564 -0.071346 47.000000
3.785125 0.899190 -0.071373 53.000000
3.784946 0.886888 -0.071290 37.000000
3.790571 0.875948 -0.071373 52.000000
3.794215 0.864537 -0.071401 41.000000
3.799775 0.853551 -0.071484 46.000000
3.801400 0.841673 -0.071457 33.000000
3.802011 0.829580 -0.071401 35.000000
3.806493 0.818332 -0.071457 43.000000
3.809963 0.806857 -0.071484 41.000000
3.816335 0.795982 -0.071595 44.000000
3.819738 0.784472 -0.071623 42.000000
3.821147 0.772551 -0.071595 34.000000
3.827421 0.761606 -0.071706 41.000000
3.827777 0.749475 -0.071651 43.000000
3.829077 0.737539 -0.071623 42.000000
3.829358 0.725415 -0.071568 34.000000
3.825670 0.712563 -0.071401 46.000000
3.829804 0.701183 -0.071457 48.000000
3.834888 0.689962 -0.071540 42.000000
3.835019 0.677845 -0.071484 35.000000
3.843974 0.667275 -0.071679 45.000000
3.841076 0.654638 -0.071540 36.000000
3.844052 0.643016 -0.071568 44.000000
3.846993 0.631381 -0.071595 52.000000
3.847926 0.619417 -0.071568 53.000000
3.849808 0.607609 -0.071568 52.000000
3.856593 0.596560 -0.071706 49.000000
3.862358 0.585326 -0.071817 33.000000
3.868091 0.574062 -0.071928 49.000000
3.873790 0.562768 -0.072039 48.000000
3.878468 0.551304 -0.072123 41.000000
3.881131 0.539540 -0.072150 57.000000
3.882768 0.527630 -0.072150 60.000000
3.884368 0.515716 -0.072150 57.000000
3.883950 0.503539 -0.072095 48.000000
3.890435 0.492249 -0.072234 46.000000
3.892918 0.480434 -0.072261 49.000000
3.894374 0.468488 -0.072261 46.000000
3.895793 0.456538 -0.072261 45.000000
3.902141 0.445152 -0.072400 47.000000
3.906469 0.433510 -0.072483 55.000000
3.908774 0.421631 -0.072511 44.000000
3.912038 0.409846 -0.072567 53.000000
3.912282 0.397740 -0.072539 32.000000
3.914479 0.385834 -0.072567 54.000000
3.706389 1.200105 -0.120337 38.000000
3.707198 1.187814 -0.120216 28.000000
3.708920 1.175831 -0.120135 37.000000
3.707743 1.162952 -0.119934 33.000000
3.709385 1.150979 -0.119853 47.000000
3.707167 1.137835 -0.119611 28.000000
3.709684 1.126166 -0.119571 62.000000
3.716950 1.115928 -0.119732 48.000000
3.720356 1.104520 -0.119732 52.000000
3.726604 1.093945 -0.119853 47.000000
3.729942 1.082506 -0.119853 38.000000
3.734206 1.071333 -0.119893 47.000000
3.736514 1.059600 -0.119853 36.000000
3.737823 1.047592 -0.119772 46.000000
3.741982 1.036386 -0.119813 38.000000
3.746108 1.025165 -0.119853 45.000000
3.749235 1.013667 -0.119853 44.000000
3.752328 1.002160 -0.119853 49.000000
3.755384 0.990643 -0.119853 38.000000
3.758406 0.979117 -0.119853 32.000000
3.757522 0.966586 -0.119692 42.000000
3.754658 0.953579 -0.119450 64.000000
3.754659 0.941326 -0.119329 43.000000
3.759469 0.930283 -0.119410 47.000000
3.761335 0.918508 -0.119369 49.000000
3.766078 0.907431 -0.119450 50.000000
3.772732 0.896797 -0.119611 59.000000
3.767684 0.883394 -0.119289 29.000000
3.781085 0.874306 -0.119732 43.000000
3.784723 0.862924 -0.119772 42.000000
3.786378 0.851089 -0.119732 46.000000
3.788971 0.839469 -0.119732 54.000000
3.791529 0.827841 -0.119732 45.000000
3.794051 0.816204 -0.119732 46.000000
3.794582 0.804146 -0.119652 39.000000
3.796053 0.792297 -0.119611 42.000000
3.798466 0.780647 -0.119611 47.000000
3.799864 0.768792 -0.119571 57.000000
3.804164 0.757520 -0.119652 48.000000
3.804510 0.745462 -0.119571 40.000000
3.809722 0.734353 -0.119692 32.000000
3.813921 0.723034 -0.119772 38.000000
3.819068 0.711878 -0.119893 38.000000
3.823200 0.700518 -0.119974 42.000000
3.826314 0.688963 -0.120014 47.000000
3.827426 0.677047 -0.119974 55.000000
3.831454 0.665643 -0.120055 53.000000
3.830523 0.653381 -0.119934 48.000000
3.831524 0.641461 -0.119893 38.000000
3.833474 0.629703 -0.119893 48.000000
3.834401 0.617781 -0.119853 40.000000
3.837265 0.606170 -0.119893 45.000000
3.842069 0.594853 -0.120014 43.000000
3.843877 0.583063 -0.120014 43.000000
3.850589 0.572001 -0.120216 46.000000
3.850348 0.559897 -0.120135 40.000000
3.853037 0.548222 -0.120176 48.000000
3.858660 0.536949 -0.120337 64.000000
3.860289 0.525109 -0.120337 51.000000
3.863863 0.513526 -0.120417 58.000000
3.868392 0.502055 -0.120538 53.000000
3.871897 0.490435 -0.120619 42.000000
3.875367 0.478799 -0.120699 53.000000
3.876817 0.466908 -0.120699 48.000000
3.879224 0.455128 -0.120740 49.000000
3.882587 0.443451 -0.120820 73.000000
3.885916 0.431758 -0.120901 58.000000
3.886229 0.419727 -0.120861 39.000000
3.894455 0.408531 -0.121143 30.000000
3.896684 0.396682 -0.121183 37.000000
3.903848 0.385314 -0.121425 18.000000
3.671618 1.186868 -0.165219 31.000000
3.678096 1.176512 -0.165376 28.000000
3.683592 1.165825 -0.165481 30.000000
3.690010 1.155414 -0.165638 42.000000
3.690676 1.143201 -0.165481 38.000000
3.691302 1.130994 -0.165324 39.000000
3.692843 1.119084 -0.165219 42.000000
3.695302 1.107463 -0.165167 46.000000
3.697725 1.095836 -0.165114 59.000000
3.702986 1.085049 -0.165219 29.000000
3.708216 1.074239 -0.165324 54.000000
3.714374 1.063683 -0.165481 40.000000
3.718581 1.052555 -0.165533 45.000000
3.719869 1.040603 -0.165428 53.000000
3.720157 1.028387 -0.165271 37.000000
3.724258 1.017232 -0.165324 45.000000
3.727361 1.005801 -0.165324 33.000000
3.726570 0.993331 -0.165114 38.000000
3.731531 0.982403 -0.165219 60.000000
3.729695 0.969692 -0.164957 32.000000
3.733620 0.958493 -0.165010 42.000000
3.733639 0.946297 -0.164853 47.000000
3.731681 0.933625 -0.164591 41.000000
3.733559 0.921932 -0.164539 39.000000
3.736370 0.910473 -0.164539 37.000000
3.739145 0.899006 -0.164539 48.000000
3.745772 0.888453 -0.164748 56.000000
3.751397 0.877641 -0.164905 42.000000
3.758937 0.867251 -0.165167 40.000000
3.767422 0.857046 -0.165481 50.000000
3.767111 0.844827 -0.165324 44.000000
3.772610 0.833913 -0.165481 40.000000
3.775151 0.822335 -0.165481 42.000000
3.774727 0.810120 -0.165324 65.000000
3.780126 0.799156 -0.165481 34.000000
3.778649 0.786740 -0.165271 41.000000
3.783001 0.775545 -0.165376 47.000000
3.787320 0.764331 -0.165481 40.000000
3.789648 0.752708 -0.165481 35.000000
3.791939 0.741078 -0.165481 52.000000
3.796156 0.729818 -0.165585 41.000000
3.799358 0.718354 -0.165638 43.000000
3.803508 0.707060 -0.165742 49.000000
3.806641 0.695568 -0.165795 43.000000
3.813672 0.684770 -0.166056 56.000000
3.816738 0.673240 -0.166109 45.000000
3.817802 0.661357 -0.166056 34.000000
3.820797 0.649809 -0.166109 48.000000
3.824743 0.638413 -0.166213 50.000000
3.823727 0.626191 -0.166056 62.000000
3.825630 0.614457 -0.166056 57.000000
3.828484 0.602872 -0.166109 44.000000
3.836236 0.592040 -0.166423 65.000000
3.840997 0.580716 -0.166580 56.000000
3.847699 0.569662 -0.166841 62.000000
3.846464 0.557424 -0.166684 50.000000
3.852111 0.546183 -0.166894 67.000000
3.849812 0.533813 -0.166684 42.000000
3.849453 0.521730 -0.166580 51.000000
3.850045 0.509786 -0.166527 45.000000
3.852582 0.498100 -0.166580 62.000000
3.855083 0.486404 -0.166632 62.000000
3.855566 0.474452 -0.166580 47.000000
3.857003 0.462621 -0.166580 45.000000
3.859396 0.450902 -0.166632 51.000000
3.860761 0.439059 -0.166632 53.000000
3.864075 0.427433 -0.166737 54.000000
3.871325 0.416218 -0.167051 36.000000
3.875564 0.404651 -0.167208 60.000000
3.883742 0.393466 -0.167574 54.000000
3.890893 0.382137 -0.167888 30.000000
3.657027 1.184127 -0.212047 35.000000
3.661592 1.173206 -0.212111 30.000000
3.666126 1.162268 -0.212176 30.000000
3.669674 1.151015 -0.212176 51.000000
3.676047 1.140639 -0.212370 49.000000
3.681438 1.129941 -0.212500 30.000000
3.680113 1.117192 -0.212176 41.000000
3.683523 1.105896 -0.212176 54.000000
3.684985 1.094022 -0.212047 58.000000
3.687366 1.082431 -0.211982 48.000000
3.689711 1.070835 -0.211917 36.000000
3.696816 1.060610 -0.212176 44.000000
3.701013 1.049536 -0.212241 48.000000
3.706137 1.038715 -0.212370 41.000000
3.709306 1.027340 -0.212370 52.000000
3.711478 1.015692 -0.212305 39.000000
3.709760 1.002998 -0.211982 41.000000
3.712820 0.991612 -0.211982 45.000000
3.711985 0.979199 -0.211723 47.000000
3.714006 0.967555 -0.211658 47.000000
3.718890 0.956653 -0.211788 42.000000
3.721807 0.945239 -0.211788 42.000000
3.727594 0.934544 -0.211982 35.000000
3.736256 0.924541 -0.212370 45.000000
3.737135 0.912601 -0.212241 39.000000
3.741858 0.901598 -0.212370 48.000000
3.747519 0.890806 -0.212564 50.000000
3.751206 0.879533 -0.212629 32.000000
3.749998 0.867121 -0.212370 42.000000
3.755559 0.856277 -0.212564 34.000000
3.754274 0.843876 -0.212305 47.000000
3.757820 0.832570 -0.212370 62.000000
3.767181 0.822527 -0.212823 36.000000
3.768711 0.810756 -0.212758 45.000000
3.772157 0.799396 -0.212823 40.000000
3.779476 0.788839 -0.213147 53.000000
3.781878 0.777240 -0.213147 50.000000
3.783267 0.765436 -0.213082 39.000000
3.782661 0.753241 -0.212888 63.000000
3.785934 0.741824 -0.212952 46.000000
3.785253 0.729639 -0.212758 44.000000
3.787473 0.718023 -0.212758 46.000000
3.790639 0.706582 -0.212823 38.000000
3.791807 0.694770 -0.212758 33.000000
3.798831 0.684017 -0.213082 55.000000
3.801895 0.672533 -0.213147 41.000000
3.803940 0.660866 -0.213147 45.000000
3.805950 0.649192 -0.213147 42.000000
3.810877 0.638007 -0.213341 41.000000
3.810847 0.625989 -0.213211 35.000000
3.812749 0.614294 -0.213211 42.000000
3.811659 0.602127 -0.213017 32.000000
3.817433 0.591041 -0.213276 43.000000
3.821201 0.579625 -0.213405 45.000000
3.825923 0.568339 -0.213600 59.000000
3.830611 0.557029 -0.213794 49.000000
3.836254 0.545836 -0.214052 62.000000
3.838899 0.534202 -0.214117 49.000000
3.837553 0.522018 -0.213923 41.000000
3.841115 0.510505 -0.214052 48.000000
3.841673 0.498590 -0.213988 57.000000
3.845165 0.487052 -0.214117 55.000000
3.844661 0.475009 -0.213988 54.000000
3.846100 0.463211 -0.213988 69.000000
3.848494 0.451525 -0.214052 54.000000
3.854818 0.440282 -0.214376 41.000000
3.853176 0.428123 -0.214182 50.000000
3.856455 0.416514 -0.214311 41.000000
3.856722 0.404576 -0.214247 38.000000
3.859931 0.392944 -0.214376 40.000000
3.863105 0.381296 -0.214505 41.000000
3.883131 0.371245 -0.215735 17.000000
3.645025 1.178262 -0.256696 35.000000
3.648622 1.167074 -0.256696 39.000000
3.647433 1.154369 -0.256313 37.000000
3.648103 1.142279 -0.256084 50.000000
3.650638 1.130786 -0.256007 44.000000
3.651231 1.118703 -0.255778 47.000000
3.652737 1.106917 -0.255624 33.000000
3.655161 1.095419 -0.255548 39.000000
3.658504 1.084200 -0.255548 34.000000
3.661813 1.072971 -0.255548 40.000000
3.663173 1.061176 -0.255395 37.000000
3.666411 1.049933 -0.255395 46.000000
3.666737 1.037864 -0.255165 39.000000
3.674705 1.027954 -0.255548 36.000000
3.681685 1.017739 -0.255854 35.000000
3.679019 1.004861 -0.255395 50.000000
3.684973 0.994349 -0.255624 47.000000
3.693786 0.984582 -0.256084 39.000000
3.696790 0.973245 -0.256084 58.000000
3.705547 0.963406 -0.256543 40.000000
3.710417 0.952529 -0.256696 41.000000
3.713322 0.941141 -0.256696 38.000000
3.715225 0.929502 -0.256620 35.000000
3.719027 0.918339 -0.256696 56.000000
3.715046 0.905271 -0.256160 69.000000
3.716836 0.893635 -0.256084 43.000000
3.726351 0.883841 -0.256620 30.000000
3.721279 0.870585 -0.256007 53.000000
3.721990 0.858715 -0.255854 38.000000
3.727523 0.847957 -0.256084 47.000000
3.730107 0.836517 -0.256084 47.000000
3.734603 0.825500 -0.256237 46.000000
3.733221 0.813189 -0.255931 55.000000
3.736673 0.801941 -0.256007 44.000000
3.744968 0.791712 -0.256466 40.000000
3.741523 0.778998 -0.256007 61.000000
3.751709 0.769120 -0.256620 32.000000
3.749165 0.756618 -0.256237 40.000000
3.749512 0.744724 -0.256084 48.000000
3.753737 0.733600 -0.256237 44.000000
3.754012 0.721703 -0.256084 46.000000
3.755228 0.709997 -0.256007 37.000000
3.762290 0.699385 -0.256390 39.000000
3.767360 0.688378 -0.256620 38.000000
3.774361 0.677699 -0.257002 50.000000
3.775440 0.665943 -0.256926 48.000000
3.780413 0.654868 -0.257155 56.000000
3.784370 0.643602 -0.257308 51.000000
3.787311 0.632153 -0.257385 57.000000
3.792184 0.621015 -0.257615 41.000000
3.797024 0.609853 -0.257844 42.000000
3.798877 0.598201 -0.257844 41.000000
3.806607 0.587458 -0.258303 48.000000
3.805434 0.575329 -0.258074 54.000000
3.807181 0.563651 -0.258074 49.000000
3.810866 0.552255 -0.258227 50.000000
3.813529 0.540701 -0.258303 50.000000
3.817145 0.529273 -0.258457 51.000000
3.819739 0.517694 -0.258533 55.000000
3.823286 0.506235 -0.258686 48.000000
3.828777 0.495015 -0.258992 41.000000
3.829288 0.483142 -0.258916 56.000000
3.831742 0.471513 -0.258992 42.000000
3.833170 0.459755 -0.258992 41.000000
3.834563 0.447993 -0.258992 58.000000
3.835919 0.436227 -0.258992 39.000000
3.836248 0.424346 -0.258916 50.000000
3.836541 0.412468 -0.258839 43.000000
3.837788 0.400696 -0.258839 49.000000
3.840984 0.389121 -0.258992 41.000000
3.842159 0.377336 -0.258992 41.000000
3.847269 0.365925 -0.259299 15.000000
3.629842 1.173934 -0.302217 38.000000
3.634376 1.163096 -0.302306 35.000000
3.635078 1.151038 -0.302040 35.000000
3.635740 1.138988 -0.301773 43.000000
3.636363 1.126944 -0.301507 50.000000
3.640756 1.116074 -0.301596 44.000000
3.646069 1.105477 -0.301773 30.000000
3.648489 1.094000 -0.301685 52.000000
3.653739 1.083367 -0.301862 46.000000
3.656090 1.071873 -0.301773 46.000000
3.662231 1.061482 -0.302040 35.000000
3.665470 1.050242 -0.302040 43.000000
3.662925 1.037363 -0.301507 45.000000
3.666090 1.026121 -0.301507 46.000000
3.669221 1.014868 -0.301507 45.000000
3.671356 1.003344 -0.301419 47.000000
3.675379 0.992336 -0.301507 45.000000
3.677444 0.980798 -0.301419 49.000000
3.678509 0.969004 -0.301241 39.000000
3.683393 0.958216 -0.301419 44.000000
3.686315 0.946911 -0.301419 46.000000
3.688237 0.935352 -0.301330 56.000000
3.693022 0.924516 -0.301507 47.000000
3.695841 0.913181 -0.301507 36.000000
3.697657 0.901603 -0.301419 38.000000
3.704280 0.891186 -0.301773 44.000000
3.708935 0.880277 -0.301951 38.000000
3.712588 0.869121 -0.302040 39.000000
3.716207 0.857950 -0.302128 39.000000
3.714937 0.845661 -0.301773 52.000000
3.717514 0.834260 -0.301773 40.000000
3.717138 0.822206 -0.301507 36.000000
3.712831 0.809314 -0.300886 54.000000
3.713348 0.797501 -0.300709 44.000000
3.715778 0.786105 -0.300709 54.000000
3.719147 0.774904 -0.300797 62.000000
3.723458 0.763891 -0.300975 53.000000
3.727737 0.752858 -0.301152 40.000000
3.731006 0.741612 -0.301241 44.000000
3.736197 0.730735 -0.301507 41.000000
3.739399 0.719457 -0.301596 56.000000
3.739632 0.707611 -0.301419 43.000000
3.743743 0.696499 -0.301596 41.000000
3.749782 0.685727 -0.301951 45.000000
3.754809 0.674747 -0.302217 39.000000
3.756861 0.663225 -0.302217 44.000000
3.760841 0.652036 -0.302394 44.000000
3.762824 0.640495 -0.302394 53.000000
3.765754 0.629111 -0.302483 37.000000
3.769632 0.617877 -0.302661 48.000000
3.773477 0.606625 -0.302838 37.000000
3.774337 0.594891 -0.302749 49.000000
3.780081 0.583916 -0.303104 46.000000
3.780870 0.572167 -0.303016 48.000000
3.784578 0.560857 -0.303193 46.000000
3.789238 0.549672 -0.303459 48.000000
3.791893 0.538184 -0.303548 58.000000
3.793526 0.526548 -0.303548 42.000000
3.798085 0.515309 -0.303814 45.000000
3.802610 0.504046 -0.304080 47.000000
3.808090 0.492889 -0.304435 47.000000
3.811561 0.481453 -0.304612 39.000000
3.814997 0.470000 -0.304790 50.000000
3.814443 0.458056 -0.304612 46.000000
3.813852 0.446121 -0.304435 58.000000
3.815202 0.434418 -0.304435 53.000000
3.815527 0.422601 -0.304346 48.000000
3.819777 0.411213 -0.304612 38.000000
3.825974 0.400009 -0.305056 49.000000
3.829165 0.388470 -0.305234 51.000000
3.833313 0.377013 -0.305500 39.000000
3.838418 0.365628 -0.305855 22.000000
3.600833 1.164654 -0.347299 39.000000
3.606284 1.154208 -0.347501 30.000000
3.614550 1.144642 -0.348007 35.000000
3.618994 1.133845 -0.348108 42.000000
3.624356 1.123327 -0.348311 41.000000
3.633492 1.113953 -0.348918 38.000000
3.639748 1.103668 -0.349222 50.000000
3.645023 1.093068 -0.349424 38.000000
3.642637 1.080181 -0.348817 50.000000
3.642115 1.067880 -0.348412 35.000000
3.646330 1.056978 -0.348513 48.000000
3.649555 1.045787 -0.348513 36.000000
3.649875 1.033771 -0.348210 43.000000
3.651114 1.022031 -0.348007 55.000000
3.653273 1.010559 -0.347906 43.000000
3.661155 1.000659 -0.348412 40.000000
3.665168 0.989682 -0.348513 38.000000
3.665303 0.977663 -0.348210 54.000000
3.666361 0.965906 -0.348007 55.000000
3.671233 0.955155 -0.348210 38.000000
3.671256 0.943143 -0.347906 55.000000
3.678953 0.933100 -0.348412 42.000000
3.682763 0.922051 -0.348513 52.000000
3.683644 0.910270 -0.348311 56.000000
3.691251 0.900144 -0.348817 31.000000
3.688192 0.887417 -0.348210 60.000000
3.690897 0.876098 -0.348210 58.000000
3.698411 0.865906 -0.348716 38.000000
3.695234 0.853210 -0.348108 47.000000
3.698804 0.842091 -0.348210 49.000000
3.703312 0.831175 -0.348412 62.000000
3.702930 0.819164 -0.348108 58.000000
3.706398 0.808012 -0.348210 49.000000
3.705942 0.796010 -0.347906 30.000000
3.702527 0.783399 -0.347299 38.000000
3.701992 0.771426 -0.346995 45.000000
3.699468 0.759064 -0.346489 69.000000
3.715431 0.750472 -0.347906 39.000000
3.715765 0.738681 -0.347704 49.000000
3.725824 0.728808 -0.348513 58.000000
3.730973 0.717939 -0.348817 53.000000
3.733158 0.706489 -0.348817 56.000000
3.732374 0.694486 -0.348513 32.000000
3.736444 0.683390 -0.348716 43.000000
3.737544 0.671748 -0.348615 40.000000
3.740567 0.660451 -0.348716 56.000000
3.743556 0.649142 -0.348817 35.000000
3.745530 0.637654 -0.348817 58.000000
3.751393 0.626817 -0.349222 49.000000
3.753298 0.615305 -0.349222 51.000000
3.753204 0.603471 -0.349020 46.000000
3.756021 0.592109 -0.349121 51.000000
3.760769 0.581039 -0.349424 54.000000
3.758599 0.568902 -0.349020 51.000000
3.758359 0.557075 -0.348817 56.000000
3.758081 0.545256 -0.348615 46.000000
3.758752 0.533584 -0.348513 64.000000
3.763327 0.522461 -0.348817 63.000000
3.766884 0.511181 -0.349020 60.000000
3.770407 0.499884 -0.349222 66.000000
3.777842 0.489082 -0.349829 57.000000
3.785247 0.478240 -0.350437 58.000000
3.792620 0.467356 -0.351044 56.000000
3.796999 0.456075 -0.351348 48.000000
3.799369 0.444540 -0.351449 47.000000
3.799726 0.432769 -0.351348 45.000000
3.802025 0.421219 -0.351449 66.000000
3.801321 0.409339 -0.351247 49.000000
3.801570 0.397571 -0.351145 53.000000
3.800792 0.385705 -0.350943 49.000000
3.802948 0.374140 -0.351044 45.000000
3.805068 0.362566 -0.351145 36.000000
3.578151 1.157909 -0.389851 41.000000
3.587365 1.148744 -0.390529 36.000000
3.595608 1.139233 -0.391095 44.000000
3.601931 1.129087 -0.391434 37.000000
3.609174 1.119208 -0.391886 42.000000
3.610691 1.107548 -0.391660 48.000000
3.612170 1.095888 -0.391434 49.000000
3.612660 1.083945 -0.391095 47.000000
3.612159 1.071726 -0.390642 47.000000
3.615429 1.060639 -0.390642 53.000000
3.618667 1.049542 -0.390642 50.000000
3.621870 1.038435 -0.390642 51.000000
3.625038 1.027319 -0.390642 41.000000
3.629130 1.016460 -0.390756 48.000000
3.634146 1.005851 -0.390982 41.000000
3.642966 0.996269 -0.391660 40.000000
3.644087 0.984570 -0.391434 42.000000
3.644210 0.972617 -0.391095 26.000000
3.651981 0.962698 -0.391660 42.000000
3.652032 0.950739 -0.391321 43.000000
3.653008 0.939035 -0.391095 53.000000
3.652019 0.926846 -0.390642 36.000000
3.655809 0.915879 -0.390756 42.000000
3.658602 0.904659 -0.390756 45.000000
3.660395 0.893195 -0.390642 53.000000
3.664084 0.882193 -0.390756 37.000000
3.671607 0.872095 -0.391321 50.000000
3.681037 0.862413 -0.392112 31.000000
3.683665 0.851115 -0.392112 35.000000
3.680446 0.838486 -0.391434 36.000000
3.683002 0.827191 -0.391434 32.000000
3.684552 0.815673 -0.391321 37.000000
3.684124 0.803730 -0.390982 40.000000
3.683659 0.791798 -0.390642 41.000000
3.677322 0.778641 -0.389625 32.000000
3.688448 0.769180 -0.390642 49.000000
3.696630 0.759059 -0.391321 40.000000
3.700890 0.748108 -0.391547 40.000000
3.707065 0.737525 -0.391999 38.000000
3.712236 0.726721 -0.392338 44.000000
3.714448 0.715329 -0.392338 36.000000
3.719553 0.704484 -0.392677 31.000000
3.715836 0.691978 -0.391999 35.000000
3.716965 0.680396 -0.391886 49.000000
3.721969 0.669517 -0.392225 48.000000
3.727919 0.658786 -0.392677 40.000000
3.733838 0.648025 -0.393129 40.000000
3.740706 0.637401 -0.393694 27.000000
3.742644 0.625922 -0.393694 34.000000
3.747488 0.614919 -0.394033 39.000000
3.749357 0.603419 -0.394033 31.000000
3.751191 0.591913 -0.394033 39.000000
3.751025 0.580098 -0.393807 40.000000
3.751805 0.568439 -0.393694 36.000000
3.754514 0.557072 -0.393807 49.000000
3.758172 0.545836 -0.394033 39.000000
3.764747 0.535002 -0.394599 38.000000
3.767355 0.523586 -0.394712 41.000000
3.768944 0.512025 -0.394712 42.000000
3.775422 0.501113 -0.395277 50.000000
3.774971 0.489273 -0.395051 54.000000
3.776454 0.477689 -0.395051 36.000000
3.780860 0.466465 -0.395390 29.000000
3.776355 0.454152 -0.394712 42.000000
3.775757 0.442334 -0.394485 40.000000
3.777096 0.430748 -0.394485 39.000000
3.777412 0.419048 -0.394372 43.000000
3.782631 0.407883 -0.394825 42.000000
3.788806 0.396793 -0.395390 40.000000
3.790005 0.385167 -0.395390 38.000000
3.795125 0.373927 -0.395842 34.000000
3.794276 0.362094 -0.395616 39.000000
3.781517 0.349174 -0.394033 9.000000
3.570163 1.154723 -0.435849 41.000000
3.574634 1.144068 -0.435975 31.000000
3.576236 1.132496 -0.435724 36.000000
3.578747 1.121222 -0.435599 33.000000
3.585012 1.111119 -0.435975 32.000000
3.583662 1.098660 -0.435348 49.000000
3.582269 1.086219 -0.434721 49.000000
3.586535 1.075509 -0.434847 36.000000
3.588866 1.064218 -0.434721 28.000000
3.593067 1.053482 -0.434847 40.000000
3.605809 1.045219 -0.436100 40.000000
3.604231 1.032784 -0.435473 33.000000
3.608337 1.021992 -0.435599 37.000000
3.614322 1.011720 -0.435975 41.000000
3.611672 0.999038 -0.435223 21.000000
3.620461 0.989524 -0.435975 37.000000
3.625396 0.978930 -0.436225 39.000000
3.626465 0.967291 -0.435975 49.000000
3.631334 0.956666 -0.436225 35.000000
3.635212 0.945771 -0.436351 40.000000
3.637136 0.934367 -0.436225 40.000000
3.652486 0.926378 -0.437855 28.000000
3.674557 0.919994 -0.440361 31.000000
3.662917 0.905141 -0.438481 41.000000
3.678205 0.896959 -0.440111 36.000000
3.714698 0.893804 -0.444497 29.000000
3.673023 0.871849 -0.438732 48.000000
3.694998 0.865106 -0.441239 32.000000
3.691835 0.852425 -0.440487 38.000000
3.682826 0.838448 -0.438983 40.000000
3.695060 0.829321 -0.440236 33.000000
3.711148 0.820985 -0.441991 30.000000
3.702018 0.807056 -0.440487 25.000000
3.695747 0.793817 -0.439359 33.000000
3.692342 0.781241 -0.438607 28.000000
3.702491 0.771530 -0.439609 30.000000
3.720389 0.763363 -0.441615 28.000000
3.703266 0.748011 -0.439108 30.000000
3.809655 0.757376 -0.452519 18.000000
3.740888 0.731760 -0.443369 24.000000
3.722657 0.716336 -0.440737 43.000000
3.756030 0.710825 -0.444748 28.000000
3.753316 0.698389 -0.444121 32.000000
3.765200 0.688659 -0.445375 26.000000
3.770225 0.677632 -0.445751 29.000000
3.773263 0.666234 -0.445876 22.000000
3.764536 0.652787 -0.444497 16.000000
3.769456 0.641735 -0.444873 22.000000
3.748901 0.626400 -0.441991 24.000000
3.719477 0.609750 -0.437980 16.000000
3.718392 0.597863 -0.437604 17.000000
4.204484 1.082295 -0.564067 21.000000
4.196264 1.066464 -0.562418 25.000000
4.197594 1.053103 -0.562143 18.000000
4.197921 1.039506 -0.561730 30.000000
4.200128 1.026387 -0.561593 37.000000
4.208072 1.014657 -0.562280 41.000000
4.220802 1.004034 -0.563655 31.000000
4.235434 0.993794 -0.565304 20.000000
4.252939 0.984143 -0.567366 21.000000
4.264629 0.973073 -0.568603 37.000000
4.270494 0.960637 -0.569015 33.000000
4.265685 0.945816 -0.567915 19.000000
4.257812 0.848578 -0.564067 25.000000
4.251647 0.833796 -0.562830 38.000000
4.245431 0.819060 -0.561593 27.000000
4.238193 0.804186 -0.560219 22.000000
4.230903 0.789364 -0.558844 34.000000
4.231356 0.776023 -0.558569 22.000000
4.229817 0.762335 -0.558019 21.000000
4.239939 0.750736 -0.559119 30.000000
4.251006 0.739251 -0.560356 20.000000
4.266923 0.728538 -0.562280 25.000000
4.279884 0.717244 -0.563792 25.000000
4.286951 0.704913 -0.564479 15.000000
4.229523 1.085961 -0.620286 16.000000
4.221334 1.070061 -0.618496 15.000000
4.222679 1.056625 -0.618197 21.000000
4.223980 1.043190 -0.617899 39.000000
4.220437 1.028586 -0.616854 25.000000
4.227418 1.016558 -0.617451 32.000000
4.235327 1.004726 -0.618197 30.000000
4.243203 0.992856 -0.618943 36.000000
4.257791 0.982504 -0.620733 23.000000
4.263677 0.970096 -0.621181 31.000000
4.269528 0.957660 -0.621629 6.000000
4.274931 0.835622 -0.618645 20.000000
4.270678 0.821194 -0.617600 21.000000
4.266377 0.806800 -0.616556 17.000000
4.256195 0.791354 -0.614617 17.000000
4.249849 0.776690 -0.613274 23.000000
4.241506 0.761723 -0.611633 36.000000
4.244797 0.748879 -0.611782 31.000000
4.250972 0.736529 -0.612379 34.000000
4.261984 0.724978 -0.613721 30.000000
4.263213 0.711736 -0.613572 18.000000
4.233543 1.088988 -0.674729 23.000000
4.237822 1.076237 -0.674890 31.000000
4.240146 1.062991 -0.674729 36.000000
4.242429 1.049740 -0.674567 40.000000
4.244671 1.036486 -0.674406 56.000000
4.253588 1.024845 -0.675373 42.000000
4.250950 1.010422 -0.674406 66.000000
4.261718 0.999177 -0.675695 47.000000
4.272456 0.987875 -0.676984 34.000000
4.284127 0.976736 -0.678434 24.000000
4.270425 0.836706 -0.671507 13.000000
4.302045 0.829202 -0.676339 40.000000
4.290993 0.813427 -0.674084 32.000000
4.283767 0.798451 -0.672473 37.000000
4.280371 0.784238 -0.671507 42.000000
4.259445 0.766907 -0.667641 21.000000
4.261778 0.753836 -0.667641 32.000000
4.271849 0.742108 -0.668929 37.000000
4.273133 0.728833 -0.668768 32.000000
4.284110 0.717186 -0.670218 30.000000
4.295055 0.705478 -0.671668 20.000000
4.210604 1.094879 -0.725053 28.000000
4.227298 1.085389 -0.727475 35.000000
4.233472 1.073142 -0.727994 37.000000
4.241521 1.061345 -0.728858 32.000000
4.250494 1.049746 -0.729896 23.000000
4.257522 1.037634 -0.730588 38.000000
4.269304 1.026642 -0.732145 41.000000
4.281058 1.015588 -0.733701 28.000000
4.278399 1.001101 -0.732664 35.000000
4.286249 0.989079 -0.733528 30.000000
4.295986 0.977456 -0.734739 19.000000
4.297850 0.840109 -0.730069 15.000000
4.300407 0.826919 -0.730069 20.000000
4.291311 0.811522 -0.727994 24.000000
4.306368 0.800697 -0.730242 19.000000
4.281677 0.782516 -0.725399 35.000000
4.271455 0.767110 -0.723151 35.000000
4.277668 0.754687 -0.723843 44.000000
4.277053 0.741055 -0.723324 46.000000
4.274451 0.727102 -0.722459 56.000000
4.275690 0.713822 -0.722286 54.000000
4.259394 0.697672 -0.719000 19.000000
4.217804 1.097181 -0.778826 29.000000
4.224007 1.084970 -0.779380 44.000000
4.225410 1.071522 -0.779011 56.000000
4.232491 1.059508 -0.779749 63.000000
4.240492 1.047696 -0.780671 59.000000
4.247507 1.035613 -0.781409 44.000000
4.256397 1.023955 -0.782516 59.000000
4.263344 1.011800 -0.783254 55.000000
4.268342 0.999163 -0.783623 67.000000
4.272345 0.986284 -0.783807 58.000000
4.271518 0.972300 -0.783069 42.000000
4.311872 0.843266 -0.785467 28.000000
4.299962 0.827249 -0.782700 54.000000
4.296685 0.812957 -0.781593 49.000000
4.295293 0.799053 -0.780856 48.000000
4.290957 0.784634 -0.779564 43.000000
4.287540 0.770424 -0.778458 43.000000
4.287947 0.756925 -0.778089 54.000000
4.292186 0.744102 -0.778458 53.000000
4.291543 0.730435 -0.777904 38.000000
4.296671 0.717751 -0.778458 41.000000
4.294974 0.703930 -0.777720 35.000000
4.262178 0.685138 -0.771079 14.000000
