ply
format ascii 1.0
element vertex 1045
property float x
property float y
property float z
property float intensity
end_header
4.284835 -0.130644 0.705768 8.000000
4.308130 -0.171057 0.709641 10.000000
4.288832 -0.183470 0.706698 24.000000
4.276406 -0.196083 0.704839 32.000000
4.277758 -0.209298 0.705149 31.000000
4.276109 -0.222370 0.704994 47.000000
4.270474 -0.235216 0.704220 42.000000
4.264802 -0.248029 0.703445 64.000000
4.258104 -0.260749 0.702516 52.000000
4.247425 -0.273177 0.700967 55.000000
4.238681 -0.285674 0.699728 45.000000
4.225959 -0.297842 0.697869 48.000000
4.220099 -0.310443 0.697095 65.000000
4.214201 -0.323011 0.696321 39.000000
4.208267 -0.335545 0.695546 46.000000
4.202295 -0.348046 0.694772 56.000000
4.206129 -0.361360 0.695546 35.000000
4.191224 -0.373035 0.693378 48.000000
4.205800 -0.387343 0.695856 33.000000
4.205575 -0.400338 0.696011 23.000000
4.617403 0.299254 0.702326 18.000000
4.654849 0.287352 0.707616 35.000000
4.640888 0.272197 0.705471 40.000000
4.609092 0.256137 0.700753 72.000000
4.592065 0.241057 0.698179 77.000000
4.586852 0.226673 0.697321 82.000000
4.577640 0.212139 0.695892 93.000000
4.568381 0.197663 0.694462 78.000000
4.559076 0.183247 0.693032 84.000000
4.548738 0.168852 0.691459 81.000000
4.538353 0.154523 0.689887 86.000000
4.528914 0.140290 0.688457 69.000000
4.518440 0.126088 0.686884 79.000000
4.508912 0.111977 0.685455 81.000000
4.500329 0.097947 0.684168 75.000000
4.493681 0.084008 0.683167 99.000000
4.483032 0.070048 0.681594 95.000000
4.474319 0.056180 0.680308 83.000000
4.461605 0.042327 0.678449 77.000000
4.447858 0.028547 0.676447 71.000000
4.436048 0.014858 0.674731 64.000000
4.431124 0.001245 0.674017 75.000000
4.424179 -0.012332 0.673016 64.000000
4.417192 -0.025866 0.672015 68.000000
4.409174 -0.039349 0.670871 69.000000
4.398147 -0.052748 0.669298 67.000000
4.386089 -0.066066 0.667583 64.000000
4.375970 -0.079345 0.666153 64.000000
4.369769 -0.092646 0.665295 66.000000
4.358580 -0.105790 0.663722 55.000000
4.352299 -0.119001 0.662865 56.000000
4.347956 -0.132234 0.662293 74.000000
4.338627 -0.145277 0.661006 85.000000
4.335194 -0.158479 0.660577 69.000000
4.324798 -0.171389 0.659147 69.000000
4.314363 -0.184237 0.657718 54.000000
4.305868 -0.197113 0.656574 62.000000
4.299312 -0.210034 0.655716 73.000000
4.292717 -0.222917 0.654858 56.000000
4.284107 -0.235653 0.653714 55.000000
4.275459 -0.248338 0.652570 57.000000
4.265786 -0.260913 0.651284 74.000000
4.252125 -0.273177 0.649425 51.000000
4.238430 -0.285360 0.647566 54.000000
4.224699 -0.297462 0.645708 43.000000
4.215869 -0.309844 0.644564 48.000000
4.210952 -0.322475 0.643992 64.000000
4.204023 -0.334923 0.643134 45.000000
4.197058 -0.347331 0.642276 65.000000
4.193014 -0.359953 0.641847 45.000000
4.184003 -0.372116 0.640704 40.000000
4.180871 -0.384769 0.640418 42.000000
4.127449 -0.392641 0.632840 7.000000
4.657833 0.315757 0.651201 13.000000
4.624153 0.299228 0.646614 80.000000
4.618123 0.284613 0.645697 104.000000
4.613036 0.270097 0.644911 104.000000
4.607904 0.255614 0.644125 110.000000
4.594806 0.240751 0.642290 123.000000
4.586612 0.226214 0.641110 124.000000
4.577381 0.211684 0.639800 118.000000
4.571075 0.197341 0.638883 116.000000
4.562744 0.182960 0.637703 127.000000
4.553378 0.168595 0.636393 114.000000
4.542974 0.154255 0.634951 115.000000
4.533517 0.140012 0.633641 96.000000
4.525006 0.125855 0.632461 100.000000
4.518434 0.111801 0.631544 99.000000
4.513800 0.097831 0.630889 83.000000
4.502184 0.083762 0.629316 96.000000
4.490524 0.069765 0.627744 108.000000
4.477831 0.055829 0.626040 105.000000
4.464102 0.041961 0.624206 80.000000
4.452313 0.028191 0.622633 86.000000
4.442465 0.014500 0.621323 97.000000
4.430593 0.000869 0.619750 104.000000
4.422643 -0.012700 0.618702 95.000000
4.414653 -0.026221 0.617653 85.000000
4.407612 -0.039701 0.616736 99.000000
4.398548 -0.053115 0.615557 86.000000
4.388452 -0.066458 0.614246 75.000000
4.380298 -0.079776 0.613198 88.000000
4.373094 -0.093066 0.612281 83.000000
4.364859 -0.106289 0.611232 81.000000
4.358567 -0.119516 0.610446 62.000000
4.352234 -0.132705 0.609660 69.000000
4.348834 -0.145957 0.609267 65.000000
4.341431 -0.159044 0.608349 60.000000
4.332997 -0.172047 0.607301 82.000000
4.324525 -0.185000 0.606252 68.000000
4.305121 -0.197402 0.603763 50.000000
4.306476 -0.210706 0.604025 66.000000
4.295909 -0.223401 0.602714 62.000000
4.286294 -0.236089 0.601535 62.000000
4.278623 -0.248834 0.600618 50.000000
4.269922 -0.261474 0.599569 64.000000
4.260196 -0.273999 0.598390 61.000000
4.250433 -0.286467 0.597210 52.000000
4.241623 -0.298948 0.596162 60.000000
4.235743 -0.311595 0.595507 67.000000
4.226859 -0.323982 0.594458 74.000000
4.219915 -0.336475 0.593672 51.000000
4.210959 -0.348765 0.592624 46.000000
4.205919 -0.361342 0.592100 57.000000
4.201828 -0.373980 0.591706 42.000000
4.197700 -0.386596 0.591313 47.000000
4.145175 -0.394583 0.584499 14.000000
4.673771 0.318140 0.595383 13.000000
4.621222 0.300309 0.588961 124.000000
4.622122 0.286130 0.588961 91.000000
4.616040 0.271539 0.588129 131.000000
4.606937 0.256820 0.586939 135.000000
4.600763 0.242318 0.586107 130.000000
4.586610 0.227460 0.584323 122.000000
4.577369 0.212924 0.583134 139.000000
4.567088 0.198403 0.581826 119.000000
4.559738 0.184068 0.580874 122.000000
4.550360 0.169705 0.579685 100.000000
4.537959 0.155299 0.578139 121.000000
4.527498 0.141034 0.576831 124.000000
4.516991 0.126833 0.575523 90.000000
4.505448 0.112674 0.574096 123.000000
4.499817 0.098719 0.573382 88.000000
4.490171 0.084723 0.572193 99.000000
4.479489 0.070771 0.570885 103.000000
4.469758 0.056899 0.569696 116.000000
4.456011 0.043048 0.568031 98.000000
4.447186 0.029316 0.566960 85.000000
4.435340 0.015627 0.565533 89.000000
4.425438 0.002012 0.564344 82.000000
4.418474 -0.011549 0.563511 95.000000
4.411467 -0.025067 0.562679 77.000000
4.404419 -0.038542 0.561847 69.000000
4.397330 -0.051974 0.561014 90.000000
4.388216 -0.065334 0.559944 76.000000
4.378067 -0.078621 0.558755 59.000000
4.371849 -0.091929 0.558041 80.000000
4.359635 -0.105057 0.556614 70.000000
4.353336 -0.118271 0.555900 74.000000
4.342036 -0.131300 0.554592 87.000000
4.334666 -0.144391 0.553760 75.000000
4.329242 -0.157509 0.553165 67.000000
4.318817 -0.170402 0.551976 73.000000
4.311329 -0.183357 0.551143 79.000000
4.303803 -0.196269 0.550311 66.000000
4.294255 -0.209040 0.549241 86.000000
4.283678 -0.221703 0.548051 66.000000
4.273063 -0.234303 0.546862 55.000000
4.261420 -0.246783 0.545554 56.000000
4.255688 -0.259555 0.544959 62.000000
4.242981 -0.271851 0.543532 71.000000
4.236183 -0.284470 0.542819 55.000000
4.229347 -0.297049 0.542105 53.000000
4.221484 -0.309517 0.541273 59.000000
4.215564 -0.322090 0.540678 54.000000
4.213567 -0.334943 0.540559 45.000000
4.210540 -0.347706 0.540321 68.000000
4.207475 -0.360453 0.540083 47.000000
4.205360 -0.373272 0.539965 39.000000
4.201230 -0.385901 0.539608 54.000000
4.214852 -0.400192 0.541392 22.000000
4.660470 0.331117 0.536273 6.000000
4.661464 0.316817 0.536273 14.000000
4.626695 0.300200 0.532429 89.000000
4.625609 0.285882 0.532216 65.000000
4.615546 0.271049 0.531041 83.000000
4.607421 0.256391 0.530080 104.000000
4.595278 0.241577 0.528692 98.000000
4.584081 0.226889 0.527410 104.000000
4.572836 0.212271 0.526129 106.000000
4.562539 0.197769 0.524954 104.000000
4.554183 0.183411 0.523993 106.000000
4.544789 0.169069 0.522925 109.000000
4.537336 0.154854 0.522071 119.000000
4.525865 0.140564 0.520790 77.000000
4.520311 0.126512 0.520149 70.000000
4.515708 0.112519 0.519615 93.000000
4.508080 0.098492 0.518761 92.000000
4.497426 0.084456 0.517586 87.000000
4.488716 0.070518 0.516625 96.000000
4.476981 0.056597 0.515344 92.000000
4.465202 0.042748 0.514062 100.000000
4.458353 0.029004 0.513315 88.000000
4.450467 0.015300 0.512460 105.000000
4.441544 0.001643 0.511499 107.000000
4.432580 -0.011958 0.510538 84.000000
4.422579 -0.025499 0.509470 106.000000
4.416515 -0.039014 0.508830 77.000000
4.408421 -0.052468 0.507975 67.000000
4.398297 -0.065843 0.506908 53.000000
4.390121 -0.079192 0.506053 79.000000
4.377929 -0.092408 0.504772 76.000000
4.368680 -0.105622 0.503811 66.000000
4.353426 -0.118617 0.502209 57.000000
4.346085 -0.131761 0.501462 79.000000
4.333735 -0.144694 0.500180 52.000000
4.325322 -0.157699 0.499326 53.000000
4.316870 -0.170653 0.498472 58.000000
4.309372 -0.183600 0.497724 47.000000
4.303823 -0.196592 0.497190 53.000000
4.299227 -0.209601 0.496763 44.000000
4.292606 -0.222481 0.496122 55.000000
4.283961 -0.235213 0.495268 58.000000
4.269322 -0.247547 0.493773 29.000000
4.264574 -0.260402 0.493346 63.000000
4.252840 -0.272783 0.492171 49.000000
4.245039 -0.285362 0.491424 71.000000
4.244143 -0.298384 0.491424 43.000000
4.232300 -0.310602 0.490249 59.000000
4.225379 -0.323130 0.489609 66.000000
4.211483 -0.335065 0.488220 63.000000
4.196562 -0.346836 0.486725 46.000000
4.179628 -0.358349 0.485017 33.000000
4.177519 -0.371082 0.484910 44.000000
4.167450 -0.383077 0.483949 31.000000
4.168234 -0.396049 0.484162 27.000000
4.145231 -0.406697 0.481813 7.000000
4.635260 0.314699 0.477937 19.000000
4.621303 0.299508 0.476512 127.000000
4.614252 0.284835 0.475752 96.000000
4.607154 0.270209 0.474992 103.000000
4.600010 0.255630 0.474233 140.000000
4.589837 0.240939 0.473188 128.000000
4.580612 0.226363 0.472238 121.000000
4.570347 0.211799 0.471193 140.000000
4.561029 0.197343 0.470244 136.000000
4.550673 0.182907 0.469199 114.000000
4.539274 0.168498 0.468059 111.000000
4.531811 0.154298 0.467299 88.000000
4.517338 0.139928 0.465875 124.000000
4.506801 0.125760 0.464830 133.000000
4.501194 0.111783 0.464260 114.000000
4.496540 0.097863 0.463785 108.000000
4.491842 0.083973 0.463310 116.000000
4.484116 0.070066 0.462550 106.000000
4.474356 0.056181 0.461601 100.000000
4.461566 0.042327 0.460366 98.000000
4.449730 0.028559 0.459226 94.000000
4.436856 0.014861 0.457992 90.000000
4.424934 0.001242 0.456852 75.000000
4.414962 -0.012308 0.455902 99.000000
4.406940 -0.025809 0.455142 85.000000
4.400867 -0.039277 0.454572 79.000000
4.394754 -0.052709 0.454003 92.000000
4.390590 -0.066132 0.453623 67.000000
4.382404 -0.079460 0.452863 65.000000
4.374177 -0.092738 0.452103 73.000000
4.365911 -0.105966 0.451343 67.000000
4.355614 -0.119091 0.450393 66.000000
4.346273 -0.132183 0.449539 86.000000
4.337888 -0.145252 0.448779 75.000000
4.328468 -0.158235 0.447924 88.000000
4.321994 -0.171279 0.447354 74.000000
4.314486 -0.184242 0.446689 73.000000
4.303956 -0.197026 0.445740 70.000000
4.294382 -0.209794 0.444885 79.000000
4.282783 -0.222404 0.443840 68.000000
4.274128 -0.235107 0.443080 56.000000
4.264442 -0.247701 0.442225 71.000000
4.257701 -0.260420 0.441656 64.000000
4.247941 -0.272910 0.440801 63.000000
4.238144 -0.285341 0.439946 65.000000
4.225332 -0.297507 0.438806 62.000000
4.211493 -0.309523 0.437572 73.000000
4.200598 -0.321685 0.436622 59.000000
4.192645 -0.334020 0.435957 54.000000
4.183663 -0.346226 0.435197 62.000000
4.172663 -0.358211 0.434247 51.000000
4.168570 -0.370747 0.433962 52.000000
4.148578 -0.381807 0.432158 28.000000
4.157297 -0.395472 0.433108 66.000000
4.159036 -0.408516 0.433393 39.000000
4.154792 -0.420974 0.433108 10.000000
4.660292 0.345477 0.421533 36.000000
4.620572 0.328286 0.418152 76.000000
4.622552 0.314176 0.418235 100.000000
4.623494 0.299993 0.418235 123.000000
4.616435 0.285315 0.417575 97.000000
4.608335 0.270626 0.416833 93.000000
4.600188 0.255989 0.416091 120.000000
4.590004 0.241300 0.415184 108.000000
4.579773 0.226676 0.414277 100.000000
4.570492 0.212163 0.413452 111.000000
4.561164 0.197709 0.412627 89.000000
4.552788 0.183354 0.411885 109.000000
4.545362 0.169090 0.411226 91.000000
4.538888 0.154907 0.410648 81.000000
4.530376 0.140704 0.409906 77.000000
4.520824 0.126526 0.409082 101.000000
4.515213 0.112507 0.408587 100.000000
4.504578 0.098416 0.407680 94.000000
4.498879 0.084484 0.407185 91.000000
4.489153 0.070525 0.406360 91.000000
4.478386 0.056615 0.405453 85.000000
4.466580 0.042761 0.404464 91.000000
4.450746 0.028956 0.403145 90.000000
4.440847 0.015267 0.402320 106.000000
4.430907 0.001640 0.401495 90.000000
4.421922 -0.011929 0.400753 77.000000
4.412896 -0.025442 0.400011 82.000000
4.402831 -0.038892 0.399186 75.000000
4.390733 -0.052256 0.398197 76.000000
4.382580 -0.065606 0.397537 59.000000
4.374387 -0.078907 0.396877 75.000000
4.366153 -0.092158 0.396218 58.000000
4.364854 -0.105529 0.396135 75.000000
4.357536 -0.118729 0.395558 76.000000
4.350178 -0.131885 0.394981 62.000000
4.338796 -0.144864 0.394074 57.000000
4.330364 -0.157883 0.393414 67.000000
4.320897 -0.170813 0.392672 59.000000
4.308404 -0.183558 0.391683 65.000000
4.295875 -0.196229 0.390693 47.000000
4.287289 -0.209018 0.390033 49.000000
4.281651 -0.221912 0.389621 40.000000
4.275975 -0.234773 0.389209 62.000000
4.265285 -0.247313 0.388384 46.000000
4.259533 -0.260093 0.387972 55.000000
4.253742 -0.272841 0.387560 48.000000
4.244930 -0.285354 0.386900 42.000000
4.233099 -0.297606 0.385993 50.000000
4.217257 -0.309497 0.384756 47.000000
4.204364 -0.321521 0.383766 43.000000
4.194417 -0.333706 0.383024 42.000000
4.183441 -0.345751 0.382200 46.000000
4.174417 -0.357902 0.381540 30.000000
4.177270 -0.371060 0.381870 40.000000
4.177104 -0.383965 0.381952 51.000000
4.197734 -0.398855 0.383766 28.000000
4.179629 -0.410075 0.382364 48.000000
4.635802 0.313116 0.364044 24.000000
4.610860 0.297217 0.362208 117.000000
4.607768 0.282825 0.361925 90.000000
4.601643 0.268279 0.361431 127.000000
4.594477 0.253718 0.360866 102.000000
4.586268 0.239151 0.360230 105.000000
4.578014 0.224637 0.359595 127.000000
4.567721 0.210084 0.358818 82.000000
4.553395 0.195424 0.357758 113.000000
4.542013 0.180974 0.356911 119.000000
4.533576 0.166706 0.356275 118.000000
4.527087 0.152560 0.355781 120.000000
4.525540 0.138608 0.355640 85.000000
4.512981 0.124363 0.354721 116.000000
4.504367 0.110295 0.354086 134.000000
4.497703 0.096324 0.353591 127.000000
4.483017 0.082246 0.352532 81.000000
4.476267 0.068384 0.352038 71.000000
4.467479 0.054538 0.351402 97.000000
4.461640 0.040776 0.350978 83.000000
4.450772 0.027018 0.350201 87.000000
4.440859 0.013331 0.349495 81.000000
4.428909 -0.000296 0.348647 61.000000
4.419909 -0.013858 0.348012 61.000000
4.412864 -0.027377 0.347517 61.000000
4.404779 -0.040843 0.346952 76.000000
4.398649 -0.054284 0.346529 56.000000
4.386493 -0.067598 0.345681 83.000000
4.374297 -0.080837 0.344834 67.000000
4.364056 -0.094045 0.344127 61.000000
4.356766 -0.107263 0.343633 68.000000
4.349436 -0.120437 0.343139 85.000000
4.342067 -0.133568 0.342644 75.000000
4.334659 -0.146654 0.342150 58.000000
4.325217 -0.159623 0.341514 60.000000
4.315736 -0.172536 0.340879 69.000000
4.304224 -0.185307 0.340102 58.000000
4.296659 -0.198191 0.339607 55.000000
4.292047 -0.211177 0.339325 74.000000
4.283410 -0.223930 0.338760 62.000000
4.275731 -0.236686 0.338265 54.000000
4.266022 -0.249281 0.337630 52.000000
4.246320 -0.261210 0.336288 36.000000
4.247489 -0.274364 0.336429 47.000000
4.233689 -0.286522 0.335511 39.000000
4.222840 -0.298808 0.334805 59.000000
4.213945 -0.311176 0.334240 59.000000
4.205014 -0.323493 0.333675 50.000000
4.201018 -0.336155 0.333463 45.000000
4.191020 -0.348300 0.332827 46.000000
4.186951 -0.360901 0.332615 56.000000
4.191785 -0.374275 0.333039 39.000000
4.202536 -0.388231 0.333886 39.000000
4.223172 -0.403202 0.335440 27.000000
4.235813 -0.417523 0.336429 40.000000
4.254361 -0.432529 0.337842 40.000000
4.283768 -0.448793 0.340031 28.000000
4.309150 -0.464814 0.341938 22.000000
4.338439 -0.481434 0.344127 8.000000
4.612616 0.312695 0.304262 16.000000
4.617538 0.298800 0.304494 77.000000
4.614447 0.284387 0.304262 84.000000
4.601346 0.269413 0.303448 106.000000
4.594177 0.254853 0.302984 108.000000
4.585964 0.240288 0.302461 123.000000
4.578703 0.225825 0.301996 99.000000
4.572394 0.211454 0.301590 95.000000
4.564044 0.197038 0.301067 91.000000
4.557645 0.182756 0.300660 79.000000
4.546212 0.168330 0.299963 102.000000
4.536730 0.154044 0.299382 88.000000
4.526205 0.139786 0.298743 79.000000
4.513639 0.125540 0.297988 94.000000
4.503026 0.111421 0.297349 99.000000
4.493365 0.097390 0.296768 93.000000
4.485658 0.083456 0.296304 71.000000
4.477908 0.069570 0.295839 74.000000
4.472110 0.055758 0.295491 89.000000
4.465272 0.041972 0.295084 88.000000
4.452403 0.028192 0.294329 66.000000
4.446478 0.014513 0.293980 84.000000
4.432525 0.000870 0.293167 73.000000
4.423522 -0.012703 0.292644 97.000000
4.409486 -0.026189 0.291831 86.000000
4.397406 -0.039608 0.291134 79.000000
4.385285 -0.052954 0.290437 82.000000
4.377116 -0.066286 0.289972 67.000000
4.368907 -0.079568 0.289508 61.000000
4.362654 -0.092843 0.289159 49.000000
4.359354 -0.106154 0.288985 52.000000
4.354019 -0.119391 0.288694 57.000000
4.347645 -0.132565 0.288346 70.000000
4.340233 -0.145668 0.287939 59.000000
4.332783 -0.158726 0.287533 66.000000
4.328285 -0.171859 0.287300 49.000000
4.312777 -0.184496 0.286429 60.000000
4.303215 -0.197314 0.285906 52.000000
4.293615 -0.210076 0.285383 48.000000
4.282981 -0.222728 0.284803 52.000000
4.273307 -0.235372 0.284280 54.000000
4.261601 -0.247843 0.283641 47.000000
4.256835 -0.260671 0.283408 58.000000
4.248045 -0.273217 0.282944 55.000000
4.237227 -0.285576 0.282363 45.000000
4.231351 -0.298223 0.282072 56.000000
4.218469 -0.310323 0.281375 67.000000
4.211525 -0.322805 0.281027 58.000000
4.201558 -0.335010 0.280504 64.000000
4.194541 -0.347403 0.280156 62.000000
4.196440 -0.360527 0.280330 38.000000
4.213212 -0.374995 0.281375 33.000000
4.222978 -0.388927 0.282014 44.000000
4.287356 -0.408131 0.285848 24.000000
4.310921 -0.423726 0.287300 23.000000
4.326486 -0.438663 0.288288 38.000000
4.348949 -0.454427 0.289682 38.000000
4.357460 -0.468836 0.290263 49.000000
4.361955 -0.482861 0.290611 29.000000
4.362436 -0.496467 0.290727 37.000000
4.377749 -0.511821 0.291715 19.000000
4.445542 -0.533583 0.295781 5.000000
4.615560 0.310937 0.249562 33.000000
4.618486 0.296904 0.249655 91.000000
4.609405 0.282121 0.249192 102.000000
4.600276 0.267396 0.248730 117.000000
4.588109 0.252564 0.248129 100.000000
4.575894 0.237809 0.247528 110.000000
4.565626 0.223230 0.247019 89.000000
4.556311 0.208762 0.246557 90.000000
4.544954 0.194268 0.246002 103.000000
4.535547 0.179925 0.245540 119.000000
4.526095 0.165641 0.245078 104.000000
4.522589 0.151619 0.244893 91.000000
4.517042 0.137560 0.244615 115.000000
4.509455 0.123480 0.244245 100.000000
4.503821 0.109497 0.243968 82.000000
4.495147 0.095486 0.243552 77.000000
4.483434 0.081474 0.242997 83.000000
4.475672 0.067596 0.242627 81.000000
4.460876 0.053680 0.241934 80.000000
4.444037 0.039837 0.241148 69.000000
4.432153 0.026129 0.240593 55.000000
4.423222 0.012504 0.240177 69.000000
4.419243 -0.001067 0.239992 72.000000
4.411228 -0.014600 0.239622 57.000000
4.402172 -0.028079 0.239206 47.000000
4.391077 -0.041483 0.238697 47.000000
4.379942 -0.054820 0.238189 52.000000
4.366768 -0.068059 0.237587 57.000000
4.357550 -0.081290 0.237171 72.000000
4.351288 -0.094530 0.236894 61.000000
4.339993 -0.107610 0.236385 55.000000
4.335648 -0.120814 0.236200 65.000000
4.332262 -0.134023 0.236062 76.000000
4.321846 -0.146977 0.235599 47.000000
4.319379 -0.160162 0.235507 65.000000
4.307887 -0.172975 0.234998 40.000000
4.297357 -0.185762 0.234536 65.000000
4.284791 -0.198394 0.233981 53.000000
4.273188 -0.210999 0.233473 56.000000
4.266535 -0.223796 0.233195 56.000000
4.257849 -0.236444 0.232825 53.000000
4.248128 -0.248982 0.232409 63.000000
4.239368 -0.261524 0.232039 51.000000
4.232565 -0.274143 0.231762 46.000000
4.224727 -0.286656 0.231438 43.000000
4.215856 -0.299052 0.231068 47.000000
4.205953 -0.311324 0.230652 68.000000
4.201990 -0.323996 0.230514 53.000000
4.195001 -0.336409 0.230236 50.000000
4.182004 -0.348286 0.229681 38.000000
4.187882 -0.361714 0.230005 37.000000
4.206653 -0.376336 0.230930 31.000000
4.228356 -0.391351 0.231993 35.000000
4.423036 -0.423005 0.241101 16.000000
4.431659 -0.437551 0.241564 25.000000
4.471042 -0.455284 0.243459 16.000000
4.488501 -0.470975 0.244338 12.000000
4.485048 -0.484529 0.244245 22.000000
4.454748 -0.495094 0.242904 46.000000
4.469089 -0.510569 0.243644 16.000000
4.445673 -0.521722 0.242627 23.000000
4.438101 -0.534643 0.242350 15.000000
4.626780 0.312846 0.192722 22.000000
4.616747 0.297943 0.192350 74.000000
4.609659 0.283287 0.192079 92.000000
4.603522 0.268737 0.191842 97.000000
4.597340 0.254226 0.191605 86.000000
4.589116 0.239652 0.191301 87.000000
4.578849 0.225033 0.190928 84.000000
4.567537 0.210434 0.190522 95.000000
4.558176 0.195991 0.190183 85.000000
4.547771 0.181568 0.189811 79.000000
4.535323 0.167138 0.189371 100.000000
4.521830 0.152752 0.188897 89.000000
4.521278 0.138848 0.188863 72.000000
4.507696 0.124590 0.188389 92.000000
4.506059 0.110712 0.188322 72.000000
4.496386 0.096673 0.187983 100.000000
4.484670 0.082657 0.187577 78.000000
4.474910 0.068746 0.187238 84.000000
4.464107 0.054882 0.186866 80.000000
4.455260 0.041104 0.186561 84.000000
4.454365 0.027429 0.186527 74.000000
4.441436 0.013724 0.186087 80.000000
4.432462 0.000099 0.185783 69.000000
4.423447 -0.013472 0.185478 83.000000
4.408394 -0.026950 0.184970 66.000000
4.400295 -0.040400 0.184699 55.000000
4.384161 -0.053702 0.184158 49.000000
4.373982 -0.066999 0.183819 55.000000
4.369759 -0.080344 0.183684 60.000000
4.362498 -0.093599 0.183447 55.000000
4.355196 -0.106810 0.183210 65.000000
4.349853 -0.120033 0.183041 55.000000
4.342472 -0.133163 0.182804 63.000000
4.339046 -0.146383 0.182702 39.000000
4.329587 -0.159363 0.182397 52.000000
4.320091 -0.172286 0.182093 55.000000
4.312552 -0.185238 0.181856 40.000000
4.298985 -0.197869 0.181416 50.000000
4.295363 -0.210910 0.181314 39.000000
4.273736 -0.222992 0.180603 52.000000
4.268043 -0.235826 0.180434 44.000000
4.257322 -0.248336 0.180095 52.000000
4.249557 -0.260967 0.179858 66.000000
4.243750 -0.273681 0.179689 48.000000
4.234913 -0.286160 0.179418 50.000000
4.227036 -0.298657 0.179181 39.000000
4.222114 -0.311330 0.179046 50.000000
4.213167 -0.323668 0.178775 37.000000
4.210162 -0.336433 0.178707 48.000000
4.200145 -0.348603 0.178403 38.000000
4.212996 -0.362689 0.178877 35.000000
4.244714 -0.378545 0.179994 27.000000
4.258461 -0.392945 0.180502 26.000000
4.488053 -0.428042 0.188355 21.000000
4.617013 -0.454650 0.192790 65.000000
4.611618 -0.468409 0.192655 29.000000
4.632027 -0.484845 0.193400 37.000000
4.657347 -0.501948 0.194314 56.000000
4.653799 -0.516014 0.194246 39.000000
4.635313 -0.528363 0.193670 36.000000
4.622289 0.313008 0.136120 25.000000
4.600282 0.297336 0.135622 97.000000
4.594187 0.282790 0.135470 82.000000
4.593038 0.268576 0.135427 93.000000
4.585854 0.254039 0.135254 79.000000
4.582618 0.239759 0.135167 85.000000
4.577341 0.225402 0.135038 86.000000
4.565028 0.210755 0.134756 102.000000
4.544677 0.195840 0.134302 75.000000
4.540262 0.181695 0.134194 86.000000
4.528809 0.167318 0.133934 80.000000
4.520309 0.153117 0.133739 84.000000
4.511763 0.138968 0.133544 81.000000
4.505173 0.124930 0.133393 77.000000
4.493542 0.110809 0.133133 71.000000
4.482866 0.096782 0.132895 81.000000
4.471147 0.082803 0.132635 72.000000
4.462383 0.068944 0.132441 65.000000
4.454576 0.055152 0.132268 60.000000
4.447726 0.041419 0.132116 57.000000
4.442833 0.027740 0.132008 51.000000
4.432899 0.014075 0.131791 48.000000
4.423924 0.000472 0.131597 45.000000
4.410908 -0.013065 0.131315 40.000000
4.405849 -0.026569 0.131207 37.000000
4.409745 -0.040121 0.131294 28.000000
4.398605 -0.053519 0.131056 43.000000
4.384425 -0.066804 0.130753 54.000000
4.384199 -0.080255 0.130753 57.000000
4.384931 -0.093726 0.130774 45.000000
4.372630 -0.106888 0.130515 44.000000
4.369283 -0.120221 0.130450 57.000000
4.365896 -0.133534 0.130385 62.000000
4.349478 -0.146394 0.130039 66.000000
4.341016 -0.159446 0.129865 48.000000
4.326520 -0.172211 0.129562 52.000000
4.321977 -0.185313 0.129476 51.000000
4.308404 -0.197979 0.129195 44.000000
4.298789 -0.210758 0.129000 53.000000
4.287139 -0.223376 0.128762 39.000000
4.274455 -0.235870 0.128502 52.000000
4.282694 -0.249504 0.128697 58.000000
4.260952 -0.261362 0.128242 66.000000
4.249156 -0.273729 0.128004 38.000000
4.238321 -0.286094 0.127788 34.000000
4.225455 -0.298254 0.127528 50.000000
4.205575 -0.309825 0.127117 33.000000
4.206599 -0.322879 0.127160 40.000000
4.198613 -0.335228 0.127009 38.000000
4.193579 -0.347778 0.126922 36.000000
4.193489 -0.360728 0.126944 43.000000
4.209291 -0.375095 0.127312 38.000000
4.244956 -0.391394 0.128113 34.000000
4.742373 -0.451796 0.138954 12.000000
4.638480 -0.456288 0.136725 40.000000
4.653968 -0.472228 0.137093 40.000000
4.740996 -0.495735 0.139019 7.000000
4.655707 -0.100726 0.079112 19.000000
4.671371 -0.115406 0.079260 56.000000
4.664997 -0.129570 0.079204 82.000000
4.655583 -0.143603 0.079121 81.000000
4.645126 -0.157545 0.079028 98.000000
4.635628 -0.171462 0.078945 89.000000
4.626087 -0.185322 0.078862 71.000000
4.618504 -0.199212 0.078797 59.000000
4.613875 -0.213195 0.078760 49.000000
4.609204 -0.227152 0.078723 39.000000
4.612480 -0.241502 0.078760 84.000000
4.614713 -0.255818 0.078788 94.000000
4.615903 -0.270091 0.078806 85.000000
4.615053 -0.284251 0.078806 90.000000
4.612163 -0.298279 0.078788 73.000000
4.612224 -0.312496 0.078797 91.000000
4.613238 -0.326786 0.078816 75.000000
4.618197 -0.341380 0.078871 82.000000
4.620119 -0.355778 0.078899 70.000000
4.624987 -0.370430 0.078954 71.000000
4.632797 -0.385364 0.079038 82.000000
4.638566 -0.400178 0.079102 94.000000
4.642296 -0.414852 0.079149 74.000000
4.646976 -0.429646 0.079204 108.000000
4.653600 -0.444662 0.079278 70.000000
4.727843 -0.466404 0.079981 25.000000
4.758224 -0.484148 0.080277 14.000000
4.682863 -0.100015 0.020700 48.000000
4.668539 -0.114043 0.020746 51.000000
4.659170 -0.128120 0.020776 59.000000
4.642762 -0.141928 0.020829 77.000000
4.632311 -0.155838 0.020862 76.000000
4.622817 -0.169721 0.020892 76.000000
4.614281 -0.183587 0.020919 82.000000
4.606702 -0.197444 0.020942 89.000000
4.602079 -0.211394 0.020955 84.000000
4.600410 -0.225463 0.020958 78.000000
4.597699 -0.239473 0.020965 79.000000
4.594946 -0.253467 0.020972 81.000000
4.596144 -0.267679 0.020965 91.000000
4.596299 -0.281840 0.020962 92.000000
4.597408 -0.296067 0.020955 95.000000
4.602465 -0.310573 0.020935 69.000000
4.606478 -0.325043 0.020919 78.000000
4.609448 -0.339466 0.020905 71.000000
4.619353 -0.354445 0.020869 58.000000
4.622231 -0.368933 0.020856 81.000000
4.631044 -0.383935 0.020822 83.000000
4.643793 -0.399337 0.020776 63.000000
4.653502 -0.414556 0.020740 54.000000
4.666150 -0.430112 0.020693 48.000000
4.660827 -0.444047 0.020706 76.000000
4.668399 -0.459223 0.020676 66.000000
4.749623 -0.086535 -0.038197 24.000000
4.659366 -0.099184 -0.036784 54.000000
4.648045 -0.113209 -0.036611 64.000000
4.640679 -0.127276 -0.036501 69.000000
4.632272 -0.141269 -0.036375 85.000000
4.618825 -0.155043 -0.036171 85.000000
4.608336 -0.168845 -0.036014 82.000000
4.597806 -0.182585 -0.035857 87.000000
4.590231 -0.196390 -0.035747 92.000000
4.586610 -0.210334 -0.035700 104.000000
4.582948 -0.224258 -0.035653 76.000000
4.582238 -0.238317 -0.035653 108.000000
4.579488 -0.252264 -0.035621 80.000000
4.581688 -0.266487 -0.035668 85.000000
4.585839 -0.280848 -0.035747 87.000000
4.592938 -0.295430 -0.035873 89.000000
4.600988 -0.310126 -0.036014 107.000000
4.606997 -0.324733 -0.036124 68.000000
4.611962 -0.339306 -0.036218 74.000000
4.616881 -0.353912 -0.036312 76.000000
4.624744 -0.368791 -0.036454 83.000000
4.627576 -0.383309 -0.036517 85.000000
4.631360 -0.397932 -0.036595 84.000000
4.636093 -0.412672 -0.036689 86.000000
4.639783 -0.427352 -0.036768 72.000000
4.645418 -0.442249 -0.036878 59.000000
4.653990 -0.457477 -0.037035 50.000000
4.658533 -0.472359 -0.037129 45.000000
4.658390 -0.085201 -0.092711 43.000000
4.647112 -0.099260 -0.092406 47.000000
4.637793 -0.113299 -0.092156 65.000000
4.630428 -0.127337 -0.091962 71.000000
4.621024 -0.141269 -0.091712 71.000000
4.611577 -0.155146 -0.091462 63.000000
4.607083 -0.169147 -0.091351 79.000000
4.598552 -0.182965 -0.091129 89.000000
4.592976 -0.196860 -0.090991 90.000000
4.589354 -0.210813 -0.090907 71.000000
4.580698 -0.224502 -0.090685 110.000000
4.575995 -0.238348 -0.090574 88.000000
4.573246 -0.252276 -0.090519 90.000000
4.574446 -0.266421 -0.090574 77.000000
4.574605 -0.280515 -0.090602 84.000000
4.576715 -0.294740 -0.090685 68.000000
4.580777 -0.309115 -0.090824 71.000000
4.585790 -0.323588 -0.090991 73.000000
4.596739 -0.338533 -0.091324 59.000000
4.600662 -0.353016 -0.091462 57.000000
4.600554 -0.367208 -0.091490 50.000000
4.604386 -0.381732 -0.091629 64.000000
4.612157 -0.396625 -0.091879 49.000000
4.622867 -0.411834 -0.092212 39.000000
4.639500 -0.427662 -0.092711 38.000000
4.638166 -0.441894 -0.092711 43.000000
4.648726 -0.457293 -0.093044 49.000000
4.659235 -0.472761 -0.093377 36.000000
4.665439 -0.084995 -0.151413 14.000000
4.648174 -0.098945 -0.150728 48.000000
4.643853 -0.113107 -0.150566 65.000000
4.637491 -0.127189 -0.150325 69.000000
4.628091 -0.141141 -0.149962 71.000000
4.617650 -0.155003 -0.149559 86.000000
4.604172 -0.168692 -0.149035 84.000000
4.596644 -0.182539 -0.148753 59.000000
4.584083 -0.196127 -0.148269 98.000000
4.575474 -0.209823 -0.147946 82.000000
4.572814 -0.223761 -0.147866 95.000000
4.572105 -0.237789 -0.147866 76.000000
4.571354 -0.251815 -0.147866 84.000000
4.571558 -0.265897 -0.147906 79.000000
4.574709 -0.280166 -0.148067 56.000000
4.568843 -0.293878 -0.147866 69.000000
4.569914 -0.308028 -0.147946 76.000000
4.576921 -0.322610 -0.148269 50.000000
4.578899 -0.336870 -0.148390 59.000000
4.581829 -0.351223 -0.148551 61.000000
4.588698 -0.365914 -0.148874 48.000000
4.595520 -0.380651 -0.149196 65.000000
4.603290 -0.395518 -0.149559 62.000000
4.609022 -0.410260 -0.149841 61.000000
4.614706 -0.425040 -0.150123 65.000000
4.627306 -0.440523 -0.150687 56.000000
4.631899 -0.455304 -0.150929 55.000000
4.656327 -0.472135 -0.151977 29.000000
4.676748 -0.087159 -0.208134 28.000000
4.658487 -0.101121 -0.207192 46.000000
4.658154 -0.115413 -0.207192 50.000000
4.647796 -0.129428 -0.206669 65.000000
4.635399 -0.143319 -0.206041 57.000000
4.619967 -0.157035 -0.205256 64.000000
4.606491 -0.170730 -0.204576 65.000000
4.596964 -0.184504 -0.204105 62.000000
4.585402 -0.198135 -0.203529 57.000000
4.573799 -0.211697 -0.202953 76.000000
4.569138 -0.225532 -0.202744 76.000000
4.568425 -0.239549 -0.202744 70.000000
4.564677 -0.253398 -0.202587 90.000000
4.572851 -0.267925 -0.203058 50.000000
4.573004 -0.282014 -0.203110 70.000000
4.579093 -0.296492 -0.203476 55.000000
4.579158 -0.310607 -0.203529 59.000000
4.579180 -0.324724 -0.203581 65.000000
4.580153 -0.338918 -0.203686 64.000000
4.579093 -0.352968 -0.203686 70.000000
4.582965 -0.367413 -0.203948 65.000000
4.584803 -0.381719 -0.204105 68.000000
4.589579 -0.396297 -0.204419 62.000000
4.603262 -0.411707 -0.205204 42.000000
4.616894 -0.427204 -0.205989 40.000000
4.618543 -0.441651 -0.206146 57.000000
4.632074 -0.457286 -0.206931 53.000000
4.642571 -0.472706 -0.207559 32.000000
4.723037 -0.100545 -0.269118 51.000000
4.707742 -0.114668 -0.268147 66.000000
4.695398 -0.128782 -0.267371 67.000000
4.677027 -0.142637 -0.266206 72.000000
4.657619 -0.156348 -0.264976 63.000000
4.645150 -0.170197 -0.264200 39.000000
4.627655 -0.183773 -0.263100 64.000000
4.614108 -0.197414 -0.262259 60.000000
4.604510 -0.211157 -0.261676 68.000000
4.600850 -0.225136 -0.261482 52.000000
4.586186 -0.238523 -0.260576 63.000000
4.579454 -0.252262 -0.260188 68.000000
4.570689 -0.265846 -0.259671 69.000000
4.566864 -0.279685 -0.259476 50.000000
4.562997 -0.293502 -0.259282 63.000000
4.558092 -0.307231 -0.259023 49.000000
4.556132 -0.321143 -0.258959 61.000000
4.557117 -0.335266 -0.259088 58.000000
4.559051 -0.349475 -0.259282 70.000000
4.564921 -0.364016 -0.259735 68.000000
4.568755 -0.378431 -0.260059 47.000000
4.575526 -0.393130 -0.260576 66.000000
4.585232 -0.408140 -0.261288 97.000000
4.593895 -0.423122 -0.261935 55.000000
4.599529 -0.437876 -0.262388 39.000000
4.603130 -0.452474 -0.262712 46.000000
4.609663 -0.467400 -0.263229 27.000000
4.735950 -0.102784 -0.326275 35.000000
4.723651 -0.117019 -0.325357 52.000000
4.710312 -0.131153 -0.324362 61.000000
4.690953 -0.145023 -0.322907 54.000000
4.671552 -0.158775 -0.321453 59.000000
4.650119 -0.172336 -0.319846 58.000000
4.636617 -0.186085 -0.318851 74.000000
4.616101 -0.199454 -0.317320 47.000000
4.605507 -0.213156 -0.316554 39.000000
4.590889 -0.226600 -0.315483 70.000000
4.586190 -0.240476 -0.315176 40.000000
4.572489 -0.253830 -0.314181 54.000000
4.565716 -0.267508 -0.313722 44.000000
4.559898 -0.281209 -0.313339 41.000000
4.548068 -0.294491 -0.312497 74.000000
4.545154 -0.308309 -0.312344 54.000000
4.540208 -0.321971 -0.312038 50.000000
4.531244 -0.335312 -0.311426 58.000000
4.533177 -0.349441 -0.311655 52.000000
4.546992 -0.364538 -0.312804 30.000000
4.536910 -0.377744 -0.312115 57.000000
4.546656 -0.392602 -0.312957 57.000000
4.566286 -0.408409 -0.314564 38.000000
4.573947 -0.423241 -0.315253 34.000000
4.597441 -0.439638 -0.317167 21.000000
4.621870 -0.456281 -0.319157 15.000000
4.750135 -0.102777 -0.385614 41.000000
4.718930 -0.116585 -0.382864 64.000000
4.707597 -0.130756 -0.381888 78.000000
4.700205 -0.144983 -0.381267 78.000000
4.688787 -0.159030 -0.380291 75.000000
4.681310 -0.173156 -0.379670 66.000000
4.675780 -0.187317 -0.379226 43.000000
4.659262 -0.200973 -0.377807 64.000000
4.648674 -0.214806 -0.376920 93.000000
4.620137 -0.227692 -0.374435 44.000000
4.603501 -0.241031 -0.373016 64.000000
4.571910 -0.253441 -0.370266 40.000000
4.564151 -0.267059 -0.369645 47.000000
4.548398 -0.280140 -0.368314 59.000000
4.539565 -0.293578 -0.367604 62.000000
4.531686 -0.307032 -0.366983 77.000000
4.528736 -0.320793 -0.366806 62.000000
4.528724 -0.334759 -0.366894 65.000000
4.526682 -0.348575 -0.366806 74.000000
4.527577 -0.362620 -0.366983 53.000000
4.530414 -0.376839 -0.367338 63.000000
4.542138 -0.391850 -0.368491 39.000000
4.546866 -0.406316 -0.369024 41.000000
4.549566 -0.420631 -0.369378 74.000000
4.563127 -0.436009 -0.370709 43.000000
4.581592 -0.451964 -0.372484 25.000000
4.782232 -0.102944 -0.448933 24.000000
4.758024 -0.117034 -0.446504 43.000000
4.718857 -0.130568 -0.442556 85.000000
4.719429 -0.145075 -0.442657 80.000000
4.719956 -0.159586 -0.442758 63.000000
4.715467 -0.173920 -0.442354 78.000000
4.710935 -0.188229 -0.441949 58.000000
4.699402 -0.202213 -0.440835 53.000000
4.691803 -0.216311 -0.440126 56.000000
4.683168 -0.230315 -0.439317 73.000000
4.618854 -0.241375 -0.432838 37.000000
4.596238 -0.254340 -0.430611 41.000000
4.581531 -0.267631 -0.429194 35.000000
4.561821 -0.280531 -0.427270 56.000000
4.548033 -0.293695 -0.425954 63.000000
4.544132 -0.307446 -0.425651 40.000000
4.533244 -0.320686 -0.424638 47.000000
4.534223 -0.334738 -0.424841 50.000000
4.530199 -0.348419 -0.424537 67.000000
4.532084 -0.362553 -0.424841 46.000000
4.532933 -0.376620 -0.425043 45.000000
4.535721 -0.390866 -0.425448 57.000000
4.543419 -0.405573 -0.426359 38.000000
4.553051 -0.420514 -0.427473 32.000000
4.565605 -0.435801 -0.428890 26.000000
4.737110 -0.116211 -0.501073 36.000000
4.725805 -0.130441 -0.499829 98.000000
4.724390 -0.144908 -0.499716 87.000000
4.727895 -0.159536 -0.500168 80.000000
4.729369 -0.174114 -0.500394 62.000000
4.726827 -0.188543 -0.500168 73.000000
4.727219 -0.203087 -0.500281 54.000000
4.719626 -0.217268 -0.499490 50.000000
4.710999 -0.231356 -0.498586 65.000000
4.693398 -0.244927 -0.496664 63.000000
4.647981 -0.256854 -0.491578 43.000000
4.622374 -0.269664 -0.488752 35.000000
4.579873 -0.281282 -0.484005 64.000000
4.555192 -0.293795 -0.481292 69.000000
4.544356 -0.307098 -0.480162 76.000000
4.542401 -0.320968 -0.480049 71.000000
4.539413 -0.334756 -0.479823 59.000000
4.541337 -0.348910 -0.480162 53.000000
4.543216 -0.363078 -0.480501 68.000000
4.545052 -0.377262 -0.480840 66.000000
4.554762 -0.392143 -0.482084 58.000000
4.560465 -0.406733 -0.482875 58.000000
4.569090 -0.421636 -0.484005 67.000000
4.573709 -0.436219 -0.484683 55.000000
4.575315 -0.450541 -0.485022 32.000000
4.741948 -0.116643 -0.561057 31.000000
4.744543 -0.131272 -0.561433 67.000000
4.743126 -0.145797 -0.561308 63.000000
4.739682 -0.160248 -0.560932 77.000000
4.738176 -0.174752 -0.560806 78.000000
4.734644 -0.189170 -0.560430 68.000000
4.733050 -0.203652 -0.560305 76.000000
4.735376 -0.218309 -0.560681 70.000000
4.734684 -0.232835 -0.560681 68.000000
4.723049 -0.246793 -0.559302 70.000000
4.703448 -0.260246 -0.556921 59.000000
4.668952 -0.272716 -0.552660 53.000000
4.600756 -0.282915 -0.544137 49.000000
4.582046 -0.295882 -0.541881 45.000000
4.557359 -0.308337 -0.538873 52.000000
4.545506 -0.321550 -0.537494 46.000000
4.546476 -0.335640 -0.537745 47.000000
4.546415 -0.349662 -0.537870 47.000000
4.551254 -0.364082 -0.538622 52.000000
4.563958 -0.379190 -0.540377 32.000000
4.566727 -0.393530 -0.540878 48.000000
4.583286 -0.409122 -0.543135 22.000000
4.572130 -0.422271 -0.541881 29.000000
4.574764 -0.436672 -0.542382 27.000000
4.460844 -0.439642 -0.528094 11.000000
4.767678 -0.129940 -0.623443 39.000000
4.763297 -0.144446 -0.622893 69.000000
4.763822 -0.159092 -0.623031 62.000000
4.762321 -0.173671 -0.622893 71.000000
4.761765 -0.188280 -0.622893 66.000000
4.760176 -0.202846 -0.622756 66.000000
4.757552 -0.217358 -0.622481 65.000000
4.756863 -0.231953 -0.622481 70.000000
4.750194 -0.246238 -0.621656 77.000000
4.746449 -0.260647 -0.621244 92.000000
4.712996 -0.273313 -0.616708 69.000000
4.626121 -0.282511 -0.604751 46.000000
4.578774 -0.293718 -0.598291 64.000000
4.550180 -0.305902 -0.594442 74.000000
4.543292 -0.319443 -0.593618 69.000000
4.541303 -0.333307 -0.593480 60.000000
4.543221 -0.347465 -0.593892 69.000000
4.551020 -0.362110 -0.595129 61.000000
4.559760 -0.376887 -0.596504 78.000000
4.566476 -0.391552 -0.597603 64.000000
4.572160 -0.406174 -0.598566 94.000000
4.576810 -0.420744 -0.599390 87.000000
4.576485 -0.434877 -0.599528 36.000000
4.780717 -0.147776 -0.683095 36.000000
4.778265 -0.162376 -0.682796 57.000000
4.783673 -0.177253 -0.683692 81.000000
4.774215 -0.191573 -0.682349 63.000000
4.773605 -0.206219 -0.682349 65.000000
4.771962 -0.220818 -0.682200 71.000000
4.768299 -0.235312 -0.681752 79.000000
4.764592 -0.249785 -0.681305 73.000000
4.761829 -0.264292 -0.681006 73.000000
4.725459 -0.276827 -0.675635 51.000000
4.659449 -0.287323 -0.665789 42.000000
4.631903 -0.299898 -0.661761 38.000000
4.612216 -0.312841 -0.658926 36.000000
4.586576 -0.325247 -0.655196 38.000000
4.558931 -0.337353 -0.651168 57.000000
4.553931 -0.351035 -0.650571 48.000000
4.555790 -0.365241 -0.651019 52.000000
4.569429 -0.380443 -0.653257 45.000000
4.575136 -0.395054 -0.654301 35.000000
4.588676 -0.410406 -0.656539 27.000000
4.595273 -0.425209 -0.657733 44.000000
4.602806 -0.440150 -0.659075 22.000000
4.797976 -0.161071 -0.744801 80.000000
4.790555 -0.175537 -0.743674 47.000000
4.788022 -0.190155 -0.743352 87.000000
4.782486 -0.204632 -0.742546 86.000000
4.776906 -0.219077 -0.741741 96.000000
4.772268 -0.233538 -0.741096 83.000000
4.772515 -0.248229 -0.741257 95.000000
4.771731 -0.262870 -0.741257 87.000000
4.769917 -0.277451 -0.741096 87.000000
4.763133 -0.291721 -0.740130 67.000000
4.750396 -0.305572 -0.738197 49.000000
4.579100 -0.322764 -0.710490 94.000000
4.568245 -0.336086 -0.708879 74.000000
4.560304 -0.349571 -0.707751 71.000000
4.553308 -0.363089 -0.706785 59.000000
4.552172 -0.377056 -0.706785 77.000000
4.556893 -0.391528 -0.707751 72.000000
4.557637 -0.405682 -0.708074 65.000000
4.565216 -0.420478 -0.709523 72.000000
4.568817 -0.434950 -0.710329 62.000000
4.758214 -0.293388 -0.798216 46.000000
4.764172 -0.308429 -0.799426 30.000000
4.698328 -0.333143 -0.788184 34.000000
4.616739 -0.341616 -0.774001 40.000000
4.600938 -0.354647 -0.771407 36.000000
4.570374 -0.366407 -0.766218 29.000000
4.545672 -0.378471 -0.762067 48.000000
4.538601 -0.391909 -0.761029 53.000000
4.539340 -0.406006 -0.761375 35.000000
4.535131 -0.419659 -0.760856 40.000000
4.536763 -0.433851 -0.761375 25.000000
