ply
format ascii 1.0
element vertex 1254
property float x
property float y
property float z
property float intensity
end_header
3.113786 -0.354253 0.448343 44.000000
3.103822 -0.362768 0.447163 32.000000
3.099741 -0.371934 0.446770 33.000000
3.091699 -0.380593 0.445853 32.000000
3.082648 -0.389082 0.444805 31.000000
3.072591 -0.397393 0.443625 32.000000
3.067426 -0.406296 0.443101 37.000000
3.058306 -0.414638 0.442053 40.000000
3.058984 -0.424292 0.442315 43.000000
3.047852 -0.432281 0.441004 41.000000
3.041606 -0.440918 0.440349 47.000000
3.035336 -0.449521 0.439694 37.000000
3.028061 -0.457941 0.438908 29.000000
3.018804 -0.466018 0.437859 27.000000
3.015401 -0.474968 0.437597 40.000000
3.004142 -0.482643 0.436287 16.000000
3.016344 -0.494103 0.438121 6.000000
3.514062 0.184805 0.455766 37.000000
3.503704 0.173479 0.454458 40.000000
3.497277 0.162404 0.453626 44.000000
3.488831 0.151284 0.452556 47.000000
3.474398 0.139975 0.450772 45.000000
3.468858 0.129092 0.450058 57.000000
3.460306 0.118141 0.448988 43.000000
3.452713 0.107275 0.448036 40.000000
3.446079 0.096484 0.447204 45.000000
3.435440 0.085636 0.445896 40.000000
3.428738 0.074941 0.445063 50.000000
3.421010 0.064270 0.444112 30.000000
3.407292 0.053551 0.442447 31.000000
3.402476 0.043033 0.441852 43.000000
3.391671 0.032485 0.440544 36.000000
3.384805 0.022032 0.439712 33.000000
3.378899 0.011625 0.438998 34.000000
3.371969 0.001254 0.438166 36.000000
3.366992 -0.009080 0.437571 36.000000
3.360991 -0.019377 0.436858 33.000000
3.355951 -0.029647 0.436263 29.000000
3.352866 -0.039908 0.435906 34.000000
3.343793 -0.050063 0.434836 43.000000
3.342630 -0.060304 0.434717 38.000000
3.330518 -0.070312 0.433290 47.000000
3.321352 -0.080316 0.432220 51.000000
3.313150 -0.090292 0.431268 48.000000
3.301941 -0.100129 0.429960 48.000000
3.294671 -0.110030 0.429128 39.000000
3.289356 -0.119958 0.428533 40.000000
3.277067 -0.129582 0.427106 39.000000
3.275662 -0.139594 0.426987 55.000000
3.266292 -0.149238 0.425917 38.000000
3.257885 -0.158874 0.424965 36.000000
3.249449 -0.168460 0.424014 40.000000
3.239003 -0.177887 0.422825 49.000000
3.228529 -0.187252 0.421635 51.000000
3.221993 -0.196795 0.420922 41.000000
3.213447 -0.206174 0.419970 34.000000
3.202893 -0.215369 0.418781 41.000000
3.199245 -0.224986 0.418424 43.000000
3.192599 -0.234367 0.417711 32.000000
3.185924 -0.243708 0.416997 28.000000
3.180213 -0.253089 0.416403 37.000000
3.169525 -0.262030 0.415213 35.000000
3.163760 -0.271331 0.414619 37.000000
3.158957 -0.280686 0.414143 39.000000
3.153137 -0.289923 0.413548 24.000000
3.145313 -0.298940 0.412716 32.000000
3.141417 -0.308299 0.412359 42.000000
3.136504 -0.317537 0.411884 31.000000
3.126627 -0.326234 0.410813 40.000000
3.119688 -0.335190 0.410100 30.000000
3.110749 -0.343890 0.409148 45.000000
3.106720 -0.353097 0.408792 30.000000
3.099705 -0.361938 0.408078 25.000000
3.094636 -0.370974 0.407602 25.000000
3.085599 -0.379500 0.406651 36.000000
3.081465 -0.388593 0.406294 34.000000
3.072381 -0.397030 0.405343 30.000000
3.067210 -0.405935 0.404867 35.000000
3.059062 -0.414412 0.404035 38.000000
3.051875 -0.422980 0.403321 28.000000
3.042698 -0.431229 0.402370 34.000000
3.035465 -0.439710 0.401656 52.000000
3.027226 -0.448006 0.400824 33.000000
3.022892 -0.456847 0.400467 24.000000
3.011662 -0.464609 0.399278 30.000000
2.998452 -0.471999 0.397851 16.000000
2.995029 -0.480881 0.397613 19.000000
3.020977 -0.494549 0.400943 8.000000
3.518958 0.185084 0.412937 32.000000
3.511564 0.173894 0.412083 31.000000
3.501156 0.162614 0.410908 43.000000
3.495678 0.151614 0.410268 41.000000
3.479238 0.140210 0.408452 47.000000
3.467729 0.129093 0.407171 46.000000
3.465127 0.118352 0.406850 25.000000
3.449573 0.107228 0.405142 37.000000
3.441935 0.096422 0.404288 51.000000
3.439233 0.085788 0.403967 47.000000
3.430533 0.075041 0.403006 45.000000
3.427765 0.064461 0.402686 54.000000
3.419993 0.053820 0.401832 54.000000
3.409206 0.043190 0.400657 42.000000
3.401368 0.032655 0.399803 56.000000
3.392504 0.022162 0.398842 48.000000
3.380625 0.011714 0.397560 41.000000
3.377662 0.001341 0.397240 44.000000
3.371685 -0.009005 0.396599 35.000000
3.365676 -0.019314 0.395958 38.000000
3.362618 -0.029613 0.395638 28.000000
3.356546 -0.039858 0.394997 39.000000
3.349449 -0.050050 0.394250 42.000000
3.341326 -0.060182 0.393396 31.000000
3.334167 -0.070285 0.392648 40.000000
3.323996 -0.080273 0.391580 42.000000
3.312801 -0.090171 0.390406 36.000000
3.303565 -0.100062 0.389444 48.000000
3.293305 -0.109865 0.388377 42.000000
3.286990 -0.119750 0.387736 32.000000
3.277666 -0.129479 0.386775 36.000000
3.270300 -0.139238 0.386027 39.000000
3.261912 -0.148906 0.385173 42.000000
3.252501 -0.158477 0.384212 35.000000
3.242070 -0.167939 0.383144 35.000000
3.239554 -0.177775 0.382931 59.000000
3.230060 -0.187195 0.381970 48.000000
3.224509 -0.196800 0.381436 39.000000
3.218929 -0.206373 0.380902 43.000000
3.211336 -0.215780 0.380154 56.000000
3.206692 -0.225352 0.379727 36.000000
3.199044 -0.234679 0.378980 43.000000
3.187403 -0.243657 0.377805 44.000000
3.178712 -0.252804 0.376951 40.000000
3.167022 -0.261653 0.375776 50.000000
3.160260 -0.270858 0.375135 50.000000
3.156443 -0.280288 0.374815 47.000000
3.147647 -0.289241 0.373961 36.000000
3.148725 -0.299085 0.374174 37.000000
3.144824 -0.308452 0.373854 48.000000
3.136938 -0.317398 0.373106 33.000000
3.131994 -0.326607 0.372679 33.000000
3.125046 -0.335577 0.372039 47.000000
3.113131 -0.343960 0.370864 36.000000
3.108109 -0.353060 0.370437 46.000000
3.100099 -0.361786 0.369689 29.000000
3.094038 -0.370704 0.369155 38.000000
3.088938 -0.379709 0.368728 44.000000
3.083813 -0.388686 0.368301 31.000000
3.077676 -0.397507 0.367767 33.000000
3.073485 -0.406556 0.367447 44.000000
3.065326 -0.415049 0.366699 42.000000
3.057144 -0.423495 0.365952 41.000000
3.052877 -0.432454 0.365631 46.000000
3.047600 -0.441247 0.365204 41.000000
3.035413 -0.448994 0.364030 45.000000
3.025173 -0.456966 0.363069 39.000000
3.019827 -0.465639 0.362642 25.000000
3.008562 -0.473355 0.361574 44.000000
3.005132 -0.482267 0.361360 43.000000
2.994807 -0.490038 0.360399 29.000000
2.986425 -0.498078 0.359652 31.000000
3.474271 0.203477 0.366719 10.000000
3.504697 0.194482 0.369568 30.000000
3.511241 0.184044 0.370138 79.000000
3.505824 0.172974 0.369568 51.000000
3.496395 0.161754 0.368618 44.000000
3.487923 0.150637 0.367763 59.000000
3.472454 0.139292 0.366244 54.000000
3.468886 0.128489 0.365864 35.000000
3.457325 0.117436 0.364724 47.000000
3.446724 0.106487 0.363679 54.000000
3.437084 0.095632 0.362730 51.000000
3.430395 0.084912 0.362065 51.000000
3.423673 0.074234 0.361400 36.000000
3.417913 0.063617 0.360830 36.000000
3.408138 0.052972 0.359880 33.000000
3.401317 0.042427 0.359215 36.000000
3.396454 0.031943 0.358741 48.000000
3.386581 0.021456 0.357791 56.000000
3.378668 0.011037 0.357031 37.000000
3.369726 0.000667 0.356176 44.000000
3.358762 -0.009644 0.355131 52.000000
3.356726 -0.019937 0.354941 37.000000
3.344703 -0.030132 0.353802 43.000000
3.338623 -0.040323 0.353232 45.000000
3.330521 -0.050448 0.352472 43.000000
3.315420 -0.060399 0.351047 48.000000
3.307257 -0.070404 0.350288 42.000000
3.295083 -0.080263 0.349148 57.000000
3.281885 -0.090022 0.347913 47.000000
3.280598 -0.100060 0.347818 35.000000
3.267342 -0.109695 0.346583 37.000000
3.266990 -0.119718 0.346583 54.000000
3.263623 -0.129623 0.346299 45.000000
3.260226 -0.139509 0.346014 53.000000
3.256800 -0.149374 0.345729 49.000000
3.251355 -0.159124 0.345254 52.000000
3.243892 -0.168739 0.344589 45.000000
3.240377 -0.178527 0.344304 46.000000
3.230870 -0.187950 0.343449 38.000000
3.223323 -0.197438 0.342784 37.000000
3.212767 -0.206691 0.341835 36.000000
3.207151 -0.216213 0.341360 42.000000
3.200515 -0.225634 0.340790 42.000000
3.193851 -0.235016 0.340220 45.000000
3.188152 -0.244434 0.339745 41.000000
3.181432 -0.253742 0.339175 37.000000
3.175679 -0.263092 0.338700 29.000000
3.172873 -0.272664 0.338510 24.000000
3.170038 -0.282221 0.338320 34.000000
3.162218 -0.291308 0.337656 49.000000
3.158337 -0.300727 0.337371 53.000000
3.146501 -0.309348 0.336326 39.000000
3.137613 -0.318199 0.335566 34.000000
3.128701 -0.326999 0.334806 33.000000
3.119765 -0.335746 0.334047 32.000000
3.106847 -0.344006 0.332907 36.000000
3.101820 -0.353087 0.332527 43.000000
3.095778 -0.362026 0.332052 36.000000
3.087734 -0.370694 0.331387 38.000000
3.077690 -0.379073 0.330532 28.000000
3.071574 -0.387892 0.330057 36.000000
3.062471 -0.396294 0.329298 38.000000
3.060254 -0.405558 0.329203 47.000000
3.057022 -0.414677 0.329013 36.000000
3.051791 -0.423508 0.328633 42.000000
3.050478 -0.432869 0.328633 37.000000
3.049135 -0.442226 0.328633 46.000000
3.035947 -0.449832 0.327493 43.000000
3.025694 -0.457807 0.326638 37.000000
3.019355 -0.466330 0.326163 27.000000
3.004143 -0.473427 0.324834 19.000000
3.010540 -0.483902 0.325594 48.000000
3.000199 -0.491690 0.324739 27.000000
3.004568 -0.501874 0.325309 19.000000
3.393287 0.220274 0.316231 7.000000
3.506348 0.216800 0.325549 22.000000
3.545798 0.208317 0.328765 37.000000
3.528509 0.196442 0.327281 63.000000
3.527105 0.185511 0.327116 75.000000
3.525666 0.174591 0.326951 85.000000
3.513243 0.163174 0.325879 68.000000
3.477884 0.150844 0.322911 33.000000
3.481317 0.140293 0.323158 46.000000
3.478744 0.129501 0.322911 49.000000
3.469164 0.118489 0.322086 49.000000
3.463535 0.107660 0.321591 36.000000
3.454883 0.096783 0.320849 44.000000
3.444205 0.085911 0.319942 50.000000
3.439470 0.075236 0.319530 44.000000
3.426731 0.064441 0.318458 48.000000
3.416948 0.053772 0.317633 48.000000
3.413111 0.043239 0.317303 40.000000
3.403262 0.032673 0.316479 45.000000
3.396370 0.022187 0.315901 32.000000
3.390443 0.011747 0.315407 39.000000
3.381494 0.001342 0.314665 50.000000
3.374506 -0.009012 0.314087 45.000000
3.368483 -0.019330 0.313593 35.000000
3.361432 -0.029602 0.313015 40.000000
3.354349 -0.039831 0.312438 42.000000
3.346239 -0.050002 0.311778 49.000000
3.334113 -0.060051 0.310789 39.000000
3.321957 -0.070026 0.309799 32.000000
3.315748 -0.080073 0.309305 38.000000
3.305525 -0.089972 0.308480 38.000000
3.295272 -0.099810 0.307655 60.000000
3.282998 -0.109520 0.306666 29.000000
3.285634 -0.119700 0.306913 51.000000
3.281268 -0.129622 0.306583 51.000000
3.278864 -0.139603 0.306419 45.000000
3.269460 -0.149252 0.305676 38.000000
3.261023 -0.158893 0.305017 56.000000
3.252559 -0.168483 0.304357 51.000000
3.238095 -0.177695 0.303203 28.000000
3.229575 -0.187166 0.302543 34.000000
3.221028 -0.196587 0.301883 38.000000
3.212453 -0.205957 0.301224 40.000000
3.206835 -0.215477 0.300811 54.000000
3.201188 -0.224965 0.300399 44.000000
3.200483 -0.234785 0.300399 45.000000
3.196766 -0.244374 0.300152 47.000000
3.193021 -0.253943 0.299904 39.000000
3.187261 -0.263327 0.299492 39.000000
3.183460 -0.272849 0.299244 42.000000
3.177644 -0.282173 0.298832 44.000000
3.172794 -0.291555 0.298502 41.000000
3.164940 -0.300627 0.297925 42.000000
3.157059 -0.309654 0.297348 49.000000
3.147171 -0.318434 0.296606 47.000000
3.141223 -0.327571 0.296193 36.000000
3.134258 -0.336567 0.295699 47.000000
3.125286 -0.345305 0.295039 39.000000
3.115301 -0.353878 0.294297 42.000000
3.110240 -0.362971 0.293967 39.000000
3.100207 -0.371444 0.293225 37.000000
3.092129 -0.380101 0.292648 42.000000
3.084027 -0.388713 0.292070 37.000000
3.074913 -0.397150 0.291411 35.000000
3.072692 -0.406451 0.291328 30.000000
3.065505 -0.415073 0.290834 44.000000
3.058294 -0.423655 0.290339 41.000000
3.054020 -0.432616 0.290091 38.000000
3.048733 -0.441412 0.289762 48.000000
3.036520 -0.449158 0.288854 31.000000
3.025274 -0.456982 0.288030 41.000000
3.024843 -0.466413 0.288112 26.000000
3.027335 -0.476311 0.288442 41.000000
3.034716 -0.487019 0.289184 31.000000
3.072956 -0.512521 0.292648 16.000000
3.538132 0.206005 0.286001 16.000000
3.535759 0.194984 0.285789 42.000000
3.523391 0.183457 0.284871 53.000000
3.515967 0.172253 0.284306 35.000000
3.505518 0.160959 0.283529 53.000000
3.496030 0.149773 0.282823 38.000000
3.488499 0.138727 0.282258 37.000000
3.481931 0.127765 0.281764 37.000000
3.475328 0.116845 0.281269 41.000000
3.466697 0.105905 0.280634 42.000000
3.453046 0.094881 0.279645 27.000000
3.449332 0.084188 0.279362 50.000000
3.441596 0.073432 0.278797 50.000000
3.432829 0.062706 0.278162 34.000000
3.424028 0.052035 0.277526 34.000000
3.415195 0.041418 0.276890 31.000000
3.409321 0.030883 0.276467 48.000000
3.399425 0.020360 0.275760 29.000000
3.394484 0.009915 0.275407 36.000000
3.381531 -0.000502 0.274489 30.000000
3.373533 -0.010853 0.273924 23.000000
3.365505 -0.021156 0.273359 29.000000
3.358442 -0.031418 0.272865 36.000000
3.353342 -0.041661 0.272512 24.000000
3.340232 -0.051753 0.271593 38.000000
3.324101 -0.061709 0.270463 30.000000
3.316915 -0.071759 0.269969 38.000000
3.307704 -0.081716 0.269333 40.000000
3.296469 -0.091563 0.268556 39.000000
3.283211 -0.101280 0.267638 45.000000
3.274910 -0.111085 0.267073 46.000000
3.273557 -0.121095 0.267003 37.000000
3.270180 -0.131019 0.266791 48.000000
3.265776 -0.140881 0.266508 26.000000
3.259350 -0.150625 0.266085 38.000000
3.251898 -0.160283 0.265590 48.000000
3.247406 -0.170051 0.265308 34.000000
3.238902 -0.179575 0.264743 34.000000
3.230369 -0.189047 0.264178 36.000000
3.220813 -0.198408 0.263542 44.000000
3.216207 -0.208033 0.263259 33.000000
3.207592 -0.217362 0.262694 41.000000
3.200940 -0.226781 0.262271 35.000000
3.193265 -0.236088 0.261776 30.000000
3.186558 -0.245426 0.261353 29.000000
3.181813 -0.254884 0.261070 41.000000
3.172069 -0.263904 0.260434 39.000000
3.160312 -0.272695 0.259658 30.000000
3.156480 -0.282124 0.259446 37.000000
3.151626 -0.291441 0.259163 33.000000
3.150717 -0.301108 0.259163 29.000000
3.141837 -0.309993 0.258598 32.000000
3.133924 -0.318926 0.258104 36.000000
3.129955 -0.328228 0.257892 34.000000
3.121991 -0.337082 0.257397 42.000000
3.115985 -0.346110 0.257044 30.000000
3.107970 -0.354878 0.256550 37.000000
3.098941 -0.363485 0.255985 37.000000
3.100782 -0.373347 0.256197 50.000000
3.089722 -0.381640 0.255490 36.000000
3.080620 -0.390117 0.254925 24.000000
3.073473 -0.398799 0.254502 37.000000
3.064324 -0.407178 0.253937 33.000000
3.054164 -0.415371 0.253301 44.000000
3.046947 -0.423917 0.252877 23.000000
3.038719 -0.432282 0.252383 37.000000
3.034417 -0.441173 0.252171 37.000000
3.033049 -0.450480 0.252171 30.000000
3.028694 -0.459336 0.251959 28.000000
3.034171 -0.469691 0.252454 24.000000
3.049467 -0.481637 0.253654 23.000000
3.080475 -0.496213 0.255985 16.000000
3.096658 -0.508565 0.257256 14.000000
3.104921 -0.519706 0.257962 20.000000
3.128880 -0.533580 0.259799 14.000000
3.144919 -0.546242 0.261070 19.000000
3.167787 -0.560222 0.262836 9.000000
3.504275 0.183703 0.239437 30.000000
3.498840 0.172656 0.239088 31.000000
3.492372 0.161599 0.238682 41.000000
3.493849 0.150927 0.238740 29.000000
3.485318 0.139848 0.238217 40.000000
3.478747 0.128896 0.237810 54.000000
3.476133 0.118122 0.237636 42.000000
3.470492 0.107272 0.237288 53.000000
3.461823 0.096375 0.236765 38.000000
3.456115 0.085606 0.236416 38.000000
3.447378 0.074809 0.235894 36.000000
3.435614 0.064010 0.235196 33.000000
3.428807 0.053362 0.234790 40.000000
3.423964 0.042780 0.234499 38.000000
3.416092 0.032201 0.234035 53.000000
3.409187 0.021677 0.233628 52.000000
3.399255 0.011186 0.233047 38.000000
3.387293 0.000756 0.232350 32.000000
3.381289 -0.009619 0.232002 32.000000
3.374256 -0.019950 0.231595 31.000000
3.363198 -0.030202 0.230956 47.000000
3.356102 -0.040435 0.230550 44.000000
3.345980 -0.050579 0.229969 46.000000
3.336826 -0.060680 0.229446 45.000000
3.331633 -0.070810 0.229155 39.000000
3.320422 -0.080763 0.228517 30.000000
3.311178 -0.090703 0.227994 34.000000
3.302901 -0.100617 0.227529 56.000000
3.293597 -0.110447 0.227006 29.000000
3.294240 -0.120588 0.227064 48.000000
3.284877 -0.130337 0.226542 49.000000
3.280472 -0.140243 0.226309 43.000000
3.274043 -0.150032 0.225961 49.000000
3.262599 -0.159538 0.225322 42.000000
3.252125 -0.169027 0.224741 56.000000
3.240626 -0.178399 0.224102 47.000000
3.230097 -0.187760 0.223521 45.000000
3.220538 -0.197119 0.222998 48.000000
3.206967 -0.206164 0.222243 49.000000
3.199347 -0.215531 0.221837 38.000000
3.191700 -0.224854 0.221430 47.000000
3.189004 -0.234498 0.221314 38.000000
3.185283 -0.244052 0.221139 36.000000
3.179544 -0.253426 0.220849 38.000000
3.178751 -0.263179 0.220849 50.000000
3.172956 -0.272502 0.220559 36.000000
3.167133 -0.281793 0.220268 57.000000
3.160289 -0.290958 0.219920 51.000000
3.156400 -0.300368 0.219745 42.000000
3.148509 -0.309366 0.219339 40.000000
3.143572 -0.318621 0.219106 57.000000
3.135629 -0.327537 0.218700 38.000000
3.128654 -0.336514 0.218351 57.000000
3.120662 -0.345342 0.217945 40.000000
3.115620 -0.354462 0.217712 55.000000
3.105594 -0.362975 0.217190 46.000000
3.097528 -0.371668 0.216783 46.000000
3.090428 -0.380437 0.216434 35.000000
3.080332 -0.388790 0.215912 36.000000
3.074174 -0.397597 0.215621 36.000000
3.066013 -0.406109 0.215215 42.000000
3.059806 -0.414842 0.214924 44.000000
3.055552 -0.423815 0.214750 51.000000
3.050284 -0.432626 0.214518 43.000000
3.043015 -0.441122 0.214169 52.000000
3.033747 -0.449285 0.213704 43.000000
3.029393 -0.458142 0.213530 39.000000
3.041785 -0.469568 0.214343 36.000000
3.052164 -0.480764 0.215040 36.000000
3.092072 -0.496781 0.217480 20.000000
3.102355 -0.508204 0.218177 19.000000
3.130322 -0.522655 0.219920 35.000000
3.158228 -0.537283 0.221662 32.000000
3.180172 -0.551063 0.223056 29.000000
3.200094 -0.564636 0.224334 18.000000
3.208173 -0.576217 0.224915 26.000000
3.216210 -0.587853 0.225496 18.000000
3.235002 -0.601552 0.226716 9.000000
3.491534 0.181179 0.197271 37.000000
3.489080 0.170319 0.197132 35.000000
3.490584 0.159660 0.197178 31.000000
3.489062 0.148865 0.197086 38.000000
3.486507 0.138040 0.196947 37.000000
3.485916 0.127306 0.196901 38.000000
3.477305 0.116307 0.196485 35.000000
3.465664 0.105271 0.195930 27.000000
3.462975 0.094555 0.195791 37.000000
3.456259 0.083758 0.195468 34.000000
3.439521 0.072789 0.194682 39.000000
3.432737 0.062108 0.194358 36.000000
3.419927 0.051377 0.193757 40.000000
3.409081 0.040749 0.193248 40.000000
3.406193 0.030262 0.193110 40.000000
3.396281 0.019751 0.192647 38.000000
3.384338 0.009294 0.192093 32.000000
3.375361 -0.001089 0.191676 38.000000
3.370347 -0.011430 0.191445 32.000000
3.360307 -0.021709 0.190983 35.000000
3.348238 -0.031908 0.190428 24.000000
3.339134 -0.042070 0.190012 47.000000
3.330999 -0.052191 0.189642 54.000000
3.323832 -0.062282 0.189318 44.000000
3.319630 -0.072393 0.189133 30.000000
3.310405 -0.082357 0.188717 50.000000
3.299153 -0.092210 0.188209 38.000000
3.294860 -0.102208 0.188024 28.000000
3.288541 -0.112114 0.187746 42.000000
3.276203 -0.121762 0.187192 38.000000
3.267828 -0.131494 0.186822 42.000000
3.263418 -0.141348 0.186637 44.000000
3.253988 -0.150946 0.186221 39.000000
3.248521 -0.160683 0.185990 42.000000
3.235044 -0.169972 0.185388 47.000000
3.227525 -0.179510 0.185065 48.000000
3.225962 -0.189353 0.185019 44.000000
3.220381 -0.198943 0.184787 24.000000
3.214771 -0.208501 0.184556 29.000000
3.204149 -0.217689 0.184094 34.000000
3.196492 -0.227025 0.183770 31.000000
3.190799 -0.236464 0.183539 35.000000
3.181095 -0.245563 0.183123 29.000000
3.174352 -0.254844 0.182846 33.000000
3.162604 -0.263673 0.182337 31.000000
3.157799 -0.273031 0.182152 33.000000
3.152967 -0.282363 0.181967 36.000000
3.138160 -0.290750 0.181320 34.000000
3.135264 -0.300187 0.181227 25.000000
3.127370 -0.309119 0.180904 33.000000
3.119450 -0.318006 0.180580 35.000000
3.120447 -0.327782 0.180673 37.000000
3.116447 -0.337033 0.180534 38.000000
3.108448 -0.345822 0.180210 41.000000
3.106380 -0.355244 0.180164 34.000000
3.095355 -0.363611 0.179702 30.000000
3.087282 -0.372271 0.179378 35.000000
3.078194 -0.380763 0.179008 39.000000
3.070074 -0.389328 0.178684 36.000000
3.062921 -0.397975 0.178407 48.000000
3.056734 -0.406713 0.178176 40.000000
3.063391 -0.417164 0.178546 29.000000
3.050223 -0.424911 0.177991 33.000000
3.042971 -0.433424 0.177714 38.000000
3.034708 -0.441753 0.177390 34.000000
3.033338 -0.451061 0.177390 26.000000
3.032927 -0.460515 0.177436 23.000000
3.035449 -0.470428 0.177621 31.000000
3.054713 -0.483007 0.178592 32.000000
3.088722 -0.498088 0.180256 27.000000
3.152239 -0.518234 0.183308 15.000000
3.185118 -0.533667 0.184926 14.000000
3.187405 -0.544108 0.185111 30.000000
3.210327 -0.558153 0.186267 28.000000
3.225322 -0.570953 0.187053 19.000000
3.222572 -0.580669 0.187007 11.000000
3.228636 -0.591992 0.187377 9.000000
3.229751 -0.602443 0.187515 5.000000
3.494231 0.182568 0.154164 25.000000
3.489784 0.171603 0.153995 31.000000
3.492291 0.160987 0.154062 44.000000
3.487776 0.150058 0.153893 41.000000
3.479232 0.138999 0.153588 49.000000
3.472651 0.128067 0.153352 35.000000
3.460042 0.116975 0.152911 41.000000
3.456389 0.106237 0.152776 45.000000
3.453701 0.095550 0.152674 53.000000
3.448982 0.084831 0.152505 59.000000
3.445230 0.074164 0.152370 37.000000
3.441444 0.063520 0.152234 50.000000
3.430630 0.052794 0.151862 45.000000
3.422782 0.042171 0.151591 36.000000
3.409903 0.031551 0.151151 42.000000
3.393993 0.020992 0.150609 41.000000
3.380049 0.010538 0.150135 44.000000
3.368073 0.000168 0.149729 42.000000
3.365059 -0.010155 0.149628 42.000000
3.359016 -0.020442 0.149425 33.000000
3.349943 -0.030664 0.149120 36.000000
3.339839 -0.040818 0.148781 46.000000
3.331704 -0.050941 0.148511 34.000000
3.322539 -0.060996 0.148206 42.000000
3.320337 -0.071146 0.148138 48.000000
3.311112 -0.081111 0.147833 42.000000
3.299858 -0.090965 0.147461 43.000000
3.298564 -0.101057 0.147427 40.000000
3.292245 -0.110974 0.147224 39.000000
3.284898 -0.120816 0.146987 36.000000
3.276523 -0.130574 0.146716 59.000000
3.268119 -0.140282 0.146446 47.000000
3.258688 -0.149893 0.146141 50.000000
3.250227 -0.159497 0.145870 47.000000
3.239742 -0.168946 0.145531 33.000000
3.232223 -0.178498 0.145295 47.000000
3.225674 -0.188064 0.145091 52.000000
3.223087 -0.197837 0.145024 52.000000
3.218475 -0.207466 0.144888 37.000000
3.215829 -0.217205 0.144821 48.000000
3.209166 -0.226646 0.144617 39.000000
3.201478 -0.235976 0.144380 51.000000
3.194761 -0.245337 0.144177 42.000000
3.186023 -0.254500 0.143907 43.000000
3.174271 -0.263363 0.143534 49.000000
3.168470 -0.272671 0.143365 52.000000
3.160650 -0.281768 0.143128 49.000000
3.154794 -0.291004 0.142959 38.000000
3.147918 -0.300112 0.142756 36.000000
3.136041 -0.308690 0.142383 37.000000
3.132096 -0.318006 0.142282 44.000000
3.130112 -0.327510 0.142248 36.000000
3.122137 -0.336361 0.142011 44.000000
3.116123 -0.345387 0.141842 59.000000
3.109091 -0.354266 0.141638 44.000000
3.105012 -0.363454 0.141537 42.000000
3.098921 -0.372381 0.141368 46.000000
3.087845 -0.380663 0.141029 39.000000
3.074764 -0.388629 0.140623 39.000000
3.067611 -0.397289 0.140420 36.000000
3.054488 -0.405120 0.140013 37.000000
3.046299 -0.413548 0.139776 36.000000
3.034127 -0.421378 0.139404 51.000000
3.026883 -0.429841 0.139201 40.000000
3.023572 -0.438838 0.139133 50.000000
3.015291 -0.447085 0.138896 31.000000
3.013905 -0.456333 0.138896 35.000000
3.014466 -0.465883 0.138964 35.000000
3.029805 -0.477778 0.139540 35.000000
3.073715 -0.494377 0.141097 24.000000
3.207640 -0.536147 0.145802 12.000000
3.223714 -0.549007 0.146412 13.000000
3.256479 -0.564878 0.147597 16.000000
3.259652 -0.575735 0.147766 19.000000
3.260821 -0.586264 0.147867 24.000000
3.260973 -0.596625 0.147935 10.000000
3.508354 0.183280 0.111882 23.000000
3.502908 0.172219 0.111752 40.000000
3.498427 0.161240 0.111644 28.000000
3.490914 0.150160 0.111471 40.000000
3.476374 0.138845 0.111147 30.000000
3.471788 0.127994 0.111038 41.000000
3.459175 0.116898 0.110757 40.000000
3.446527 0.105882 0.110476 21.000000
3.448834 0.095363 0.110519 47.000000
3.443114 0.084633 0.110389 30.000000
3.440359 0.074003 0.110324 34.000000
3.431573 0.063279 0.110129 43.000000
3.417756 0.052531 0.109826 38.000000
3.413903 0.041995 0.109740 35.000000
3.403018 0.031415 0.109502 47.000000
3.392102 0.020903 0.109264 25.000000
3.383152 0.010466 0.109069 28.000000
3.374170 0.000083 0.108874 29.000000
3.368156 -0.010253 0.108744 40.000000
3.368109 -0.020586 0.108744 30.000000
3.357033 -0.030822 0.108506 33.000000
3.345926 -0.040990 0.108268 33.000000
3.339787 -0.051165 0.108139 35.000000
3.330617 -0.061249 0.107944 46.000000
3.327415 -0.071404 0.107879 42.000000
3.321183 -0.081467 0.107749 38.000000
3.314922 -0.091492 0.107619 34.000000
3.304632 -0.101359 0.107403 48.000000
3.299310 -0.111330 0.107295 39.000000
3.289961 -0.121124 0.107100 39.000000
3.277586 -0.130743 0.106840 49.000000
3.263185 -0.140202 0.106537 50.000000
3.258745 -0.150030 0.106451 36.000000
3.247285 -0.159492 0.106213 46.000000
3.240790 -0.169143 0.106083 28.000000
3.236263 -0.178865 0.105996 46.000000
3.226716 -0.188272 0.105801 42.000000
3.222131 -0.197927 0.105715 38.000000
3.215523 -0.207428 0.105585 39.000000
3.207888 -0.216822 0.105433 38.000000
3.206211 -0.226593 0.105412 29.000000
3.195529 -0.235697 0.105195 31.000000
3.189807 -0.245118 0.105087 37.000000
3.183060 -0.254427 0.104957 33.000000
3.182265 -0.264192 0.104957 34.000000
3.175463 -0.273441 0.104828 31.000000
3.156684 -0.281590 0.104438 26.000000
3.155805 -0.291273 0.104438 31.000000
3.143948 -0.299913 0.104200 35.000000
3.136048 -0.308874 0.104048 37.000000
3.129118 -0.317889 0.103919 36.000000
3.116195 -0.326243 0.103659 32.000000
3.112198 -0.335482 0.103594 41.000000
3.111154 -0.345028 0.103594 38.000000
3.106107 -0.354120 0.103507 38.000000
3.105006 -0.363648 0.103507 35.000000
3.099905 -0.372696 0.103421 39.000000
3.088825 -0.380985 0.103205 38.000000
3.080698 -0.389584 0.103053 36.000000
3.072547 -0.398137 0.102902 41.000000
3.055454 -0.405463 0.102555 38.000000
3.046269 -0.413762 0.102382 48.000000
3.038053 -0.422145 0.102231 40.000000
3.028825 -0.430342 0.102058 39.000000
3.021554 -0.438772 0.101928 30.000000
3.016237 -0.447455 0.101841 37.000000
3.005954 -0.455362 0.101646 33.000000
2.999602 -0.463820 0.101538 23.000000
2.998165 -0.473020 0.101538 28.000000
2.990777 -0.481266 0.101408 24.000000
3.497108 0.182109 0.068428 31.000000
3.491657 0.171086 0.068372 39.000000
3.495162 0.160511 0.068400 26.000000
3.489644 0.149531 0.068344 45.000000
3.484091 0.138586 0.068289 47.000000
3.483501 0.127860 0.068280 46.000000
3.474882 0.116870 0.068196 46.000000
3.468228 0.105996 0.068132 35.000000
3.463539 0.095218 0.068085 48.000000
3.452818 0.084325 0.067984 54.000000
3.441064 0.073476 0.067873 43.000000
3.427277 0.062665 0.067743 41.000000
3.414455 0.051953 0.067623 51.000000
3.407598 0.041393 0.067558 40.000000
3.396711 0.030840 0.067456 32.000000
3.388790 0.020372 0.067382 30.000000
3.383837 0.009961 0.067336 38.000000
3.378851 -0.000419 0.067290 38.000000
3.374834 -0.010772 0.067253 41.000000
3.370785 -0.021100 0.067216 33.000000
3.361706 -0.031357 0.067133 41.000000
3.357594 -0.041620 0.067096 36.000000
3.350452 -0.051812 0.067031 42.000000
3.341279 -0.061923 0.066948 36.000000
3.329077 -0.071913 0.066837 43.000000
3.321843 -0.081953 0.066772 41.000000
3.315578 -0.091976 0.066716 37.000000
3.308285 -0.101932 0.066652 45.000000
3.299961 -0.111809 0.066578 39.000000
3.297604 -0.121858 0.066559 41.000000
3.296215 -0.131935 0.066550 42.000000
3.288802 -0.141744 0.066485 31.000000
3.281359 -0.151510 0.066420 52.000000
3.267895 -0.160935 0.066300 52.000000
3.249412 -0.170018 0.066134 46.000000
3.238891 -0.179432 0.066041 41.000000
3.225348 -0.188607 0.065921 48.000000
3.212777 -0.197763 0.065810 47.000000
3.205170 -0.207166 0.065745 44.000000
3.200529 -0.216728 0.065708 39.000000
3.200846 -0.226617 0.065717 33.000000
3.199139 -0.236362 0.065708 46.000000
3.193414 -0.245791 0.065662 48.000000
3.185667 -0.255028 0.065597 40.000000
3.176898 -0.264136 0.065523 36.000000
3.170095 -0.273366 0.065468 46.000000
3.160278 -0.282288 0.065384 40.000000
3.148444 -0.290969 0.065283 51.000000
3.142560 -0.300151 0.065236 48.000000
3.132668 -0.308906 0.065153 44.000000
3.129715 -0.318313 0.065135 58.000000
3.122757 -0.327287 0.065079 52.000000
3.116768 -0.336329 0.065033 50.000000
3.111746 -0.345448 0.064996 39.000000
3.107691 -0.354653 0.064968 48.000000
3.099636 -0.363369 0.064903 37.000000
3.099499 -0.372997 0.064913 41.000000
3.086432 -0.381032 0.064802 58.000000
3.073344 -0.388991 0.064691 44.000000
3.066186 -0.397646 0.064635 35.000000
3.052066 -0.405338 0.064515 41.000000
3.041890 -0.413486 0.064432 51.000000
3.036646 -0.422265 0.064395 53.000000
3.031376 -0.431016 0.064358 51.000000
3.031029 -0.440458 0.064367 44.000000
3.026696 -0.449314 0.064339 36.000000
3.019372 -0.457698 0.064284 30.000000
3.020918 -0.467418 0.064311 33.000000
3.025396 -0.477620 0.064367 23.000000
3.029840 -0.487855 0.064422 15.000000
3.056944 -0.501849 0.064691 5.000000
3.503161 0.183007 0.024599 24.000000
3.503706 0.172259 0.024599 23.000000
3.496226 0.161138 0.024626 33.000000
3.491709 0.150194 0.024643 42.000000
3.490155 0.139400 0.024649 42.000000
3.480573 0.128320 0.024682 38.000000
3.469957 0.117266 0.024719 27.000000
3.460305 0.106310 0.024752 34.000000
3.452619 0.095469 0.024779 35.000000
3.439899 0.084552 0.024822 37.000000
3.433144 0.073846 0.024845 28.000000
3.427356 0.063200 0.024865 26.000000
3.420534 0.052575 0.024888 39.000000
3.411680 0.041967 0.024918 30.000000
3.405793 0.031442 0.024938 25.000000
3.387874 0.020876 0.024997 24.000000
3.375922 0.010441 0.025037 22.000000
3.372939 0.000082 0.025047 22.000000
3.355923 -0.010220 0.025104 35.000000
3.341877 -0.020435 0.025150 29.000000
3.334798 -0.030626 0.025173 35.000000
3.328689 -0.040785 0.025193 38.000000
3.327548 -0.050982 0.025196 25.000000
3.323377 -0.061119 0.025210 28.000000
3.313176 -0.071103 0.025243 31.000000
3.309943 -0.081195 0.025253 40.000000
3.310678 -0.091377 0.025249 32.000000
3.305384 -0.101382 0.025266 42.000000
3.291065 -0.111055 0.025312 27.000000
3.280716 -0.120787 0.025346 43.000000
3.273336 -0.130575 0.025369 35.000000
3.268923 -0.140447 0.025382 35.000000
3.265480 -0.150338 0.025392 33.000000
3.254017 -0.159820 0.025428 20.000000
3.251513 -0.169699 0.025435 32.000000
3.254972 -0.179893 0.025422 32.000000
3.252408 -0.189762 0.025428 39.000000
3.254805 -0.199922 0.025419 32.000000
3.243199 -0.209203 0.025455 33.000000
3.235558 -0.218682 0.025478 22.000000
3.242852 -0.229169 0.025452 25.000000
3.230165 -0.238239 0.025492 26.000000
3.226428 -0.247919 0.025501 22.000000
3.218674 -0.257261 0.025525 41.000000
3.204915 -0.266064 0.025568 32.000000
3.202091 -0.275724 0.025574 26.000000
3.185292 -0.284131 0.025627 40.000000
3.189384 -0.294360 0.025611 36.000000
3.176520 -0.303008 0.025651 32.000000
3.180552 -0.313240 0.025634 29.000000
3.173606 -0.322392 0.025654 30.000000
3.172602 -0.332127 0.025654 29.000000
3.163614 -0.341005 0.025681 40.000000
3.159571 -0.350379 0.025690 33.000000
3.161462 -0.360410 0.025681 26.000000
3.148423 -0.368716 0.025720 24.000000
3.152241 -0.378968 0.025704 28.000000
3.135183 -0.386685 0.025757 24.000000
3.127037 -0.395426 0.025780 25.000000
3.125809 -0.405018 0.025780 38.000000
3.115630 -0.413425 0.025810 42.000000
3.117320 -0.423385 0.025800 36.000000
3.106101 -0.431574 0.025833 36.000000
3.114663 -0.442504 0.025800 33.000000
3.096467 -0.449621 0.025856 30.000000
3.088148 -0.458094 0.025879 30.000000
3.091672 -0.468313 0.025863 33.000000
3.071443 -0.474900 0.025926 22.000000
3.072935 -0.484787 0.025916 35.000000
3.105990 -0.499760 0.025800 13.000000
3.388023 -0.155268 -0.016851 21.000000
3.398516 -0.166200 -0.017024 38.000000
3.397990 -0.176626 -0.017024 47.000000
3.393439 -0.186830 -0.016961 45.000000
3.395844 -0.197414 -0.017008 60.000000
3.378257 -0.206791 -0.016741 42.000000
3.387584 -0.217797 -0.016898 70.000000
3.391888 -0.228526 -0.016977 71.000000
3.377208 -0.237945 -0.016757 51.000000
3.372473 -0.248011 -0.016694 58.000000
3.365715 -0.257898 -0.016600 52.000000
3.367897 -0.268461 -0.016647 77.000000
3.354104 -0.277718 -0.016443 64.000000
3.357221 -0.288350 -0.016505 68.000000
3.353333 -0.298382 -0.016458 69.000000
3.349415 -0.308393 -0.016411 67.000000
3.348453 -0.318668 -0.016411 63.000000
3.347460 -0.328939 -0.016411 63.000000
3.343450 -0.338905 -0.016364 61.000000
3.349356 -0.349889 -0.016474 54.000000
3.350255 -0.360377 -0.016505 55.000000
3.360065 -0.371865 -0.016678 54.000000
3.371824 -0.383642 -0.016882 67.000000
3.365665 -0.393404 -0.016804 40.000000
3.380327 -0.405636 -0.017055 41.000000
3.387005 -0.416983 -0.017181 55.000000
3.387694 -0.427623 -0.017212 37.000000
3.392315 -0.438784 -0.017306 39.000000
3.396900 -0.449978 -0.017401 48.000000
3.402439 -0.461339 -0.017511 46.000000
3.416854 -0.473975 -0.017762 42.000000
3.429243 -0.486423 -0.017982 39.000000
3.435651 -0.498090 -0.018108 40.000000
3.440041 -0.509508 -0.018202 36.000000
3.445382 -0.521107 -0.018312 35.000000
3.439815 -0.531064 -0.018249 14.000000
3.458910 -0.544885 -0.018579 19.000000
3.410038 -0.156941 -0.058138 21.000000
3.438496 -0.168814 -0.058943 35.000000
3.424984 -0.178690 -0.058582 24.000000
3.428412 -0.189416 -0.058693 30.000000
3.412846 -0.199065 -0.058277 54.000000
3.404237 -0.209047 -0.058055 33.000000
3.392606 -0.218787 -0.057750 50.000000
3.387929 -0.228926 -0.057639 45.000000
3.381228 -0.238898 -0.057472 58.000000
3.376492 -0.248978 -0.057361 53.000000
3.373719 -0.259183 -0.057306 36.000000
3.368922 -0.269215 -0.057195 51.000000
3.362103 -0.279055 -0.057028 39.000000
3.358243 -0.289113 -0.056945 51.000000
3.346387 -0.298441 -0.056640 31.000000
3.351429 -0.309256 -0.056806 45.000000
3.348474 -0.319347 -0.056751 62.000000
3.347478 -0.329619 -0.056751 48.000000
3.346451 -0.339887 -0.056751 37.000000
3.353346 -0.350982 -0.056973 49.000000
3.357223 -0.361802 -0.057111 32.000000
3.361065 -0.372649 -0.057250 46.000000
3.362886 -0.383297 -0.057333 41.000000
3.366659 -0.394192 -0.057472 34.000000
3.375359 -0.405709 -0.057750 34.000000
3.382035 -0.417038 -0.057972 52.000000
3.386690 -0.428162 -0.058138 31.000000
3.398249 -0.440216 -0.058499 24.000000
3.402828 -0.451426 -0.058665 35.000000
3.411333 -0.463205 -0.058943 31.000000
3.419797 -0.475041 -0.059220 37.000000
3.430200 -0.487213 -0.059553 30.000000
3.442539 -0.499741 -0.059942 31.000000
3.451868 -0.511909 -0.060247 24.000000
3.459176 -0.523841 -0.060497 36.000000
3.472372 -0.536737 -0.060913 24.000000
3.501320 -0.552205 -0.061773 13.000000
3.444088 -0.168434 -0.102280 23.000000
3.441559 -0.178896 -0.102199 33.000000
3.431017 -0.188903 -0.101796 37.000000
3.427429 -0.199254 -0.101675 42.000000
3.416828 -0.209156 -0.101272 37.000000
3.405202 -0.218932 -0.100829 40.000000
3.398533 -0.228974 -0.100587 50.000000
3.388844 -0.238766 -0.100224 44.000000
3.385106 -0.248942 -0.100103 28.000000
3.378349 -0.258867 -0.099861 37.000000
3.371563 -0.268754 -0.099619 47.000000
3.364748 -0.278601 -0.099378 53.000000
3.355913 -0.288238 -0.099055 59.000000
3.356008 -0.298621 -0.099095 40.000000
3.353086 -0.308732 -0.099015 58.000000
3.348145 -0.318638 -0.098854 50.000000
3.350135 -0.329202 -0.098974 50.000000
3.348115 -0.339378 -0.098934 40.000000
3.352027 -0.350168 -0.099136 42.000000
3.353917 -0.360771 -0.099257 64.000000
3.355774 -0.371389 -0.099378 47.000000
3.357597 -0.382022 -0.099498 45.000000
3.363356 -0.393134 -0.099781 41.000000
3.368086 -0.404166 -0.100022 40.000000
3.371789 -0.415108 -0.100224 30.000000
3.378430 -0.426452 -0.100546 41.000000
3.380079 -0.437200 -0.100667 32.000000
3.383674 -0.448225 -0.100869 35.000000
3.392184 -0.459947 -0.101272 51.000000
3.397685 -0.471314 -0.101554 39.000000
3.401169 -0.482438 -0.101756 30.000000
3.414505 -0.495022 -0.102360 34.000000
3.422855 -0.506961 -0.102763 28.000000
3.431162 -0.518955 -0.103166 23.000000
3.436466 -0.530547 -0.103448 15.000000
3.447654 -0.543110 -0.103972 8.000000
3.477466 -0.161232 -0.145436 14.000000
3.451022 -0.170627 -0.144075 19.000000
3.432531 -0.180277 -0.143133 33.000000
3.425979 -0.190476 -0.142819 35.000000
3.415409 -0.200405 -0.142296 37.000000
3.401821 -0.210086 -0.141615 32.000000
3.389201 -0.219751 -0.140987 31.000000
3.379544 -0.229542 -0.140516 35.000000
3.365874 -0.238994 -0.139836 40.000000
3.356162 -0.248658 -0.139365 43.000000
3.347418 -0.258341 -0.138946 39.000000
3.346609 -0.268610 -0.138946 42.000000
3.347760 -0.279041 -0.139051 27.000000
3.346888 -0.289311 -0.139051 40.000000
3.347974 -0.299755 -0.139156 41.000000
3.355988 -0.310851 -0.139627 33.000000
3.349054 -0.320576 -0.139313 29.000000
3.352030 -0.331241 -0.139522 43.000000
3.353978 -0.341826 -0.139679 53.000000
3.354900 -0.352322 -0.139784 28.000000
3.354797 -0.362720 -0.139836 38.000000
3.357638 -0.373451 -0.140045 39.000000
3.357469 -0.383864 -0.140098 38.000000
3.357267 -0.394278 -0.140150 43.000000
3.357033 -0.404696 -0.140202 42.000000
3.357758 -0.415237 -0.140307 34.000000
3.357459 -0.425662 -0.140359 35.000000
3.366041 -0.437244 -0.140883 52.000000
3.371613 -0.448488 -0.141249 38.000000
3.379127 -0.460039 -0.141720 39.000000
3.384624 -0.471366 -0.142086 49.000000
3.396015 -0.483573 -0.142767 29.000000
3.401433 -0.494994 -0.143133 30.000000
3.412740 -0.507332 -0.143814 25.000000
3.401294 -0.516304 -0.143290 15.000000
3.402655 -0.527195 -0.143447 23.000000
3.397076 -0.537009 -0.143238 11.000000
3.499996 -0.160412 -0.189982 14.000000
3.470583 -0.169733 -0.188105 22.000000
3.470046 -0.180379 -0.188105 32.000000
3.451541 -0.190035 -0.186940 37.000000
3.437991 -0.199869 -0.186099 38.000000
3.422422 -0.209499 -0.185129 33.000000
3.406825 -0.219036 -0.184158 46.000000
3.399168 -0.229017 -0.183705 33.000000
3.384513 -0.238461 -0.182799 48.000000
3.375804 -0.248257 -0.182282 40.000000
3.373037 -0.258460 -0.182152 35.000000
3.373222 -0.268886 -0.182217 61.000000
3.375365 -0.279481 -0.182411 50.000000
3.375486 -0.289921 -0.182476 50.000000
3.370604 -0.299921 -0.182217 64.000000
3.372649 -0.310535 -0.182411 53.000000
3.368701 -0.320597 -0.182217 47.000000
3.364722 -0.330638 -0.182023 55.000000
3.362699 -0.340858 -0.181958 43.000000
3.357667 -0.350758 -0.181699 32.000000
3.354592 -0.360844 -0.181570 41.000000
3.356444 -0.371463 -0.181764 36.000000
3.353306 -0.381533 -0.181635 42.000000
3.353111 -0.391935 -0.181699 54.000000
3.353874 -0.402459 -0.181829 40.000000
3.355594 -0.413112 -0.182023 39.000000
3.357281 -0.423781 -0.182217 44.000000
3.361903 -0.434847 -0.182605 37.000000
3.365499 -0.445815 -0.182929 38.000000
3.371038 -0.457078 -0.183382 28.000000
3.374562 -0.468104 -0.183705 43.000000
3.381014 -0.479577 -0.184223 37.000000
3.382489 -0.490377 -0.184417 46.000000
3.397750 -0.503239 -0.185517 35.000000
3.400137 -0.514259 -0.185776 28.000000
3.412350 -0.526821 -0.186682 17.000000
3.422546 -0.539152 -0.187458 12.000000
3.514875 -0.162954 -0.232737 18.000000
3.502408 -0.173150 -0.231819 28.000000
3.492899 -0.183427 -0.231130 23.000000
3.477386 -0.193317 -0.229982 24.000000
3.473791 -0.203810 -0.229752 24.000000
3.462202 -0.213795 -0.228910 29.000000
3.458545 -0.224223 -0.228681 35.000000
3.452867 -0.234496 -0.228298 27.000000
3.436218 -0.243964 -0.227073 44.000000
3.427498 -0.253919 -0.226461 31.000000
3.414773 -0.263516 -0.225542 34.000000
3.397052 -0.272641 -0.224241 27.000000
3.390238 -0.282567 -0.223782 28.000000
3.388362 -0.292881 -0.223705 32.000000
3.381488 -0.302744 -0.223246 31.000000
3.377565 -0.312842 -0.223016 32.000000
3.369642 -0.322540 -0.222480 30.000000
3.367644 -0.332779 -0.222404 31.000000
3.360656 -0.342504 -0.221945 34.000000
3.355622 -0.352398 -0.221638 32.000000
3.346595 -0.361836 -0.221026 34.000000
3.345469 -0.372102 -0.221026 34.000000
3.343321 -0.382251 -0.220950 40.000000
3.344113 -0.392738 -0.221103 33.000000
3.334973 -0.402044 -0.220490 21.000000
3.337682 -0.412762 -0.220796 38.000000
3.338378 -0.423250 -0.220950 20.000000
3.336075 -0.433362 -0.220873 32.000000
3.334730 -0.443595 -0.220873 26.000000
3.336317 -0.454226 -0.221103 25.000000
3.331945 -0.464048 -0.220873 25.000000
3.344326 -0.476231 -0.221945 21.000000
3.356664 -0.488495 -0.223016 25.000000
3.354163 -0.498644 -0.222940 55.000000
3.387121 -0.514158 -0.225619 18.000000
3.417059 -0.529421 -0.228068 19.000000
3.434132 -0.542854 -0.229523 10.000000
3.513389 -0.162251 -0.275690 20.000000
3.507900 -0.172784 -0.275246 23.000000
3.501385 -0.183232 -0.274714 24.000000
3.489867 -0.193366 -0.273738 39.000000
3.482297 -0.203664 -0.273117 38.000000
3.464755 -0.213304 -0.271608 57.000000
3.459114 -0.223611 -0.271165 29.000000
3.454437 -0.233953 -0.270810 21.000000
3.441780 -0.243704 -0.269745 48.000000
3.434063 -0.253748 -0.269124 38.000000
3.424330 -0.263593 -0.268326 42.000000
3.414570 -0.273381 -0.267527 49.000000
3.404781 -0.283111 -0.266729 36.000000
3.394966 -0.292785 -0.265930 24.000000
3.388098 -0.302666 -0.265398 27.000000
3.378228 -0.312233 -0.264600 41.000000
3.373288 -0.322217 -0.264245 54.000000
3.365345 -0.331879 -0.263624 56.000000
3.355392 -0.341294 -0.262825 43.000000
3.347395 -0.350859 -0.262204 31.000000
3.340361 -0.360485 -0.261672 38.000000
3.335280 -0.370292 -0.261317 40.000000
3.324232 -0.379392 -0.260430 34.000000
3.323052 -0.389589 -0.260430 46.000000
3.316897 -0.399186 -0.259986 68.000000
3.313679 -0.409116 -0.259809 30.000000
3.311420 -0.419155 -0.259720 37.000000
3.314070 -0.429825 -0.260075 36.000000
3.321622 -0.441172 -0.260873 35.000000
3.329136 -0.452569 -0.261672 29.000000
3.330691 -0.463193 -0.261938 27.000000
3.341088 -0.475093 -0.263003 35.000000
3.351443 -0.487061 -0.264067 29.000000
3.364711 -0.499537 -0.265398 27.000000
3.369071 -0.510754 -0.265930 29.000000
3.383238 -0.523527 -0.267350 18.000000
3.428841 -0.541365 -0.271608 7.000000
3.492264 -0.161305 -0.317942 23.000000
3.488771 -0.171873 -0.317638 23.000000
3.491208 -0.182731 -0.317942 16.000000
3.474738 -0.192565 -0.316322 31.000000
3.475123 -0.203282 -0.316423 37.000000
3.468526 -0.213578 -0.315816 47.000000
3.467854 -0.224218 -0.315816 32.000000
3.464172 -0.234656 -0.315512 31.000000
3.460459 -0.245073 -0.315209 25.000000
3.447784 -0.254812 -0.313994 39.000000
3.443018 -0.265085 -0.313589 40.000000
3.437230 -0.275251 -0.313083 22.000000
3.418523 -0.284317 -0.311261 46.000000
3.404749 -0.293696 -0.309945 62.000000
3.392932 -0.303170 -0.308831 26.000000
3.383070 -0.312757 -0.307920 28.000000
3.374171 -0.322380 -0.307110 25.000000
3.373166 -0.332731 -0.307110 73.000000
3.353324 -0.341171 -0.305187 31.000000
3.349293 -0.351147 -0.304883 28.000000
3.340286 -0.360569 -0.304073 30.000000
3.335209 -0.370378 -0.303669 38.000000
3.329115 -0.380046 -0.303162 43.000000
3.324969 -0.389911 -0.302859 52.000000
3.320794 -0.399754 -0.302555 47.000000
3.321526 -0.410184 -0.302757 56.000000
3.314330 -0.419624 -0.302150 30.000000
3.316973 -0.430301 -0.302555 32.000000
3.321555 -0.441260 -0.303162 24.000000
3.325115 -0.452116 -0.303669 41.000000
3.328640 -0.462999 -0.304175 31.000000
3.334099 -0.474187 -0.304883 26.000000
3.338535 -0.485270 -0.305491 31.000000
3.346872 -0.496969 -0.306503 11.000000
3.343364 -0.506937 -0.306300 19.000000
3.349659 -0.518406 -0.307110 9.000000
3.525604 -0.162203 -0.363515 15.000000
3.508220 -0.172189 -0.361594 24.000000
3.508667 -0.183003 -0.361707 25.000000
3.495192 -0.193052 -0.360237 44.000000
3.493592 -0.203717 -0.360124 27.000000
3.485017 -0.213946 -0.359220 48.000000
3.484344 -0.224637 -0.359220 33.000000
3.480664 -0.235124 -0.358881 40.000000
3.471006 -0.245171 -0.357864 35.000000
3.464293 -0.255380 -0.357186 41.000000
3.455567 -0.265397 -0.356281 49.000000
3.444833 -0.275205 -0.355151 52.000000
3.437041 -0.285196 -0.354360 41.000000
3.419321 -0.294289 -0.352438 48.000000
3.406526 -0.303718 -0.351082 54.000000
3.398653 -0.313528 -0.350291 33.000000
3.383828 -0.322632 -0.348708 43.000000
3.374911 -0.332232 -0.347804 42.000000
3.363991 -0.341580 -0.346674 34.000000
3.354034 -0.350967 -0.345657 27.000000
3.349978 -0.360936 -0.345318 25.000000
3.342929 -0.370554 -0.344639 32.000000
3.338815 -0.380470 -0.344300 40.000000
3.334672 -0.390365 -0.343961 30.000000
3.323594 -0.399407 -0.342831 31.000000
3.327283 -0.410210 -0.343396 58.000000
3.322066 -0.419918 -0.342944 34.000000
3.318792 -0.429852 -0.342718 38.000000
3.320412 -0.440424 -0.343057 37.000000
3.321014 -0.450877 -0.343283 38.000000
3.323552 -0.461610 -0.343735 25.000000
3.328022 -0.472644 -0.344413 36.000000
3.326557 -0.482852 -0.344413 32.000000
3.331939 -0.494076 -0.345204 19.000000
3.330408 -0.504296 -0.345204 18.000000
3.329827 -0.514663 -0.345318 20.000000
3.488095 -0.171840 -0.403012 11.000000
3.489533 -0.182643 -0.403263 16.000000
3.486975 -0.193239 -0.403012 38.000000
3.486366 -0.203936 -0.403012 30.000000
3.477802 -0.214146 -0.402009 27.000000
3.482079 -0.225133 -0.402636 25.000000
3.475433 -0.235415 -0.401884 47.000000
3.474694 -0.246076 -0.401884 24.000000
3.471944 -0.256590 -0.401633 22.000000
3.466194 -0.266861 -0.401007 35.000000
3.463381 -0.277336 -0.400756 47.000000
3.462514 -0.287960 -0.400756 37.000000
3.435914 -0.296374 -0.397497 22.000000
3.437953 -0.307177 -0.397873 37.000000
3.441934 -0.318178 -0.398500 55.000000
3.390572 -0.323942 -0.392108 16.000000
3.397461 -0.335119 -0.393111 32.000000
3.370753 -0.342938 -0.389852 32.000000
3.357844 -0.352041 -0.388348 30.000000
3.351817 -0.361810 -0.387721 22.000000
3.340830 -0.371000 -0.386468 30.000000
3.334747 -0.380687 -0.385841 35.000000
3.319768 -0.389303 -0.384087 62.000000
3.325453 -0.400314 -0.384964 26.000000
3.327163 -0.410878 -0.385340 33.000000
3.322934 -0.420711 -0.384964 27.000000
3.324579 -0.431285 -0.385340 23.000000
3.325208 -0.441743 -0.385591 28.000000
3.321871 -0.451676 -0.385340 31.000000
3.328331 -0.462956 -0.386343 30.000000
3.333771 -0.474141 -0.387220 27.000000
3.331319 -0.484224 -0.387095 24.000000
3.336687 -0.495460 -0.387972 13.000000
3.333190 -0.505398 -0.387721 18.000000
3.331624 -0.515621 -0.387721 11.000000
3.495345 -0.191843 -0.447377 33.000000
3.495729 -0.202623 -0.447514 31.000000
3.487181 -0.212863 -0.446414 48.000000
3.490466 -0.223814 -0.446964 37.000000
3.488775 -0.234455 -0.446827 30.000000
3.494956 -0.245645 -0.447789 44.000000
3.499125 -0.256729 -0.448476 31.000000
3.494370 -0.267160 -0.447926 50.000000
3.487609 -0.277408 -0.447102 35.000000
3.486742 -0.288106 -0.447102 59.000000
3.482881 -0.298548 -0.446689 37.000000
3.470109 -0.308179 -0.445040 35.000000
3.446461 -0.316736 -0.441879 30.000000
3.438571 -0.326652 -0.440917 41.000000
3.421781 -0.335651 -0.438718 26.000000
3.399055 -0.343951 -0.435694 28.000000
3.372370 -0.351703 -0.432120 34.000000
3.354532 -0.360248 -0.429784 25.000000
3.338644 -0.368904 -0.427722 36.000000
3.329623 -0.378250 -0.426622 38.000000
3.324511 -0.388004 -0.426073 30.000000
3.320355 -0.397847 -0.425660 45.000000
3.326984 -0.409000 -0.426760 64.000000
3.326696 -0.419329 -0.426897 26.000000
3.328341 -0.429914 -0.427310 31.000000
3.331916 -0.440774 -0.427997 46.000000
3.332511 -0.451260 -0.428272 30.000000
3.334054 -0.461890 -0.428684 28.000000
3.349293 -0.474480 -0.431021 26.000000
3.356644 -0.486032 -0.432258 29.000000
3.360037 -0.497053 -0.432945 26.000000
3.366331 -0.508543 -0.434044 20.000000
3.371607 -0.519926 -0.435007 16.000000
3.502031 -0.194679 -0.490640 32.000000
3.495495 -0.205076 -0.489744 40.000000
3.504718 -0.216406 -0.491236 33.000000
3.503051 -0.227093 -0.491087 47.000000
3.510231 -0.238373 -0.492281 33.000000
3.517373 -0.249698 -0.493474 32.000000
3.519549 -0.260707 -0.493922 26.000000
3.513803 -0.271124 -0.493176 30.000000
3.508027 -0.281510 -0.492430 31.000000
3.520942 -0.293416 -0.494518 15.000000
3.507218 -0.303114 -0.492579 32.000000
3.505287 -0.313785 -0.492430 24.000000
3.496431 -0.323810 -0.491236 23.000000
3.477703 -0.332846 -0.488551 23.000000
3.456000 -0.341479 -0.485418 32.000000
3.406733 -0.347184 -0.478108 17.000000
3.393850 -0.356399 -0.476317 19.000000
3.369146 -0.364267 -0.472737 19.000000
3.341478 -0.371659 -0.468709 27.000000
3.331480 -0.380901 -0.467366 34.000000
3.324403 -0.390430 -0.466471 29.000000
3.325153 -0.400864 -0.466769 22.000000
3.330777 -0.411910 -0.467813 26.000000
3.331460 -0.422375 -0.468112 49.000000
3.330148 -0.432594 -0.468112 35.000000
3.325865 -0.442418 -0.467664 41.000000
3.325471 -0.452753 -0.467813 32.000000
