ply
format ascii 1.0
element vertex 1248
property float x
property float y
property float z
property float intensity
end_header
3.013333 -0.754053 0.520683 38.000000
3.010047 -0.763051 0.520529 46.000000
3.002908 -0.771053 0.519754 54.000000
2.996704 -0.779268 0.519135 50.000000
2.994299 -0.788458 0.519135 49.000000
2.989002 -0.796877 0.518670 47.000000
2.983682 -0.805270 0.518205 43.000000
2.978339 -0.813639 0.517741 33.000000
2.972972 -0.821982 0.517276 38.000000
2.973290 -0.831898 0.517741 38.000000
2.966922 -0.839939 0.517121 54.000000
2.964331 -0.849038 0.517121 45.000000
2.965508 -0.859228 0.517741 37.000000
2.964753 -0.868878 0.518050 45.000000
2.964916 -0.878813 0.518515 34.000000
2.963152 -0.888189 0.518670 39.000000
2.957577 -0.896415 0.518205 55.000000
2.956702 -0.906064 0.518515 56.000000
2.951077 -0.914253 0.518050 47.000000
2.941659 -0.921235 0.516966 52.000000
2.934110 -0.928764 0.516192 43.000000
2.931247 -0.937762 0.516192 38.000000
2.926476 -0.946142 0.515882 44.000000
2.922620 -0.954809 0.515727 35.000000
2.915925 -0.962532 0.515108 57.000000
2.912021 -0.971161 0.514953 37.000000
2.914645 -0.981983 0.515882 39.000000
2.912554 -0.991239 0.516037 40.000000
2.908565 -0.999849 0.515882 36.000000
2.906416 -1.009091 0.516037 52.000000
2.904239 -1.018331 0.516192 42.000000
2.903895 -1.028225 0.516657 31.000000
2.869677 -1.075951 0.514178 45.000000
2.864514 -1.084051 0.513869 44.000000
2.862098 -1.093186 0.514024 54.000000
2.857809 -1.101606 0.513869 63.000000
2.854415 -1.110369 0.513869 33.000000
2.853754 -1.120204 0.514333 56.000000
2.848467 -1.128226 0.514024 40.000000
2.847745 -1.138060 0.514488 48.000000
2.841491 -1.145683 0.514024 47.000000
2.836133 -1.153651 0.513714 48.000000
2.832580 -1.162346 0.513714 59.000000
2.816146 -1.216639 0.514643 40.000000
2.811495 -1.224879 0.514488 43.000000
2.799584 -1.229921 0.513094 26.000000
2.790378 -1.236103 0.512165 25.000000
3.203337 -0.514815 0.502590 7.000000
3.117742 -0.510907 0.490294 30.000000
3.109326 -0.519331 0.489294 38.000000
3.109669 -0.529199 0.489580 26.000000
3.099254 -0.537219 0.488293 33.000000
3.097591 -0.546725 0.488293 33.000000
3.093951 -0.555876 0.488007 37.000000
3.081521 -0.563412 0.486434 38.000000
3.080751 -0.573044 0.486577 36.000000
3.076061 -0.581942 0.486148 35.000000
3.072317 -0.591003 0.485862 30.000000
3.067575 -0.599857 0.485433 47.000000
3.061837 -0.608496 0.484861 32.000000
3.058015 -0.617495 0.484576 29.000000
3.059015 -0.627470 0.485004 35.000000
3.054169 -0.636247 0.484576 32.000000
3.051234 -0.645410 0.484433 34.000000
3.047304 -0.654353 0.484147 31.000000
3.044315 -0.663489 0.484004 34.000000
3.043232 -0.673039 0.484147 41.000000
3.040187 -0.682156 0.484004 33.000000
3.030359 -0.689725 0.482860 49.000000
3.030157 -0.699463 0.483146 37.000000
3.026069 -0.708306 0.482860 53.000000
3.022919 -0.717359 0.482717 43.000000
3.019742 -0.726398 0.482574 48.000000
3.013652 -0.734723 0.482002 46.000000
3.010423 -0.743728 0.481859 44.000000
2.994311 -0.798505 0.481573 46.000000
2.986113 -0.806142 0.480715 34.000000
2.982671 -0.815039 0.480572 47.000000
2.978248 -0.823659 0.480286 42.000000
2.972848 -0.831993 0.479857 45.000000
2.967424 -0.840302 0.479428 48.000000
2.963881 -0.849130 0.479285 30.000000
2.963163 -0.858769 0.479571 50.000000
2.961464 -0.868134 0.479714 52.000000
2.956889 -0.876653 0.479428 41.000000
2.954185 -0.885721 0.479428 52.000000
2.922298 -0.935127 0.477141 38.000000
2.922240 -0.945001 0.477570 39.000000
2.914623 -0.952426 0.476855 54.000000
2.906987 -0.959814 0.476140 44.000000
2.910602 -0.970918 0.477141 47.000000
2.910424 -0.980790 0.477570 34.000000
2.905527 -0.989077 0.477284 42.000000
2.906223 -0.999273 0.477856 53.000000
2.903144 -1.008184 0.477856 44.000000
2.903774 -1.018395 0.478428 37.000000
2.901568 -1.027629 0.478571 32.000000
2.894674 -1.035194 0.477999 49.000000
2.885952 -1.062134 0.478142 52.000000
2.882680 -1.070983 0.478142 55.000000
2.871426 -1.086900 0.477427 37.000000
2.872701 -1.097469 0.478142 33.000000
2.863779 -1.104143 0.477284 44.000000
2.857610 -1.111848 0.476855 27.000000
2.856029 -1.121332 0.477141 43.000000
2.849814 -1.128997 0.476712 36.000000
2.850933 -1.139570 0.477427 39.000000
2.844669 -1.147201 0.476998 38.000000
2.836552 -1.154060 0.476283 41.000000
2.832998 -1.162757 0.476283 56.000000
2.825759 -1.169930 0.475711 59.000000
2.821243 -1.178213 0.475568 47.000000
2.819439 -1.187630 0.475854 43.000000
2.813049 -1.195115 0.475425 52.000000
2.813009 -1.205297 0.475997 42.000000
2.812933 -1.215491 0.476569 46.000000
2.813728 -1.226090 0.477284 38.000000
2.812672 -1.235910 0.477713 33.000000
2.806152 -1.243332 0.477284 41.000000
2.796901 -1.249515 0.476426 39.000000
2.787639 -1.255653 0.475568 28.000000
2.787379 -1.265835 0.476140 33.000000
2.771782 -1.269029 0.474281 27.000000
2.762483 -1.275040 0.473423 27.000000
2.727145 -1.268908 0.468419 9.000000
2.677532 -1.255853 0.461128 10.000000
3.123637 -0.482214 0.451881 27.000000
3.118226 -0.491178 0.451357 35.000000
3.110832 -0.499798 0.450571 28.000000
3.109284 -0.509339 0.450571 37.000000
3.109662 -0.519203 0.450833 42.000000
3.103168 -0.527909 0.450177 33.000000
3.103488 -0.537766 0.450440 55.000000
3.102799 -0.547457 0.450571 28.000000
3.097202 -0.556272 0.450046 65.000000
3.097431 -0.566128 0.450309 50.000000
3.095680 -0.575628 0.450309 44.000000
3.088055 -0.584017 0.449522 40.000000
3.089169 -0.594050 0.449915 41.000000
3.081495 -0.602383 0.449129 52.000000
3.076715 -0.611254 0.448736 62.000000
3.070938 -0.619905 0.448212 49.000000
3.069022 -0.629324 0.448212 42.000000
3.062224 -0.637725 0.447557 52.000000
3.061223 -0.647322 0.447688 51.000000
3.060192 -0.656919 0.447819 46.000000
3.053319 -0.665249 0.447163 41.000000
3.048360 -0.673971 0.446770 44.000000
3.045310 -0.683103 0.446639 44.000000
3.038367 -0.691342 0.445984 49.000000
3.036232 -0.700660 0.445984 43.000000
3.029242 -0.708842 0.445329 40.000000
3.026088 -0.717903 0.445198 35.000000
3.025799 -0.727648 0.445460 40.000000
3.026442 -0.737632 0.445853 49.000000
3.025127 -0.747151 0.445984 50.000000
3.018974 -0.755465 0.445460 42.000000
3.014720 -0.764237 0.445198 54.000000
3.013321 -0.773729 0.445329 42.000000
3.006136 -0.781722 0.444674 41.000000
3.001806 -0.790435 0.444412 47.000000
2.996494 -0.798875 0.444018 53.000000
2.993071 -0.807806 0.443887 43.000000
2.988666 -0.816462 0.443625 43.000000
2.983281 -0.824834 0.443232 50.000000
2.977872 -0.833181 0.442839 52.000000
2.976256 -0.842583 0.442970 38.000000
2.977469 -0.852803 0.443494 43.000000
2.973886 -0.861657 0.443363 53.000000
2.972180 -0.871056 0.443494 40.000000
2.976147 -0.882143 0.444412 28.000000
2.963931 -0.888422 0.443101 47.000000
2.962140 -0.897799 0.443232 50.000000
2.955580 -0.905720 0.442708 43.000000
2.946159 -0.912729 0.441791 48.000000
2.937669 -0.919985 0.441004 51.000000
2.932942 -0.928395 0.440742 44.000000
2.928192 -0.936784 0.440480 29.000000
2.927191 -0.946373 0.440742 55.000000
2.918620 -0.953502 0.439956 60.000000
2.914739 -0.962140 0.439825 60.000000
2.914595 -0.972019 0.440218 54.000000
2.913478 -0.981590 0.440480 59.000000
2.910453 -0.990524 0.440480 36.000000
2.907400 -0.999448 0.440480 46.000000
2.902447 -1.007713 0.440218 47.000000
2.900277 -1.016941 0.440349 47.000000
2.898078 -1.026165 0.440480 39.000000
2.881484 -1.080380 0.440873 44.000000
2.880937 -1.090268 0.441266 52.000000
2.874800 -1.098040 0.440873 43.000000
2.879743 -1.110065 0.442053 30.000000
2.868933 -1.116018 0.441004 43.000000
2.864573 -1.124452 0.440873 43.000000
2.859266 -1.132505 0.440611 39.000000
2.852096 -1.139800 0.440087 60.000000
2.844908 -1.147061 0.439563 53.000000
2.841376 -1.155784 0.439563 52.000000
2.811351 -1.214567 0.438908 42.000000
2.816699 -1.227147 0.440218 41.000000
2.815644 -1.236979 0.440611 41.000000
2.810930 -1.245210 0.440480 36.000000
2.806191 -1.253424 0.440349 52.000000
2.801428 -1.261620 0.440218 44.000000
2.799350 -1.271028 0.440480 41.000000
2.800845 -1.282087 0.441266 35.000000
2.790598 -1.287766 0.440349 37.000000
2.784837 -1.295484 0.440087 37.000000
2.785337 -1.306127 0.440742 28.000000
2.778628 -1.313395 0.440349 39.000000
2.714668 -1.313857 0.432748 11.000000
3.112116 -0.450784 0.410932 11.000000
3.119558 -0.461634 0.412003 26.000000
3.126964 -0.472535 0.413073 33.000000
3.124518 -0.481975 0.412954 40.000000
3.115177 -0.490327 0.412003 46.000000
3.116600 -0.500353 0.412359 34.000000
3.110151 -0.509112 0.411765 24.000000
3.104656 -0.517999 0.411289 20.000000
3.109905 -0.528684 0.412121 24.000000
3.103376 -0.537377 0.411527 33.000000
3.099757 -0.546551 0.411289 44.000000
3.097088 -0.555884 0.411170 32.000000
3.091461 -0.564671 0.410694 40.000000
3.091667 -0.574515 0.410932 40.000000
3.086962 -0.583445 0.410575 37.000000
3.083208 -0.592539 0.410338 28.000000
3.076503 -0.601045 0.409743 34.000000
3.066852 -0.608937 0.408792 51.000000
3.062050 -0.617755 0.408435 54.000000
3.060140 -0.627146 0.408435 45.000000
3.052369 -0.635320 0.407721 37.000000
3.053320 -0.645296 0.408078 32.000000
3.051326 -0.654661 0.408078 50.000000
3.045422 -0.663175 0.407602 50.000000
3.041434 -0.672088 0.407364 41.000000
3.036451 -0.680765 0.407008 51.000000
3.031443 -0.689418 0.406651 57.000000
3.032216 -0.699383 0.407008 47.000000
3.028123 -0.708231 0.406770 54.000000
3.022071 -0.716603 0.406294 35.000000
3.022754 -0.726567 0.406651 46.000000
3.024370 -0.736775 0.407127 47.000000
3.020167 -0.745575 0.406889 48.000000
2.996337 -0.798487 0.405700 54.000000
2.991956 -0.807160 0.405462 45.000000
2.989465 -0.816335 0.405462 48.000000
2.981204 -0.823918 0.404748 54.000000
2.973881 -0.831725 0.404154 42.000000
2.973226 -0.841385 0.404391 58.000000
2.971586 -0.850776 0.404510 52.000000
2.968961 -0.859888 0.404510 50.000000
2.966309 -0.868993 0.404510 42.000000
2.962677 -0.877808 0.404391 56.000000
2.938415 -0.939716 0.403797 56.000000
2.935518 -0.948726 0.403797 54.000000
2.929761 -0.956804 0.403440 65.000000
2.923983 -0.964855 0.403083 48.000000
2.918183 -0.972881 0.402726 47.000000
2.917067 -0.982462 0.402964 37.000000
2.917799 -0.992685 0.403440 57.000000
2.911923 -1.000665 0.403083 50.000000
2.908839 -1.009593 0.403083 31.000000
2.906665 -1.018841 0.403202 51.000000
2.899781 -1.026430 0.402726 47.000000
2.899424 -1.036323 0.403083 33.000000
2.875317 -1.067682 0.401656 63.000000
2.874285 -1.087410 0.402370 45.000000
2.868152 -1.095162 0.402013 46.000000
2.870338 -1.106096 0.402726 66.000000
2.868782 -1.115616 0.402964 58.000000
2.860724 -1.122601 0.402370 56.000000
2.856343 -1.131007 0.402251 49.000000
2.851015 -1.139028 0.402013 60.000000
2.844744 -1.146657 0.401656 59.000000
2.843973 -1.156500 0.402013 44.000000
2.838574 -1.164467 0.401775 62.000000
2.834070 -1.172791 0.401656 51.000000
2.830459 -1.181480 0.401656 46.000000
2.826821 -1.190158 0.401656 46.000000
2.824070 -1.199213 0.401775 57.000000
2.821290 -1.208262 0.401894 51.000000
2.816659 -1.216519 0.401775 52.000000
2.818376 -1.227531 0.402489 54.000000
2.810960 -1.234576 0.402013 65.000000
2.807159 -1.243195 0.402013 51.000000
2.806052 -1.253014 0.402370 46.000000
2.800383 -1.260803 0.402132 41.000000
2.796502 -1.269388 0.402132 59.000000
2.788983 -1.276311 0.401656 65.000000
2.785054 -1.284861 0.401656 69.000000
2.783800 -1.294654 0.402013 612.000000
2.779815 -1.303189 0.402013 623.000000
2.786578 -1.316798 0.403440 167.000000
2.778042 -1.323207 0.402845 63.000000
2.770389 -1.330007 0.402370 48.000000
2.769871 -1.340228 0.402845 43.000000
2.765746 -1.348720 0.402845 45.000000
2.760704 -1.356761 0.402726 37.000000
2.760979 -1.367426 0.403321 53.000000
2.757659 -1.376333 0.403440 33.000000
2.767619 -1.391920 0.405343 9.000000
3.127271 -0.511730 0.374815 21.000000
3.126667 -0.521486 0.374922 38.000000
3.116230 -0.529576 0.373961 36.000000
3.111652 -0.538625 0.373640 31.000000
3.105089 -0.547305 0.373106 43.000000
3.096545 -0.555599 0.372359 32.000000
3.095804 -0.565275 0.372466 24.000000
3.091123 -0.574225 0.372145 35.000000
3.085438 -0.582967 0.371718 31.000000
3.087541 -0.593181 0.372145 54.000000
3.082779 -0.602078 0.371825 56.000000
3.077017 -0.610759 0.371398 41.000000
3.078052 -0.620786 0.371718 53.000000
3.076133 -0.630226 0.371718 41.000000
3.074185 -0.639661 0.371718 59.000000
3.071235 -0.648884 0.371611 51.000000
3.068258 -0.658094 0.371505 49.000000
3.065253 -0.667293 0.371398 39.000000
3.060279 -0.676050 0.371078 48.000000
3.055280 -0.684783 0.370757 49.000000
3.051226 -0.693712 0.370544 43.000000
3.047145 -0.702623 0.370330 51.000000
3.045943 -0.712195 0.370437 43.000000
3.043744 -0.721536 0.370437 51.000000
3.041517 -0.730871 0.370437 41.000000
3.040226 -0.740434 0.370544 46.000000
3.036009 -0.749281 0.370330 53.000000
3.027909 -0.757144 0.369689 58.000000
3.021717 -0.765453 0.369262 47.000000
3.016465 -0.773978 0.368942 41.000000
3.010227 -0.782228 0.368515 48.000000
3.000121 -0.789434 0.367660 46.000000
2.996724 -0.798379 0.367554 40.000000
2.991381 -0.806792 0.367233 40.000000
2.987932 -0.815703 0.367126 37.000000
2.983499 -0.824337 0.366913 39.000000
2.979998 -0.833218 0.366806 37.000000
2.976471 -0.842086 0.366699 55.000000
2.976741 -0.852035 0.367020 42.000000
2.970293 -0.860057 0.366593 55.000000
2.966686 -0.868886 0.366486 49.000000
2.962100 -0.877418 0.366272 44.000000
2.959394 -0.886502 0.366272 49.000000
2.953806 -0.894712 0.365952 54.000000
2.952949 -0.904352 0.366165 50.000000
2.952060 -0.913996 0.366379 44.000000
2.952088 -0.923940 0.366699 40.000000
2.951136 -0.933592 0.366913 52.000000
2.951098 -0.943551 0.367233 54.000000
2.946298 -0.951988 0.367020 48.000000
2.942418 -0.960714 0.366913 43.000000
2.933792 -0.967867 0.366272 48.000000
2.927036 -0.975605 0.365845 39.000000
2.922144 -0.983946 0.365631 46.000000
2.919112 -0.992906 0.365631 50.000000
2.909470 -0.999595 0.364884 49.000000
2.909207 -1.009495 0.365204 47.000000
2.906096 -1.018415 0.365204 50.000000
2.903896 -1.027658 0.365311 41.000000
2.881695 -1.079888 0.364991 67.000000
2.877438 -1.088372 0.364884 55.000000
2.875943 -1.097904 0.365098 62.000000
2.873489 -1.107080 0.365204 43.000000
2.868226 -1.115170 0.364991 61.000000
2.864791 -1.123964 0.364991 56.000000
2.860405 -1.132382 0.364884 64.000000
2.853224 -1.139676 0.364457 59.000000
2.847870 -1.147681 0.364243 49.000000
2.844336 -1.156413 0.364243 46.000000
2.814283 -1.215254 0.363709 57.000000
2.812364 -1.224677 0.363923 57.000000
2.806773 -1.232499 0.363709 69.000000
2.806615 -1.242715 0.364136 61.000000
2.806421 -1.252942 0.364564 53.000000
2.803470 -1.261954 0.364670 59.000000
2.799585 -1.270549 0.364670 40.000000
2.792962 -1.277891 0.364350 52.000000
2.791737 -1.287703 0.364670 39.000000
2.787773 -1.296262 0.364670 44.000000
2.783783 -1.304809 0.364670 46.000000
2.781564 -1.314193 0.364884 50.000000
2.772931 -1.341470 0.365311 65.000000
2.762249 -1.367818 0.365525 34.000000
2.760709 -1.377618 0.365845 36.000000
2.755581 -1.385634 0.365738 33.000000
2.758412 -1.397678 0.366593 32.000000
2.635456 -1.345535 0.352283 5.000000
3.099108 -0.556801 0.335091 26.000000
3.095427 -0.565949 0.334901 32.000000
3.090739 -0.574898 0.334616 30.000000
3.084070 -0.583454 0.334141 28.000000
3.080310 -0.592538 0.333952 38.000000
3.077501 -0.601795 0.333857 21.000000
3.075640 -0.611233 0.333857 43.000000
3.077654 -0.621453 0.334236 37.000000
3.076708 -0.631092 0.334331 28.000000
3.076707 -0.640934 0.334521 41.000000
3.072778 -0.649958 0.334331 51.000000
3.067849 -0.658757 0.334047 39.000000
3.059978 -0.666896 0.333477 30.000000
3.055001 -0.675637 0.333192 51.000000
3.049999 -0.684353 0.332907 60.000000
3.044973 -0.693046 0.332622 49.000000
3.040893 -0.701937 0.332432 37.000000
3.036786 -0.710810 0.332242 48.000000
3.033623 -0.719894 0.332147 44.000000
3.034303 -0.729895 0.332432 42.000000
3.026246 -0.737788 0.331862 37.000000
3.024935 -0.747308 0.331957 39.000000
2.985656 -0.796201 0.329488 67.000000
2.983200 -0.805357 0.329488 52.000000
2.977834 -0.813719 0.329203 48.000000
2.979161 -0.823911 0.329583 43.000000
2.979496 -0.833851 0.329868 59.000000
2.975008 -0.842446 0.329678 52.000000
2.975281 -0.852391 0.329962 43.000000
2.970739 -0.860961 0.329773 53.000000
2.962351 -0.868393 0.329203 59.000000
2.959673 -0.877478 0.329203 67.000000
2.937303 -0.939923 0.328918 56.000000
2.931563 -0.948012 0.328633 49.000000
2.931480 -0.957928 0.328918 45.000000
2.923800 -0.965358 0.328443 43.000000
2.914214 -0.972121 0.327778 56.000000
2.913105 -0.981692 0.327968 49.000000
2.911022 -0.990946 0.328063 41.000000
2.906085 -0.999225 0.327873 51.000000
2.906768 -1.009441 0.328253 53.000000
2.898020 -1.016379 0.327683 48.000000
2.899580 -1.026926 0.328158 51.000000
2.897354 -1.036151 0.328253 61.000000
2.883023 -1.061057 0.327778 61.000000
2.876954 -1.068858 0.327493 69.000000
2.874066 -1.087898 0.327873 55.000000
2.871645 -1.097066 0.327968 64.000000
2.869195 -1.106228 0.328063 56.000000
2.866715 -1.115386 0.328158 66.000000
2.866060 -1.125266 0.328443 46.000000
2.858892 -1.132589 0.328063 62.000000
2.852630 -1.140247 0.327778 66.000000
2.845425 -1.147506 0.327398 65.000000
2.840047 -1.155480 0.327208 63.000000
2.837409 -1.164566 0.327303 80.000000
2.831983 -1.172504 0.327113 68.000000
2.826535 -1.180421 0.326923 56.000000
2.820148 -1.187928 0.326638 73.000000
2.813741 -1.195408 0.326353 83.000000
2.810976 -1.204427 0.326448 64.000000
2.804525 -1.211862 0.326163 54.000000
2.804445 -1.222049 0.326543 64.000000
2.804329 -1.232248 0.326923 56.000000
2.803266 -1.242054 0.327208 67.000000
2.803988 -1.252677 0.327683 57.000000
2.801039 -1.261683 0.327778 66.000000
2.796248 -1.269859 0.327683 81.000000
2.794150 -1.279260 0.327873 65.000000
2.783884 -1.284908 0.327208 66.000000
2.778124 -1.292604 0.327018 74.000000
2.776849 -1.302388 0.327303 53.000000
2.775541 -1.312176 0.327588 54.000000
2.771502 -1.320686 0.327588 44.000000
2.771924 -1.331335 0.328063 42.000000
2.771412 -1.341567 0.328443 40.000000
2.771757 -1.352244 0.328918 40.000000
2.772063 -1.362936 0.329393 38.000000
2.757163 -1.366134 0.328253 18.000000
3.074263 -0.600414 0.294049 19.000000
3.074361 -0.610231 0.294214 37.000000
3.074428 -0.620055 0.294379 36.000000
3.068606 -0.628683 0.294049 38.000000
3.063736 -0.637485 0.293802 30.000000
3.059815 -0.646469 0.293637 49.000000
3.055869 -0.655436 0.293472 45.000000
3.054818 -0.665020 0.293555 39.000000
3.055682 -0.675034 0.293802 44.000000
3.052624 -0.684187 0.293720 52.000000
3.051483 -0.693771 0.293802 42.000000
3.052253 -0.703801 0.294049 43.000000
3.047168 -0.712481 0.293802 42.000000
3.042059 -0.721136 0.293555 48.000000
3.036926 -0.729767 0.293307 38.000000
3.026926 -0.737193 0.292648 49.000000
3.023683 -0.746237 0.292565 52.000000
3.021379 -0.755510 0.292565 70.000000
3.013251 -0.763307 0.292070 60.000000
3.005103 -0.771061 0.291576 54.000000
3.002723 -0.780277 0.291576 42.000000
3.003207 -0.790247 0.291823 53.000000
2.997879 -0.798687 0.291576 51.000000
2.996377 -0.808140 0.291658 38.000000
2.993884 -0.817329 0.291658 58.000000
2.987520 -0.825448 0.291328 41.000000
2.985933 -0.834878 0.291411 47.000000
2.980481 -0.843221 0.291163 26.000000
2.971173 -0.850440 0.290586 56.000000
2.971422 -0.860384 0.290834 40.000000
2.965899 -0.868655 0.290586 43.000000
2.967042 -0.878883 0.290916 46.000000
2.966241 -0.888554 0.291081 53.000000
2.967316 -0.898806 0.291411 50.000000
2.965497 -0.908197 0.291493 53.000000
2.963649 -0.917586 0.291576 77.000000
2.959869 -0.926376 0.291493 39.000000
2.955113 -0.934851 0.291328 52.000000
2.946535 -0.942091 0.290834 46.000000
2.942683 -0.950820 0.290751 66.000000
2.938805 -0.959534 0.290669 50.000000
2.937740 -0.969170 0.290834 37.000000
2.930026 -0.976602 0.290421 60.000000
2.925127 -0.984951 0.290256 46.000000
2.920204 -0.993278 0.290091 50.000000
2.916201 -1.001909 0.290009 49.000000
2.912172 -1.010524 0.289926 54.000000
2.907177 -1.018794 0.289762 47.000000
2.904977 -1.028041 0.289844 53.000000
2.893027 -1.084137 0.290504 69.000000
2.887823 -1.092302 0.290339 55.000000
2.884459 -1.101156 0.290339 80.000000
2.878277 -1.108925 0.290091 76.000000
2.877648 -1.118834 0.290339 79.000000
2.867708 -1.125109 0.289762 130.000000
2.860536 -1.132434 0.289432 118.000000
2.856123 -1.140835 0.289349 122.000000
2.855382 -1.150710 0.289597 114.000000
2.849993 -1.158713 0.289432 93.000000
2.848268 -1.168208 0.289597 135.000000
2.827265 -1.210584 0.289349 136.000000
2.820793 -1.218066 0.289102 104.000000
2.818870 -1.227511 0.289267 125.000000
2.813267 -1.235352 0.289102 115.000000
2.811285 -1.244784 0.289267 95.000000
2.803813 -1.251777 0.288937 59.000000
2.803595 -1.262010 0.289267 78.000000
2.797895 -1.269782 0.289102 73.000000
2.797611 -1.280018 0.289432 82.000000
2.790051 -1.286925 0.289102 72.000000
2.783379 -1.294218 0.288854 44.000000
2.785711 -1.305713 0.289432 27.000000
2.781692 -1.314253 0.289432 45.000000
2.729645 -1.362112 0.287288 5.000000
3.051394 -0.656338 0.256056 32.000000
3.051315 -0.666121 0.256197 39.000000
3.058023 -0.677418 0.256832 45.000000
3.058850 -0.687452 0.257044 34.000000
3.056726 -0.696833 0.257044 40.000000
3.060406 -0.707553 0.257468 46.000000
3.054336 -0.716030 0.257186 38.000000
3.050184 -0.724937 0.257044 33.000000
3.042126 -0.732891 0.256621 32.000000
3.026295 -0.738914 0.255632 45.000000
3.021109 -0.747477 0.255420 52.000000
2.999128 -0.800903 0.254855 50.000000
2.995694 -0.809841 0.254784 40.000000
2.992233 -0.818765 0.254714 55.000000
2.989707 -0.827941 0.254714 37.000000
2.984271 -0.836303 0.254502 49.000000
2.978812 -0.844639 0.254290 47.000000
2.970453 -0.852126 0.253866 37.000000
2.967825 -0.861235 0.253866 44.000000
2.961339 -0.869214 0.253584 56.000000
2.957702 -0.878012 0.253513 62.000000
2.946717 -0.944059 0.254149 48.000000
2.939061 -0.951561 0.253795 53.000000
2.930438 -0.958714 0.253372 48.000000
2.926536 -0.967387 0.253301 36.000000
2.926393 -0.977308 0.253513 38.000000
2.923381 -0.986282 0.253513 53.000000
2.921286 -0.995567 0.253584 30.000000
2.913501 -1.002903 0.253230 42.000000
2.909468 -1.011510 0.253160 58.000000
2.905410 -1.020101 0.253089 48.000000
2.901326 -1.028677 0.253019 53.000000
2.895339 -1.036566 0.252807 52.000000
2.884165 -1.092862 0.253442 66.000000
2.881730 -1.102061 0.253513 85.000000
2.879267 -1.111256 0.253584 96.000000
2.871196 -1.118276 0.253230 102.000000
2.867751 -1.127079 0.253230 153.000000
2.866134 -1.136607 0.253372 138.000000
2.861708 -1.145024 0.253301 145.000000
2.856331 -1.153052 0.253160 150.000000
2.853704 -1.162186 0.253230 120.000000
2.849203 -1.170557 0.253160 158.000000
2.843755 -1.178529 0.253019 140.000000
2.841966 -1.188017 0.253160 176.000000
2.841985 -1.198279 0.253442 246.000000
2.838296 -1.206993 0.253442 261.000000
2.837330 -1.216873 0.253654 295.000000
2.834499 -1.225968 0.253725 287.000000
2.816093 -1.228283 0.252595 159.000000
2.811398 -1.236516 0.252524 123.000000
2.808503 -1.245539 0.252595 119.000000
2.805580 -1.254557 0.252665 135.000000
2.802627 -1.263568 0.252736 64.000000
2.801462 -1.273397 0.252948 51.000000
2.799356 -1.282817 0.253089 47.000000
2.791784 -1.289727 0.252807 41.000000
2.784197 -1.296603 0.252524 37.000000
2.779303 -1.304715 0.252454 40.000000
2.772582 -1.311957 0.252242 22.000000
3.057567 -0.695713 0.217712 13.000000
3.057363 -0.705539 0.217829 24.000000
3.054212 -0.714688 0.217770 45.000000
3.047149 -0.722902 0.217480 46.000000
3.034240 -0.729679 0.216841 45.000000
3.024228 -0.737092 0.216376 49.000000
3.023891 -0.746846 0.216493 35.000000
3.014806 -0.754422 0.216086 33.000000
3.010542 -0.763177 0.215970 47.000000
3.010120 -0.772906 0.216086 46.000000
3.008701 -0.782389 0.216144 38.000000
3.007252 -0.791870 0.216202 47.000000
3.010596 -0.802636 0.216551 37.000000
3.002336 -0.810307 0.216202 40.000000
2.997910 -0.818988 0.216086 63.000000
3.004043 -0.830577 0.216609 34.000000
2.990906 -0.836829 0.215970 52.000000
2.987364 -0.845729 0.215912 54.000000
2.985715 -0.855165 0.215970 53.000000
2.982118 -0.864044 0.215912 47.000000
2.978496 -0.872908 0.215854 45.000000
2.974847 -0.881758 0.215796 50.000000
2.973084 -0.891167 0.215854 43.000000
2.973202 -0.901153 0.216028 55.000000
2.971377 -0.910563 0.216086 55.000000
2.966663 -0.919084 0.215970 44.000000
2.960971 -0.927286 0.215796 47.000000
2.954305 -0.935160 0.215563 52.000000
2.947619 -0.943002 0.215331 51.000000
2.943762 -0.951733 0.215273 52.000000
2.934186 -0.958589 0.214866 50.000000
2.930283 -0.967274 0.214808 45.000000
2.925408 -0.975627 0.214692 36.000000
2.930916 -0.987467 0.215215 43.000000
2.930707 -0.997420 0.215389 61.000000
2.927634 -1.006407 0.215389 67.000000
2.925475 -1.015711 0.215447 68.000000
2.922345 -1.024682 0.215447 58.000000
2.916365 -1.032642 0.215273 53.000000
2.885646 -1.081941 0.214576 73.000000
2.883247 -1.091143 0.214634 87.000000
2.878953 -1.099627 0.214576 116.000000
2.882087 -1.110968 0.214982 157.000000
2.881455 -1.120891 0.215157 209.000000
2.877074 -1.129361 0.215098 170.000000
2.872667 -1.137815 0.215040 160.000000
2.867309 -1.145882 0.214924 199.000000
2.862854 -1.154300 0.214866 214.000000
2.848203 -1.158562 0.214169 432.000000
2.888965 -1.185492 0.216957 1242.000000
2.907451 -1.203516 0.218351 2273.000000
2.892690 -1.207813 0.217654 2714.000000
2.888971 -1.216682 0.217654 2606.000000
2.885225 -1.225540 0.217654 2453.000000
2.862182 -1.226128 0.216434 1457.000000
2.844661 -1.228962 0.215563 979.000000
2.839047 -1.236886 0.215447 583.000000
2.820615 -1.239164 0.214518 755.000000
2.822277 -1.250239 0.214866 134.000000
2.809313 -1.254819 0.214285 121.000000
2.803630 -1.262612 0.214169 106.000000
2.796107 -1.269556 0.213937 78.000000
2.798553 -1.281037 0.214343 58.000000
2.798235 -1.291291 0.214576 35.000000
2.780684 -1.293552 0.213704 16.000000
3.022373 -0.748346 0.179563 20.000000
3.004225 -0.802821 0.179378 40.000000
3.001749 -0.812034 0.179378 27.000000
3.003097 -0.822294 0.179563 38.000000
2.998635 -0.830970 0.179470 40.000000
2.990300 -0.838550 0.179193 51.000000
2.986752 -0.847448 0.179147 49.000000
2.986058 -0.857158 0.179239 37.000000
2.983415 -0.866315 0.179239 50.000000
2.984577 -0.876588 0.179424 36.000000
2.980916 -0.885457 0.179378 50.000000
2.950749 -0.945914 0.178869 52.000000
2.949734 -0.955578 0.178962 42.000000
2.941092 -0.962760 0.178684 59.000000
2.931484 -0.969586 0.178361 51.000000
2.926601 -0.977942 0.178268 56.000000
2.922640 -0.986597 0.178222 48.000000
2.918654 -0.995237 0.178176 67.000000
2.914643 -1.003862 0.178130 59.000000
2.915323 -1.014110 0.178315 52.000000
2.912198 -1.023050 0.178315 49.000000
2.910929 -1.032647 0.178407 56.000000
2.909628 -1.042245 0.178499 67.000000
2.898038 -1.068290 0.178407 70.000000
2.889017 -1.095272 0.178453 57.000000
2.883777 -1.103417 0.178361 65.000000
2.882242 -1.112978 0.178453 70.000000
2.874160 -1.120003 0.178222 119.000000
2.866061 -1.126990 0.177991 109.000000
2.859804 -1.134673 0.177852 129.000000
2.853527 -1.142329 0.177714 114.000000
2.850009 -1.151078 0.177714 124.000000
2.849240 -1.160946 0.177852 97.000000
2.840120 -1.167406 0.177575 158.000000
2.831911 -1.174202 0.177344 278.000000
2.828295 -1.182885 0.177344 313.000000
2.829255 -1.193496 0.177575 265.000000
2.842129 -1.209204 0.178407 433.000000
2.838405 -1.217917 0.178407 516.000000
2.825486 -1.222656 0.177945 120.000000
2.816228 -1.228924 0.177667 84.000000
2.816102 -1.239166 0.177852 36.000000
2.817767 -1.250229 0.178130 37.000000
2.813918 -1.258868 0.178130 34.000000
2.830989 -1.276933 0.179193 13.000000
2.841610 -1.292224 0.179933 5.000000
2.825974 -1.316636 0.179748 6.000000
3.508922 -0.901699 0.158362 9.000000
3.519680 -0.915986 0.158836 7.000000
3.167981 -0.834803 0.146615 24.000000
3.113261 -0.830600 0.144787 25.000000
3.051844 -0.824244 0.142722 32.000000
3.048337 -0.833340 0.142688 31.000000
3.022649 -0.836289 0.141875 46.000000
3.007558 -0.842054 0.141435 46.000000
2.999191 -0.849642 0.141232 35.000000
2.988885 -0.856635 0.140961 38.000000
2.983363 -0.864966 0.140860 48.000000
2.980695 -0.874115 0.140860 47.000000
2.975125 -0.882402 0.140758 56.000000
2.974319 -0.892100 0.140826 38.000000
2.978262 -0.903252 0.141063 42.000000
2.970700 -0.910920 0.140894 51.000000
2.965027 -0.919141 0.140792 43.000000
2.958379 -0.927038 0.140657 36.000000
2.951710 -0.934902 0.140521 63.000000
2.948828 -0.943953 0.140521 51.000000
2.941163 -0.951457 0.140352 50.000000
2.936331 -0.959854 0.140284 55.000000
2.934321 -0.969172 0.140318 53.000000
2.932282 -0.978486 0.140352 54.000000
2.932107 -0.988436 0.140454 60.000000
2.926223 -0.996460 0.140352 52.000000
2.924097 -1.005758 0.140386 44.000000
2.923830 -1.015709 0.140487 42.000000
2.919757 -1.024343 0.140454 41.000000
2.918484 -1.033964 0.140521 59.000000
2.896151 -1.086455 0.140420 71.000000
2.889066 -1.093919 0.140284 52.000000
2.886629 -1.103134 0.140318 77.000000
2.883232 -1.111985 0.140318 66.000000
2.877012 -1.119738 0.140217 92.000000
2.870773 -1.127462 0.140115 102.000000
2.870088 -1.137370 0.140217 110.000000
2.863801 -1.145056 0.140115 93.000000
2.860275 -1.153837 0.140115 109.000000
2.859498 -1.163737 0.140217 74.000000
2.854065 -1.171745 0.140149 67.000000
2.831096 -1.223684 0.140115 51.000000
2.832826 -1.234760 0.140318 26.000000
2.840003 -1.248273 0.140724 19.000000
2.841642 -1.259410 0.140927 8.000000
2.831127 -1.275591 0.140826 7.000000
2.819613 -1.291273 0.140691 4.000000
3.470522 -0.903180 0.113462 10.000000
3.436796 -0.905681 0.112770 27.000000
3.426273 -0.914161 0.112596 22.000000
3.383876 -0.913993 0.111709 38.000000
3.375270 -0.922790 0.111579 35.000000
3.336768 -0.923288 0.110779 39.000000
3.294444 -0.922482 0.109891 43.000000
3.047251 -0.863446 0.104395 32.000000
3.046510 -0.873341 0.104438 39.000000
3.002522 -0.870725 0.103507 44.000000
2.981607 -0.874593 0.103096 59.000000
2.982745 -0.884872 0.103183 47.000000
2.936347 -0.950120 0.102642 40.000000
2.935319 -0.959745 0.102685 59.000000
2.935210 -0.969685 0.102750 50.000000
2.936014 -0.979951 0.102837 47.000000
2.937731 -0.990549 0.102945 47.000000
2.935625 -0.999879 0.102966 55.000000
2.931598 -1.008556 0.102945 36.000000
2.926601 -1.016890 0.102902 45.000000
2.922524 -1.025533 0.102880 64.000000
2.918422 -1.034161 0.102858 46.000000
2.912411 -1.042100 0.102793 62.000000
2.893671 -1.095885 0.102815 52.000000
2.893097 -1.105827 0.102880 52.000000
2.889691 -1.114698 0.102880 66.000000
2.883462 -1.122471 0.102815 57.000000
2.874421 -1.129121 0.102685 50.000000
2.871873 -1.138303 0.102707 56.000000
2.866510 -1.146366 0.102663 56.000000
2.865761 -1.156276 0.102728 55.000000
2.863127 -1.165440 0.102750 49.000000
2.861387 -1.174977 0.102793 44.000000
2.864236 -1.186426 0.102945 42.000000
2.859660 -1.194822 0.102923 57.000000
2.859667 -1.205142 0.103010 40.000000
2.855036 -1.213519 0.102988 47.000000
2.849461 -1.221485 0.102945 26.000000
2.846618 -1.230618 0.102966 11.000000
3.510619 -0.902786 0.069565 16.000000
3.473965 -0.904728 0.069242 23.000000
3.457637 -0.911811 0.069112 29.000000
3.432603 -0.916479 0.068899 37.000000
3.406609 -0.920741 0.068677 34.000000
3.397981 -0.929605 0.068622 43.000000
3.383549 -0.936822 0.068511 42.000000
3.368142 -0.943689 0.068391 56.000000
3.360420 -0.952654 0.068344 49.000000
3.340181 -0.957995 0.068178 54.000000
3.336266 -0.967959 0.068169 72.000000
3.328483 -0.976782 0.068122 81.000000
3.246866 -0.963650 0.067364 47.000000
3.035112 -0.910917 0.065347 30.000000
3.002641 -0.911219 0.065061 36.000000
2.993140 -0.918373 0.064996 41.000000
2.976938 -0.923402 0.064866 42.000000
2.968366 -0.930735 0.064811 52.000000
2.966450 -0.940140 0.064820 37.000000
2.955934 -0.946795 0.064746 48.000000
2.953015 -0.955859 0.064746 46.000000
2.949118 -0.964603 0.064737 45.000000
2.947094 -0.973961 0.064746 57.000000
2.942196 -0.982364 0.064728 50.000000
2.940116 -0.991705 0.064737 69.000000
2.938952 -1.001366 0.064755 55.000000
2.932084 -1.009076 0.064718 62.000000
2.927086 -1.017410 0.064700 55.000000
2.923951 -1.026385 0.064700 54.000000
2.922673 -1.036019 0.064718 56.000000
2.908725 -1.091750 0.064774 58.000000
2.905362 -1.100668 0.064774 72.000000
2.904773 -1.110649 0.064802 55.000000
2.898553 -1.118475 0.064774 64.000000
2.892313 -1.126273 0.064746 59.000000
2.882330 -1.132581 0.064681 67.000000
2.876982 -1.140681 0.064663 52.000000
2.870684 -1.148387 0.064635 52.000000
2.866220 -1.156815 0.064626 46.000000
2.860806 -1.164848 0.064607 44.000000
3.461281 -0.878139 0.024391 11.000000
3.448884 -0.886268 0.024424 19.000000
3.433567 -0.893575 0.024467 23.000000
3.426941 -0.903087 0.024480 35.000000
3.417391 -0.911794 0.024503 41.000000
3.404922 -0.919670 0.024536 34.000000
3.392438 -0.927478 0.024570 34.000000
3.385721 -0.936816 0.024583 62.000000
3.372237 -0.944236 0.024619 36.000000
3.362589 -0.952672 0.024643 42.000000
3.353883 -0.961332 0.024662 39.000000
3.347075 -0.970505 0.024676 41.000000
3.337364 -0.978801 0.024699 55.000000
3.327634 -0.987047 0.024722 93.000000
3.319801 -0.995817 0.024739 71.000000
3.319601 -1.006867 0.024729 78.000000
3.320321 -1.018218 0.024716 80.000000
3.311450 -1.026625 0.024735 77.000000
3.275837 -1.026623 0.024848 58.000000
2.984684 -0.955636 0.025840 44.000000
2.981738 -0.964788 0.025840 53.000000
2.961653 -0.968344 0.025899 43.000000
2.965316 -0.979619 0.025876 35.000000
2.948066 -0.983968 0.025926 47.000000
2.941243 -0.991732 0.025939 36.000000
2.937240 -1.000429 0.025942 52.000000
2.931320 -1.008460 0.025952 60.000000
2.914986 -1.012859 0.025999 92.000000
2.907146 -1.020143 0.026015 107.000000
2.920029 -1.034729 0.025959 65.000000
2.922490 -1.045702 0.025939 50.000000
2.897135 -1.097196 0.025959 62.000000
2.892822 -1.105722 0.025962 57.000000
2.890349 -1.114951 0.025959 39.000000
2.880390 -1.121277 0.025982 52.000000
2.879730 -1.131204 0.025972 45.000000
2.871597 -1.138193 0.025989 33.000000
2.871806 -1.148482 0.025976 39.000000
2.876616 -1.160651 0.025946 18.000000
2.848957 -1.159678 0.026032 10.000000
3.479479 -0.882115 -0.019961 15.000000
3.468040 -0.890547 -0.019820 25.000000
3.446906 -0.896399 -0.019521 17.000000
3.429636 -0.903149 -0.019286 44.000000
3.418155 -0.911347 -0.019144 44.000000
3.401829 -0.918180 -0.018924 25.000000
3.395138 -0.927558 -0.018861 51.000000
3.386494 -0.936371 -0.018767 44.000000
3.374939 -0.944330 -0.018626 68.000000
3.369140 -0.953862 -0.018579 59.000000
3.358508 -0.961991 -0.018453 72.000000
3.352660 -0.971455 -0.018406 49.000000
3.342948 -0.979767 -0.018296 61.000000
3.334174 -0.988313 -0.018202 77.000000
3.328253 -0.997676 -0.018155 72.000000
3.322306 -1.007011 -0.018108 81.000000
3.319201 -1.017199 -0.018108 76.000000
3.316065 -1.027378 -0.018108 55.000000
3.318622 -1.039340 -0.018202 87.000000
3.304932 -1.046196 -0.018029 60.000000
3.300755 -1.056026 -0.018013 52.000000
3.300353 -1.067070 -0.018060 67.000000
3.297064 -1.077191 -0.018060 70.000000
3.276654 -1.081657 -0.017778 49.000000
3.149070 -1.050250 -0.015720 35.000000
2.983809 -1.005296 -0.013034 34.000000
2.952316 -1.004777 -0.012563 57.000000
2.953947 -1.015456 -0.012641 48.000000
2.944206 -1.022217 -0.012531 41.000000
2.934451 -1.028928 -0.012421 50.000000
2.924683 -1.035589 -0.012312 48.000000
2.904705 -1.078936 -0.012249 73.000000
2.900445 -1.087492 -0.012233 44.000000
2.902706 -1.098509 -0.012327 50.000000
2.897454 -1.106696 -0.012296 47.000000
2.893112 -1.115220 -0.012280 48.000000
2.889677 -1.124091 -0.012280 42.000000
2.904828 -1.140260 -0.012594 25.000000
2.931062 -1.160953 -0.013097 14.000000
3.509936 -0.867580 -0.063743 22.000000
3.492712 -0.874707 -0.063327 19.000000
3.478384 -0.882472 -0.062994 22.000000
3.458232 -0.888667 -0.062494 31.000000
3.442912 -0.896004 -0.062134 16.000000
3.427580 -0.903255 -0.061773 38.000000
3.413202 -0.910678 -0.061440 41.000000
3.396880 -0.917500 -0.061051 35.000000
3.385370 -0.925548 -0.060802 44.000000
3.373843 -0.933534 -0.060552 52.000000
3.363262 -0.941726 -0.060330 47.000000
3.355547 -0.950679 -0.060191 65.000000
3.344927 -0.958769 -0.059969 34.000000
3.336209 -0.967358 -0.059803 43.000000
3.330348 -0.976746 -0.059720 48.000000
3.324460 -0.986107 -0.059636 41.000000
3.320461 -0.996014 -0.059609 45.000000
3.316433 -1.005907 -0.059581 81.000000
3.312376 -1.015784 -0.059553 63.000000
3.308289 -1.025646 -0.059525 53.000000
3.307989 -1.036687 -0.059609 62.000000
3.304793 -1.046831 -0.059609 66.000000
3.301565 -1.056965 -0.059609 65.000000
3.301161 -1.068011 -0.059692 53.000000
3.299769 -1.078754 -0.059747 44.000000
3.300241 -1.090126 -0.059858 42.000000
3.298778 -1.100878 -0.059914 43.000000
3.294437 -1.110674 -0.059886 47.000000
3.279658 -1.116913 -0.059553 32.000000
3.264872 -1.123071 -0.059220 38.000000
3.264244 -1.134066 -0.059303 41.000000
3.152264 -1.106053 -0.056112 22.000000
2.978293 -1.055351 -0.051090 42.000000
2.949626 -1.055400 -0.050341 44.000000
2.894171 -1.096075 -0.049287 44.000000
2.887060 -1.103522 -0.049176 41.000000
2.896719 -1.117406 -0.049564 7.000000
3.485057 -0.849470 -0.107882 16.000000
3.486315 -0.861117 -0.108043 22.000000
3.479779 -0.870838 -0.107882 34.000000
3.475154 -0.881018 -0.107802 33.000000
3.462757 -0.889190 -0.107398 33.000000
3.445508 -0.896035 -0.106794 32.000000
3.433081 -0.904056 -0.106391 46.000000
3.420636 -0.912009 -0.105988 35.000000
3.404317 -0.918853 -0.105423 34.000000
3.390880 -0.926395 -0.104980 47.000000
3.380318 -0.934662 -0.104658 52.000000
3.375510 -0.944490 -0.104577 50.000000
3.367790 -0.953480 -0.104375 26.000000
3.363888 -0.963532 -0.104335 33.000000
3.355158 -0.972179 -0.104093 51.000000
3.346407 -0.980781 -0.103852 42.000000
3.343382 -0.991043 -0.103852 32.000000
3.337454 -1.000435 -0.103731 38.000000
3.329589 -1.009220 -0.103529 53.000000
3.328387 -1.020015 -0.103610 65.000000
3.322379 -1.029335 -0.103489 53.000000
3.320159 -1.039821 -0.103529 50.000000
3.323621 -1.052114 -0.103811 45.000000
3.323232 -1.063220 -0.103932 51.000000
3.321856 -1.074025 -0.104013 63.000000
3.320445 -1.084832 -0.104093 54.000000
3.312357 -1.093448 -0.103892 45.000000
3.313726 -1.105186 -0.104093 57.000000
3.316001 -1.117262 -0.104335 44.000000
3.315395 -1.128396 -0.104456 30.000000
3.323256 -1.142462 -0.104940 42.000000
3.333894 -1.157569 -0.105544 37.000000
3.341641 -1.171761 -0.106028 35.000000
3.347449 -1.185344 -0.106431 31.000000
3.341915 -1.194935 -0.106350 25.000000
3.326956 -1.201109 -0.105867 41.000000
3.336398 -1.216103 -0.106431 24.000000
3.255761 -1.198030 -0.103126 18.000000
3.480984 -0.861718 -0.150931 33.000000
3.481230 -0.873121 -0.151088 47.000000
3.471760 -0.882078 -0.150722 50.000000
3.466136 -0.891980 -0.150565 32.000000
3.453718 -0.900094 -0.150041 26.000000
3.437422 -0.907123 -0.149309 31.000000
3.424008 -0.914832 -0.148733 38.000000
3.410581 -0.922468 -0.148157 29.000000
3.389433 -0.927923 -0.147163 51.000000
3.375020 -0.935121 -0.146535 46.000000
3.369251 -0.944664 -0.146378 43.000000
3.367297 -0.955268 -0.146430 41.000000
3.357631 -0.963668 -0.146064 46.000000
3.355618 -0.974243 -0.146116 54.000000
3.357404 -0.985938 -0.146378 40.000000
3.356279 -0.996802 -0.146483 40.000000
3.354161 -1.007381 -0.146535 60.000000
3.349144 -1.017087 -0.146430 49.000000
3.346962 -1.027650 -0.146483 41.000000
3.339978 -1.036731 -0.146273 43.000000
3.342499 -1.048765 -0.146587 35.000000
3.343074 -1.060221 -0.146797 51.000000
3.338855 -1.070168 -0.146744 37.000000
3.341256 -1.082251 -0.147058 42.000000
3.340768 -1.093427 -0.147215 44.000000
3.334553 -1.102732 -0.147058 46.000000
3.339679 -1.115802 -0.147529 39.000000
3.336241 -1.126043 -0.147529 41.000000
3.338442 -1.138205 -0.147843 46.000000
3.342489 -1.151040 -0.148262 48.000000
3.345545 -1.163584 -0.148628 39.000000
3.348556 -1.176157 -0.148995 40.000000
3.357168 -1.190760 -0.149675 41.000000
3.363842 -1.204755 -0.150251 31.000000
3.350738 -1.211676 -0.149727 46.000000
3.358263 -1.226056 -0.150355 18.000000
3.315126 -1.221862 -0.148157 11.000000
3.548702 -0.876534 -0.199817 18.000000
3.545996 -0.887417 -0.199817 12.000000
3.526813 -0.894121 -0.198717 24.000000
3.523087 -0.904688 -0.198652 20.000000
3.494220 -0.908709 -0.196905 25.000000
3.475976 -0.915357 -0.195870 27.000000
3.463509 -0.923445 -0.195223 40.000000
3.446209 -0.930164 -0.194252 34.000000
3.431788 -0.937576 -0.193476 35.000000
3.423124 -0.946503 -0.193088 25.000000
3.405790 -0.952966 -0.192117 29.000000
3.402850 -0.963410 -0.192117 37.000000
3.391245 -0.971372 -0.191535 45.000000
3.382498 -0.980104 -0.191146 47.000000
3.379475 -0.990477 -0.191146 40.000000
3.372594 -0.999706 -0.190888 44.000000
3.370466 -1.010334 -0.190952 51.000000
3.361621 -1.018933 -0.190564 52.000000
3.358479 -1.029241 -0.190564 48.000000
3.354353 -1.039245 -0.190499 60.000000
3.353053 -1.050128 -0.190629 53.000000
3.351718 -1.061012 -0.190758 53.000000
3.351299 -1.072203 -0.190952 42.000000
3.347993 -1.082479 -0.190952 60.000000
3.351296 -1.094916 -0.191405 40.000000
3.346974 -1.104879 -0.191341 47.000000
3.344515 -1.115458 -0.191405 54.000000
3.342968 -1.126351 -0.191535 48.000000
3.347999 -1.139497 -0.192117 39.000000
3.347318 -1.150736 -0.192311 51.000000
3.350371 -1.163292 -0.192764 42.000000
3.352436 -1.175547 -0.193152 32.000000
3.353517 -1.187493 -0.193476 29.000000
3.358314 -1.200801 -0.194058 40.000000
3.364000 -1.214488 -0.194705 28.000000
3.362134 -1.225486 -0.194835 29.000000
3.396644 -1.261734 -0.197746 5.000000
3.516928 -0.859162 -0.240545 17.000000
3.504596 -0.867555 -0.239780 20.000000
3.493213 -0.876122 -0.239091 29.000000
3.483744 -0.885119 -0.238555 26.000000
3.470389 -0.893073 -0.237713 30.000000
3.461844 -0.902209 -0.237254 28.000000
3.448454 -0.910030 -0.236412 25.000000
3.445646 -0.920606 -0.236412 44.000000
3.439917 -0.930392 -0.236182 35.000000
3.431276 -0.939364 -0.235723 33.000000
3.422612 -0.948291 -0.235263 48.000000
3.413926 -0.957174 -0.234804 36.000000
3.402339 -0.965197 -0.234115 33.000000
3.400321 -0.975905 -0.234192 30.000000
3.386777 -0.983278 -0.233350 31.000000
3.404793 -0.999838 -0.235034 13.000000
3.375901 -1.002623 -0.232967 23.000000
3.367079 -1.011256 -0.232508 33.000000
3.359190 -1.020134 -0.232125 32.000000
3.360810 -1.031897 -0.232508 37.000000
3.350010 -1.039841 -0.231895 20.000000
3.349658 -1.051008 -0.232125 30.000000
3.347368 -1.061581 -0.232202 43.000000
3.342197 -1.071238 -0.232049 34.000000
3.337946 -1.081179 -0.231972 26.000000
3.338404 -1.092654 -0.232278 37.000000
3.334089 -1.102579 -0.232202 36.000000
3.328799 -1.112171 -0.232049 42.000000
3.331985 -1.124608 -0.232584 34.000000
3.328519 -1.134825 -0.232584 43.000000
3.335393 -1.148599 -0.233426 44.000000
3.345981 -1.163735 -0.234575 31.000000
3.348040 -1.175976 -0.235034 37.000000
3.350996 -1.188573 -0.235570 27.000000
3.360476 -1.203550 -0.236641 25.000000
3.353955 -1.212838 -0.236412 59.000000
3.358648 -1.226197 -0.237101 32.000000
3.395104 -1.251309 -0.240392 12.000000
3.521019 -0.848098 -0.285005 19.000000
3.511628 -0.857243 -0.284384 18.000000
3.496412 -0.864901 -0.283231 29.000000
3.486012 -0.873686 -0.282521 38.000000
3.477523 -0.882906 -0.281989 33.000000
3.467081 -0.891585 -0.281279 22.000000
3.453727 -0.899455 -0.280303 29.000000
3.448062 -0.909284 -0.280037 26.000000
3.450068 -0.921144 -0.280481 21.000000
3.450110 -0.932504 -0.280747 26.000000
3.446272 -0.942822 -0.280658 35.000000
3.440483 -0.952592 -0.280392 30.000000
3.436586 -0.962874 -0.280303 42.000000
3.422116 -0.970152 -0.279238 37.000000
3.408592 -0.977624 -0.278262 21.000000
3.413229 -0.990298 -0.278972 67.000000
3.389149 -0.994592 -0.277020 27.000000
3.387037 -1.005269 -0.277109 36.000000
3.376305 -1.013364 -0.276399 24.000000
3.375086 -1.024297 -0.276577 24.000000
3.368119 -1.033477 -0.276222 31.000000
3.363030 -1.043215 -0.276044 44.000000
3.351260 -1.050845 -0.275246 59.000000
3.347071 -1.060820 -0.275157 24.000000
3.343801 -1.071084 -0.275157 33.000000
3.339551 -1.081031 -0.275069 32.000000
3.332432 -1.090032 -0.274714 24.000000
3.334747 -1.102127 -0.275246 33.000000
3.334184 -1.113299 -0.275512 45.000000
3.330753 -1.123523 -0.275512 32.000000
3.327290 -1.133736 -0.275512 29.000000
3.323796 -1.143939 -0.275512 30.000000
3.328738 -1.157075 -0.276311 29.000000
3.327992 -1.168272 -0.276577 37.000000
3.327209 -1.179475 -0.276843 27.000000
3.338578 -1.195050 -0.278262 20.000000
3.338643 -1.206642 -0.278617 33.000000
3.376095 -1.231907 -0.282521 9.000000
3.376038 -1.243636 -0.282876 12.000000
3.537100 -0.851943 -0.332418 16.000000
3.524804 -0.860434 -0.331406 25.000000
3.514421 -0.869335 -0.330596 21.000000
3.496296 -0.876249 -0.328976 29.000000
3.485876 -0.885015 -0.328166 36.000000
3.473509 -0.893231 -0.327154 31.000000
3.464012 -0.902130 -0.326445 26.000000
3.457380 -0.911740 -0.326040 40.000000
3.457450 -0.923112 -0.326344 32.000000
3.453641 -0.933456 -0.326243 24.000000
3.448842 -0.943522 -0.326040 28.000000
3.445931 -0.954099 -0.326040 29.000000
3.435323 -0.962521 -0.325230 61.000000
3.440012 -0.975225 -0.326040 25.000000
3.439873 -0.986596 -0.326344 29.000000
3.437786 -0.997421 -0.326445 58.000000
3.430890 -1.006844 -0.326040 66.000000
3.424924 -1.016517 -0.325737 41.000000
3.418930 -1.026163 -0.325433 29.000000
3.408149 -1.034338 -0.324623 34.000000
3.400204 -1.043332 -0.324117 35.000000
3.387484 -1.050814 -0.323105 37.000000
3.364307 -1.054957 -0.320979 75.000000
3.362003 -1.065574 -0.321080 26.000000
3.355876 -1.074974 -0.320776 33.000000
3.352562 -1.085265 -0.320776 28.000000
3.344488 -1.094000 -0.320270 29.000000
3.330724 -1.100825 -0.319157 42.000000
3.327332 -1.111039 -0.319157 63.000000
3.316365 -1.118700 -0.318347 49.000000
3.314801 -1.129510 -0.318549 46.000000
3.306616 -1.138057 -0.318043 26.000000
3.312507 -1.151460 -0.319055 33.000000
3.323041 -1.166556 -0.320574 22.000000
3.328824 -1.180066 -0.321586 28.000000
3.342987 -1.196638 -0.323510 35.000000
3.351465 -1.211280 -0.324826 27.000000
3.358014 -1.225304 -0.325939 17.000000
3.369178 -1.241098 -0.327559 13.000000
3.526981 -0.848887 -0.374705 23.000000
3.521464 -0.858997 -0.374366 15.000000
3.514954 -0.868842 -0.373914 16.000000
3.503598 -0.877448 -0.372897 19.000000
3.493185 -0.886238 -0.371993 22.000000
3.478902 -0.893982 -0.370636 41.000000
3.471335 -0.903399 -0.370071 37.000000
3.464704 -0.913031 -0.369619 25.000000
3.461887 -0.923656 -0.369619 38.000000
3.459996 -0.934532 -0.369732 32.000000
3.456154 -0.944881 -0.369619 38.000000
3.450366 -0.954684 -0.369280 32.000000
3.450292 -0.966070 -0.369619 42.000000
3.453047 -0.978276 -0.370297 26.000000
3.457670 -0.991056 -0.371201 23.000000
3.456522 -1.002213 -0.371427 27.000000
3.452478 -1.012533 -0.371314 30.000000
3.476979 -1.031317 -0.374592 69.000000
3.443345 -1.032841 -0.370975 20.000000
3.428751 -1.039939 -0.369619 34.000000
3.422694 -1.049579 -0.369280 20.000000
3.407121 -1.056248 -0.367810 36.000000
3.395331 -1.064021 -0.366793 45.000000
3.385421 -1.072332 -0.366002 45.000000
3.373599 -1.079986 -0.364985 30.000000
3.364598 -1.088495 -0.364307 38.000000
3.352743 -1.096033 -0.363289 47.000000
3.342761 -1.104132 -0.362498 27.000000
3.331818 -1.111865 -0.361594 49.000000
3.327450 -1.121764 -0.361481 59.000000
3.325873 -1.132608 -0.361707 42.000000
3.325202 -1.143777 -0.362046 44.000000
3.325431 -1.155277 -0.362498 40.000000
3.328434 -1.167778 -0.363289 37.000000
3.327645 -1.178979 -0.363628 42.000000
3.347399 -1.197553 -0.366454 19.000000
3.337168 -1.205453 -0.365663 37.000000
3.345588 -1.220112 -0.367132 14.000000
3.343695 -1.231058 -0.367358 18.000000
3.537981 -0.852155 -0.421561 12.000000
3.536314 -0.863240 -0.421687 9.000000
3.519201 -0.870516 -0.419807 18.000000
3.512664 -0.880345 -0.419305 22.000000
3.508024 -0.890630 -0.419055 29.000000
3.494704 -0.898674 -0.417676 37.000000
3.489050 -0.908642 -0.417300 25.000000
3.483368 -0.918584 -0.416924 31.000000
3.475740 -0.927989 -0.416297 18.000000
3.480539 -0.940716 -0.417300 38.000000
3.474766 -0.950605 -0.416924 32.000000
3.470877 -0.960997 -0.416799 28.000000
3.473645 -0.973245 -0.417551 32.000000
3.477324 -0.985789 -0.418428 21.000000
3.486683 -1.000005 -0.420057 24.000000
3.489316 -1.012354 -0.420809 23.000000
3.489050 -1.023891 -0.421185 33.000000
3.482087 -1.033463 -0.420684 36.000000
3.469397 -1.041292 -0.419431 27.000000
3.446247 -1.045887 -0.416799 12.000000
3.417411 -1.048606 -0.413415 38.000000
3.404701 -1.056149 -0.412161 22.000000
3.386297 -1.061845 -0.410156 32.000000
3.369781 -1.068037 -0.408401 39.000000
3.356095 -1.075044 -0.407023 21.000000
