ply
format ascii 1.0
element vertex 1246
property float x
property float y
property float z
property float intensity
end_header
2.948695 -0.943563 0.481144 26.000000
2.944844 -0.952301 0.481001 28.000000
2.944731 -0.962252 0.481430 34.000000
2.945525 -0.972522 0.482002 44.000000
2.933138 -0.978426 0.480572 20.000000
3.035560 -0.176428 0.436025 19.000000
3.033026 -0.185619 0.435763 62.000000
3.035410 -0.195115 0.436156 42.000000
3.030841 -0.204159 0.435631 48.000000
3.032787 -0.232349 0.436156 49.000000
3.033048 -0.241731 0.436287 42.000000
3.032292 -0.251035 0.436287 56.000000
3.029532 -0.260167 0.436025 58.000000
3.027732 -0.269372 0.435894 46.000000
3.027879 -0.278751 0.436025 55.000000
3.023062 -0.287663 0.435500 58.000000
3.021178 -0.296839 0.435369 55.000000
3.021240 -0.306207 0.435500 55.000000
3.020286 -0.315474 0.435500 53.000000
3.015361 -0.324314 0.434976 45.000000
3.012382 -0.333346 0.434714 54.000000
3.011345 -0.342586 0.434714 52.000000
3.013233 -0.352169 0.435107 70.000000
3.019029 -0.362239 0.436025 42.000000
3.016920 -0.371378 0.435894 47.000000
3.017733 -0.380881 0.436156 58.000000
3.017533 -0.390265 0.436287 51.000000
3.019270 -0.399911 0.436680 65.000000
3.012135 -0.408373 0.435894 54.000000
3.004976 -0.416794 0.435107 59.000000
3.000739 -0.425593 0.434714 52.000000
2.996475 -0.434370 0.434321 42.000000
2.992187 -0.443125 0.433928 49.000000
2.996695 -0.453193 0.434714 41.000000
2.993330 -0.462082 0.434452 53.000000
2.991899 -0.471263 0.434452 73.000000
2.991418 -0.480597 0.434583 52.000000
2.990907 -0.489933 0.434714 50.000000
2.986457 -0.498616 0.434321 61.000000
2.984670 -0.526599 0.434714 63.000000
2.985968 -0.536280 0.435107 50.000000
2.985283 -0.545616 0.435238 42.000000
2.987494 -0.555498 0.435763 53.000000
2.989672 -0.565398 0.436287 47.000000
2.991817 -0.575317 0.436811 54.000000
2.991011 -0.584683 0.436942 44.000000
2.989203 -0.593857 0.436942 47.000000
2.993198 -0.604203 0.437728 43.000000
2.993273 -0.613781 0.437990 54.000000
2.985552 -0.621748 0.437204 60.000000
2.981691 -0.630494 0.436942 37.000000
2.976835 -0.639014 0.436549 50.000000
2.976152 -0.696412 0.438121 65.000000
2.974966 -0.705768 0.438252 43.000000
2.976642 -0.715820 0.438777 52.000000
2.969616 -0.723774 0.438121 54.000000
2.967381 -0.732881 0.438121 35.000000
2.960311 -0.740778 0.437466 48.000000
2.959946 -0.750344 0.437728 40.000000
2.960510 -0.760161 0.438121 60.000000
2.962002 -0.770239 0.438646 48.000000
2.961542 -0.779828 0.438908 42.000000
2.966799 -0.790954 0.439956 50.000000
2.966273 -0.800569 0.440218 48.000000
2.971453 -0.811757 0.441266 39.000000
2.974682 -0.822455 0.442053 40.000000
2.972144 -0.831578 0.442053 37.000000
2.970533 -0.840962 0.442184 32.000000
2.969845 -0.850618 0.442446 38.000000
2.965317 -0.859173 0.442184 45.000000
2.961716 -0.867988 0.442053 37.000000
2.956187 -0.876225 0.441660 49.000000
2.958233 -0.886714 0.442315 44.000000
2.959294 -0.896936 0.442839 42.000000
2.961267 -0.907464 0.443494 29.000000
2.954682 -0.915370 0.442970 31.000000
2.952806 -0.924727 0.443101 26.000000
2.953735 -0.934979 0.443625 41.000000
2.945187 -0.942224 0.442839 33.000000
2.929077 -0.946984 0.441004 16.000000
2.925216 -0.955657 0.440873 7.000000
3.032207 -0.138627 0.397851 12.000000
3.047636 -0.148697 0.399753 32.000000
3.048156 -0.158097 0.399872 34.000000
3.042700 -0.167178 0.399278 38.000000
3.044155 -0.176626 0.399516 28.000000
3.044590 -0.186025 0.399634 33.000000
3.037069 -0.194922 0.398802 41.000000
3.026528 -0.231574 0.397851 50.000000
3.025803 -0.240858 0.397851 45.000000
3.024060 -0.250059 0.397732 43.000000
3.022290 -0.259251 0.397613 46.000000
3.024447 -0.268784 0.397969 44.000000
3.021631 -0.277881 0.397732 48.000000
3.022741 -0.287337 0.397969 54.000000
3.021845 -0.296609 0.397969 72.000000
3.017957 -0.305580 0.397613 66.000000
3.016018 -0.314734 0.397494 58.000000
3.013064 -0.323775 0.397256 51.000000
3.008108 -0.332582 0.396780 62.000000
3.007074 -0.341809 0.396780 66.000000
3.020945 -0.399830 0.399278 52.000000
3.015768 -0.408564 0.398802 42.000000
3.018435 -0.418358 0.399278 53.000000
3.017137 -0.427617 0.399278 63.000000
3.011880 -0.436303 0.398802 48.000000
3.011510 -0.445686 0.398921 52.000000
3.010128 -0.454924 0.398921 40.000000
3.007737 -0.464005 0.398802 57.000000
3.008261 -0.473539 0.399040 53.000000
3.001892 -0.481981 0.398445 42.000000
2.998439 -0.490868 0.398207 46.000000
2.999858 -0.500554 0.398564 57.000000
2.998307 -0.509755 0.398564 53.000000
2.993794 -0.518444 0.398207 60.000000
2.995124 -0.528143 0.398564 47.000000
2.994467 -0.537504 0.398683 62.000000
2.994757 -0.547045 0.398921 44.000000
2.993065 -0.556230 0.398921 38.000000
2.988417 -0.564858 0.398564 68.000000
2.988620 -0.574397 0.398802 51.000000
2.988793 -0.583944 0.399040 52.000000
2.985039 -0.592724 0.398802 49.000000
2.984180 -0.602076 0.398921 35.000000
2.982319 -0.611228 0.398921 53.000000
2.983346 -0.620981 0.399278 43.000000
2.978513 -0.629516 0.398921 38.000000
2.973655 -0.638027 0.398564 40.000000
2.971683 -0.647147 0.398564 54.000000
2.972592 -0.656902 0.398921 53.000000
2.976377 -0.667320 0.399634 42.000000
2.976252 -0.676888 0.399872 50.000000
2.974161 -0.686016 0.399872 52.000000
2.974943 -0.695815 0.400229 47.000000
2.973761 -0.705167 0.400348 51.000000
2.972549 -0.714519 0.400467 47.000000
2.965518 -0.722462 0.399872 53.000000
2.963288 -0.731557 0.399872 44.000000
2.958140 -0.739923 0.399516 44.000000
2.956819 -0.749238 0.399634 46.000000
2.958353 -0.759292 0.400110 59.000000
2.956971 -0.768614 0.400229 46.000000
2.958440 -0.778692 0.400705 41.000000
2.958916 -0.788530 0.401062 40.000000
2.959359 -0.798379 0.401418 46.000000
2.961685 -0.808761 0.402013 53.000000
2.962061 -0.818635 0.402370 56.000000
2.957623 -0.827185 0.402132 54.000000
2.951250 -0.835175 0.401656 46.000000
2.946764 -0.843679 0.401418 44.000000
2.946070 -0.853268 0.401656 38.000000
2.942485 -0.862023 0.401537 40.000000
2.943635 -0.872173 0.402013 33.000000
2.949507 -0.883762 0.403083 35.000000
2.952483 -0.894532 0.403797 42.000000
2.952574 -0.904457 0.404154 36.000000
2.952630 -0.914391 0.404510 30.000000
3.049515 -0.111071 0.362214 15.000000
3.044193 -0.120229 0.361680 41.000000
3.042816 -0.129525 0.361574 33.000000
3.050351 -0.139224 0.362428 45.000000
3.050903 -0.148630 0.362535 39.000000
3.049439 -0.157938 0.362428 45.000000
3.046954 -0.167183 0.362214 48.000000
3.046427 -0.176531 0.362214 64.000000
3.044879 -0.185815 0.362108 53.000000
3.045287 -0.195220 0.362214 55.000000
3.040705 -0.204295 0.361787 53.000000
3.040386 -0.223021 0.361894 54.000000
3.043653 -0.232651 0.362321 50.000000
3.038960 -0.241672 0.361894 52.000000
3.035232 -0.250749 0.361574 66.000000
3.036430 -0.260229 0.361787 52.000000
3.031656 -0.269191 0.361360 62.000000
3.029825 -0.278400 0.361253 54.000000
3.031926 -0.287977 0.361574 54.000000
3.030039 -0.297180 0.361467 74.000000
3.030103 -0.306575 0.361574 70.000000
3.029148 -0.315870 0.361574 57.000000
3.023221 -0.324630 0.361040 64.000000
3.024188 -0.334122 0.361253 62.000000
3.023148 -0.343399 0.361253 52.000000
3.023068 -0.352787 0.361360 66.000000
3.020984 -0.361942 0.361253 59.000000
3.024794 -0.371816 0.361787 60.000000
3.024626 -0.381218 0.361894 61.000000
3.023442 -0.390496 0.361894 57.000000
3.022230 -0.399770 0.361894 61.000000
3.021974 -0.409174 0.362001 61.000000
3.022674 -0.418716 0.362214 53.000000
3.020391 -0.427848 0.362108 78.000000
3.012176 -0.436114 0.361360 49.000000
3.012791 -0.445644 0.361574 60.000000
3.012393 -0.455034 0.361680 64.000000
3.010983 -0.464274 0.361680 63.000000
3.011508 -0.473819 0.361894 53.000000
3.008077 -0.482740 0.361680 45.000000
3.007563 -0.492127 0.361787 59.000000
2.999660 -0.538203 0.361787 57.000000
2.999951 -0.547761 0.362001 61.000000
2.997279 -0.556780 0.361894 61.000000
2.993603 -0.565604 0.361680 50.000000
2.998688 -0.576099 0.362428 48.000000
2.995931 -0.585106 0.362321 44.000000
2.994122 -0.594294 0.362321 45.000000
2.991310 -0.603281 0.362214 59.000000
2.991393 -0.612854 0.362428 47.000000
2.992419 -0.622637 0.362748 48.000000
2.987576 -0.631198 0.362428 50.000000
2.983682 -0.639943 0.362214 47.000000
2.990759 -0.699284 0.364350 64.000000
2.988600 -0.708457 0.364350 57.000000
2.982546 -0.716693 0.363923 53.000000
2.977435 -0.725133 0.363603 45.000000
2.974231 -0.734026 0.363496 53.000000
2.973894 -0.743630 0.363709 50.000000
2.968707 -0.752018 0.363389 51.000000
2.964460 -0.760627 0.363175 47.000000
2.966924 -0.770970 0.363709 38.000000
2.970314 -0.781587 0.364350 37.000000
2.964059 -0.789672 0.363923 48.000000
2.959702 -0.798244 0.363709 50.000000
2.956280 -0.807058 0.363603 55.000000
2.957624 -0.817184 0.364030 45.000000
2.961805 -0.828129 0.364777 41.000000
2.958294 -0.836941 0.364670 50.000000
2.955712 -0.846013 0.364670 35.000000
2.956923 -0.856184 0.365098 52.000000
2.961916 -0.867488 0.365952 30.000000
2.956380 -0.875723 0.365631 46.000000
2.950823 -0.883933 0.365311 25.000000
3.047038 -0.083664 0.325499 25.000000
3.053732 -0.093222 0.326163 38.000000
3.050447 -0.102491 0.325878 64.000000
3.049123 -0.111813 0.325783 52.000000
3.045782 -0.121049 0.325499 46.000000
3.040423 -0.130182 0.325024 63.000000
3.041004 -0.139555 0.325119 59.000000
3.037579 -0.148739 0.324834 60.000000
3.036114 -0.158006 0.324739 61.000000
3.033627 -0.167211 0.324549 74.000000
3.030118 -0.176345 0.324264 52.000000
3.028569 -0.185580 0.324169 59.000000
3.028979 -0.194934 0.324264 52.000000
3.034299 -0.232695 0.325024 42.000000
3.031587 -0.241846 0.324834 55.000000
3.032815 -0.251309 0.325024 46.000000
3.030046 -0.260443 0.324834 53.000000
3.026257 -0.269474 0.324549 61.000000
3.024426 -0.278666 0.324454 70.000000
3.020583 -0.287662 0.324169 56.000000
3.022658 -0.297218 0.324454 68.000000
3.024704 -0.306791 0.324739 62.000000
3.020778 -0.315759 0.324454 67.000000
3.022764 -0.325344 0.324739 68.000000
3.022741 -0.334725 0.324834 64.000000
3.019722 -0.343773 0.324644 68.000000
3.003014 -0.397994 0.323694 45.000000
3.009670 -0.408273 0.324454 68.000000
3.009390 -0.417641 0.324549 57.000000
3.007109 -0.426732 0.324454 62.000000
3.002830 -0.435528 0.324169 73.000000
2.997540 -0.444156 0.323789 59.000000
2.998132 -0.453648 0.323979 49.000000
2.994758 -0.462541 0.323789 58.000000
2.990375 -0.471262 0.323504 55.000000
2.986949 -0.480119 0.323314 61.000000
2.984480 -0.489120 0.323219 48.000000
2.983947 -0.498438 0.323314 49.000000
2.988292 -0.508590 0.323884 48.000000
2.989661 -0.518265 0.324169 52.000000
2.991978 -0.528125 0.324549 54.000000
2.998183 -0.538707 0.325309 54.000000
3.000433 -0.548618 0.325689 59.000000
3.002651 -0.558547 0.326068 65.000000
3.002880 -0.568126 0.326258 50.000000
3.000145 -0.577148 0.326163 38.000000
2.995429 -0.585778 0.325878 42.000000
2.992641 -0.594771 0.325783 46.000000
2.985923 -0.602966 0.325309 60.000000
2.985035 -0.612324 0.325404 50.000000
2.981193 -0.621073 0.325214 51.000000
2.977325 -0.629805 0.325024 54.000000
2.977326 -0.639354 0.325214 52.000000
2.982159 -0.649967 0.325878 40.000000
2.981123 -0.659327 0.325973 59.000000
2.979087 -0.668470 0.325973 51.000000
2.977022 -0.677607 0.325973 43.000000
2.979779 -0.687855 0.326448 73.000000
2.977654 -0.696993 0.326448 52.000000
2.977440 -0.706584 0.326638 57.000000
2.974290 -0.715483 0.326543 41.000000
2.973048 -0.724840 0.326638 44.000000
2.974676 -0.734911 0.327018 51.000000
2.974339 -0.744517 0.327208 42.000000
2.966251 -0.752173 0.326638 56.000000
2.966822 -0.762011 0.326923 65.000000
2.968325 -0.772111 0.327303 45.000000
2.966905 -0.781467 0.327398 46.000000
2.965455 -0.790822 0.327493 42.000000
2.958209 -0.798620 0.327018 38.000000
2.957666 -0.808216 0.327208 30.000000
2.964768 -0.819936 0.328158 38.000000
2.965115 -0.829832 0.328443 29.000000
2.961597 -0.838654 0.328348 28.000000
2.961881 -0.848558 0.328633 38.000000
2.985082 -0.865113 0.331197 8.000000
2.980503 -0.873707 0.331007 7.000000
3.041162 -0.054741 0.286546 20.000000
3.061904 -0.064514 0.288277 40.000000
3.059699 -0.073860 0.288112 43.000000
3.059458 -0.083246 0.288112 47.000000
3.058192 -0.092602 0.288030 58.000000
3.053909 -0.101850 0.287700 52.000000
3.052587 -0.111183 0.287618 58.000000
3.054223 -0.120626 0.287782 58.000000
3.051847 -0.129911 0.287618 50.000000
3.052430 -0.139319 0.287700 57.000000
3.049997 -0.148586 0.287535 61.000000
3.047536 -0.157839 0.287370 56.000000
3.047038 -0.167188 0.287370 62.000000
3.045516 -0.176478 0.287288 50.000000
3.042971 -0.185699 0.287123 71.000000
3.040397 -0.194906 0.286958 55.000000
3.036802 -0.204032 0.286711 67.000000
3.038475 -0.222880 0.286958 65.000000
3.041751 -0.232506 0.287288 68.000000
3.040030 -0.241757 0.287205 66.000000
3.040267 -0.251165 0.287288 73.000000
3.039483 -0.260491 0.287288 62.000000
3.037677 -0.269727 0.287205 72.000000
3.037827 -0.279136 0.287288 65.000000
3.035964 -0.288361 0.287205 80.000000
3.034073 -0.297576 0.287123 68.000000
3.031163 -0.306682 0.286958 83.000000
3.031199 -0.316084 0.287040 84.000000
3.030215 -0.325382 0.287040 79.000000
3.028212 -0.334567 0.286958 92.000000
3.027172 -0.343856 0.286958 83.000000
3.023133 -0.352795 0.286711 96.000000
3.019067 -0.361712 0.286463 79.000000
3.019922 -0.371216 0.286628 87.000000
3.018769 -0.380479 0.286628 89.000000
3.018576 -0.389867 0.286711 84.000000
3.020329 -0.399518 0.286958 73.000000
3.019089 -0.408783 0.286958 79.000000
3.019795 -0.418317 0.287123 69.000000
3.022445 -0.428139 0.287453 66.000000
3.021117 -0.437410 0.287453 64.000000
3.018775 -0.446530 0.287370 83.000000
3.023303 -0.456684 0.287865 50.000000
3.013023 -0.464589 0.287123 67.000000
3.006661 -0.473055 0.286711 56.000000
3.006180 -0.482436 0.286793 47.000000
2.999768 -0.490851 0.286381 58.000000
3.004315 -0.529530 0.287288 61.000000
3.007581 -0.539625 0.287700 55.000000
3.010813 -0.549745 0.288112 42.000000
3.011072 -0.559344 0.288277 53.000000
3.011300 -0.568950 0.288442 42.000000
3.008561 -0.577997 0.288360 67.000000
3.001884 -0.586269 0.287947 53.000000
2.999094 -0.595282 0.287865 49.000000
2.992368 -0.603494 0.287453 58.000000
2.985621 -0.611671 0.287040 55.000000
2.985682 -0.621234 0.287205 52.000000
2.982787 -0.630185 0.287123 53.000000
2.984737 -0.640170 0.287453 72.000000
2.975359 -0.695682 0.287700 43.000000
2.973211 -0.704807 0.287700 40.000000
2.973942 -0.714624 0.287947 45.000000
2.971735 -0.723745 0.287947 43.000000
2.966599 -0.732141 0.287700 46.000000
2.969172 -0.742449 0.288112 52.000000
2.968812 -0.752044 0.288277 47.000000
2.966491 -0.761149 0.288277 48.000000
2.963178 -0.769996 0.288195 43.000000
2.965620 -0.780352 0.288607 34.000000
2.965138 -0.789960 0.288772 46.000000
2.962701 -0.799053 0.288772 37.000000
2.962158 -0.808664 0.288937 39.000000
2.956781 -0.816951 0.288690 41.000000
3.038024 -0.047176 0.250193 21.000000
3.056814 -0.056841 0.251535 34.000000
3.058620 -0.066261 0.251677 36.000000
3.053416 -0.075523 0.251324 49.000000
3.054168 -0.084918 0.251394 43.000000
3.047910 -0.094105 0.250970 43.000000
3.044616 -0.103355 0.250758 44.000000
3.047275 -0.112805 0.250970 54.000000
3.048909 -0.122233 0.251112 51.000000
3.047522 -0.131544 0.251041 45.000000
3.049097 -0.140984 0.251182 61.000000
3.045662 -0.150192 0.250970 48.000000
3.044190 -0.159483 0.250900 54.000000
3.040699 -0.168657 0.250688 56.000000
3.035188 -0.177695 0.250335 53.000000
3.036620 -0.187128 0.250476 73.000000
3.034041 -0.196316 0.250335 48.000000
3.027452 -0.205221 0.249911 73.000000
3.034387 -0.233762 0.250547 63.000000
3.035644 -0.243229 0.250688 38.000000
3.032895 -0.252376 0.250547 73.000000
3.035088 -0.261936 0.250758 51.000000
3.035264 -0.271335 0.250829 77.000000
3.032431 -0.280463 0.250688 84.000000
3.029570 -0.289575 0.250547 107.000000
3.025689 -0.298576 0.250335 105.000000
3.020789 -0.307455 0.250052 83.000000
3.015863 -0.316306 0.249770 84.000000
3.016862 -0.325771 0.249911 99.000000
3.014857 -0.334915 0.249840 95.000000
3.015798 -0.344389 0.249982 99.000000
3.011149 -0.390736 0.250052 110.000000
3.007959 -0.399710 0.249911 73.000000
3.006718 -0.408937 0.249911 69.000000
3.001498 -0.417611 0.249628 73.000000
3.000202 -0.426817 0.249628 82.000000
3.000853 -0.436306 0.249770 86.000000
2.997527 -0.445218 0.249628 78.000000
2.998119 -0.454711 0.249770 81.000000
2.998682 -0.464211 0.249911 79.000000
2.997243 -0.473409 0.249911 73.000000
2.997746 -0.482919 0.250052 83.000000
2.997236 -0.492274 0.250123 80.000000
2.994727 -0.501303 0.250052 62.000000
2.992192 -0.510321 0.249982 53.000000
2.992578 -0.519839 0.250123 54.000000
2.992933 -0.529365 0.250264 59.000000
2.992277 -0.538721 0.250335 60.000000
2.994535 -0.548616 0.250617 51.000000
2.992838 -0.557801 0.250617 61.000000
2.994053 -0.567536 0.250829 40.000000
2.995236 -0.577284 0.251041 57.000000
2.992472 -0.586279 0.250970 41.000000
2.993594 -0.596041 0.251182 49.000000
2.988819 -0.604630 0.250970 48.000000
2.981086 -0.612594 0.250547 50.000000
2.979193 -0.621737 0.250547 59.000000
2.979223 -0.631287 0.250688 42.000000
2.974347 -0.639796 0.250476 45.000000
2.973344 -0.649130 0.250547 47.000000
2.973287 -0.658680 0.250688 58.000000
2.970279 -0.667581 0.250617 37.000000
2.972107 -0.677576 0.250900 43.000000
2.969043 -0.686466 0.250829 54.000000
2.965951 -0.695345 0.250758 45.000000
2.971568 -0.706283 0.251324 50.000000
2.976177 -0.717029 0.251818 48.000000
2.972994 -0.725920 0.251747 55.000000
2.972689 -0.735517 0.251889 37.000000
2.978160 -0.746571 0.252454 30.000000
2.981657 -0.757175 0.252877 38.000000
2.979320 -0.766319 0.252877 39.000000
2.984678 -0.777464 0.253442 32.000000
2.964916 -0.782045 0.252171 44.000000
2.985635 -0.797305 0.253866 36.000000
3.355869 -0.907064 0.281199 16.000000
3.069678 -0.084059 0.213937 13.000000
3.051444 -0.092927 0.212891 48.000000
3.054138 -0.102389 0.213065 42.000000
3.056802 -0.111868 0.213240 44.000000
3.052455 -0.121087 0.213007 46.000000
3.052068 -0.130451 0.213007 38.000000
3.054646 -0.139952 0.213182 53.000000
3.052208 -0.149225 0.213065 45.000000
3.053730 -0.158692 0.213182 54.000000
3.047248 -0.167730 0.212833 51.000000
3.038746 -0.176614 0.212368 61.000000
3.035200 -0.185752 0.212194 74.000000
3.033620 -0.194999 0.212136 68.000000
3.031015 -0.204171 0.212020 78.000000
3.035679 -0.223205 0.212368 93.000000
3.034980 -0.232517 0.212368 84.000000
3.036243 -0.241986 0.212485 76.000000
3.032501 -0.251053 0.212310 84.000000
3.025749 -0.259842 0.211962 94.000000
3.022949 -0.268946 0.211846 100.000000
3.019127 -0.277944 0.211671 103.000000
3.018260 -0.287206 0.211671 115.000000
3.019352 -0.296660 0.211788 105.000000
3.021407 -0.306224 0.211962 123.000000
3.022439 -0.315700 0.212078 108.000000
3.031382 -0.326040 0.212659 166.000000
3.028383 -0.335118 0.212543 138.000000
3.033292 -0.345086 0.212891 192.000000
3.032219 -0.354390 0.212891 184.000000
3.033100 -0.363929 0.213007 185.000000
3.032960 -0.373355 0.213065 196.000000
3.035762 -0.383159 0.213298 170.000000
3.038533 -0.392983 0.213530 182.000000
3.039292 -0.402566 0.213646 178.000000
3.029140 -0.410680 0.213124 151.000000
3.022921 -0.419285 0.212833 138.000000
3.012725 -0.427295 0.212310 120.000000
3.010412 -0.436392 0.212252 116.000000
3.003134 -0.444748 0.211904 101.000000
3.001755 -0.453959 0.211904 133.000000
3.001335 -0.463319 0.211962 102.000000
3.004830 -0.473302 0.212252 97.000000
3.010263 -0.483627 0.212659 81.000000
3.011721 -0.493345 0.212833 82.000000
3.003474 -0.529919 0.212717 84.000000
2.998886 -0.538601 0.212543 59.000000
2.994273 -0.547261 0.212368 75.000000
3.000432 -0.557905 0.212833 58.000000
2.995764 -0.566551 0.212659 39.000000
2.999894 -0.576871 0.213007 66.000000
3.000069 -0.586455 0.213124 47.000000
2.996297 -0.595267 0.213007 70.000000
2.997393 -0.605050 0.213182 55.000000
2.992589 -0.613641 0.213007 51.000000
2.986783 -0.622005 0.212775 71.000000
2.989744 -0.632198 0.213065 69.000000
2.985838 -0.640948 0.212949 57.000000
2.979366 -0.697165 0.213298 47.000000
2.982070 -0.707455 0.213588 52.000000
2.976003 -0.715666 0.213356 49.000000
2.977673 -0.725739 0.213588 47.000000
2.982217 -0.736548 0.213995 54.000000
2.972196 -0.743754 0.213530 53.000000
3.006671 -0.762195 0.215737 47.000000
3.137753 -0.805695 0.223753 20.000000
3.339123 -0.868357 0.236010 21.000000
3.386643 -0.891822 0.239030 32.000000
3.372316 -0.899120 0.238333 27.000000
3.430260 -0.925858 0.241993 29.000000
3.040862 -0.131788 0.176326 23.000000
3.063394 -0.142173 0.177390 32.000000
3.063941 -0.151619 0.177436 34.000000
3.058473 -0.160758 0.177205 52.000000
3.054974 -0.169975 0.177066 50.000000
3.053440 -0.179289 0.177020 52.000000
3.051879 -0.188595 0.176974 44.000000
3.060258 -0.198536 0.177390 24.000000
3.036675 -0.234468 0.176419 64.000000
3.036937 -0.243863 0.176465 54.000000
3.031198 -0.252766 0.176234 92.000000
3.027422 -0.261807 0.176095 90.000000
3.044514 -0.272691 0.176928 55.000000
3.020785 -0.279919 0.175864 88.000000
3.016929 -0.288901 0.175725 115.000000
3.024975 -0.299036 0.176142 151.000000
3.029013 -0.308820 0.176373 156.000000
3.031032 -0.318423 0.176511 185.000000
3.033020 -0.328042 0.176650 199.000000
3.034978 -0.337676 0.176789 154.000000
3.034920 -0.347099 0.176835 185.000000
3.029872 -0.355943 0.176650 232.000000
3.020522 -0.383063 0.176373 281.000000
3.019332 -0.392328 0.176373 267.000000
3.012173 -0.400801 0.176095 110.000000
3.017858 -0.410981 0.176419 196.000000
3.011636 -0.419550 0.176188 165.000000
3.002422 -0.427664 0.175818 147.000000
3.003073 -0.437160 0.175910 156.000000
2.996777 -0.445639 0.175679 113.000000
2.995396 -0.454831 0.175679 107.000000
2.996948 -0.464476 0.175818 94.000000
2.999456 -0.474291 0.176003 89.000000
3.002918 -0.484284 0.176234 85.000000
3.002404 -0.493657 0.176280 69.000000
3.003831 -0.503360 0.176419 67.000000
3.001288 -0.512405 0.176373 71.000000
2.999702 -0.521611 0.176373 68.000000
3.000055 -0.531159 0.176465 59.000000
2.996444 -0.540007 0.176373 62.000000
2.994774 -0.549197 0.176373 57.000000
2.997003 -0.559114 0.176558 57.000000
2.990366 -0.567376 0.176326 51.000000
2.989592 -0.576737 0.176373 54.000000
2.987809 -0.585906 0.176373 52.000000
2.985018 -0.594875 0.176326 51.000000
2.987095 -0.604822 0.176511 65.000000
2.985225 -0.613983 0.176511 44.000000
2.985283 -0.623546 0.176604 51.000000
2.992152 -0.634564 0.177020 53.000000
2.992144 -0.644161 0.177112 62.000000
2.993082 -0.653976 0.177251 67.000000
2.993012 -0.663587 0.177344 59.000000
2.985114 -0.671453 0.177066 45.000000
2.988884 -0.681940 0.177344 48.000000
2.993591 -0.692680 0.177667 36.000000
2.998260 -0.703455 0.177991 38.000000
3.016498 -0.717497 0.178962 36.000000
3.026908 -0.729787 0.179563 41.000000
3.050857 -0.745463 0.180811 34.000000
3.251231 -0.804922 0.190474 18.000000
3.310762 -0.830425 0.193433 24.000000
3.381786 -0.859249 0.196947 31.000000
3.402354 -0.875588 0.198057 29.000000
3.428653 -0.893570 0.199444 23.000000
3.443283 -0.908667 0.200276 21.000000
3.446270 -0.920772 0.200553 27.000000
3.456930 -0.934988 0.201201 22.000000
3.448264 -0.944008 0.200923 8.000000
2.964276 -0.154548 0.136188 5.000000
3.001185 -0.174949 0.137474 21.000000
3.048517 -0.187100 0.139099 51.000000
3.036957 -0.195744 0.138727 43.000000
3.038337 -0.205195 0.138795 53.000000
3.041007 -0.224128 0.138930 59.000000
3.040306 -0.233457 0.138930 67.000000
3.038579 -0.242704 0.138896 38.000000
3.039812 -0.252190 0.138964 58.000000
3.038028 -0.261429 0.138930 77.000000
3.037212 -0.270749 0.138930 80.000000
3.034376 -0.279882 0.138862 105.000000
3.041463 -0.289949 0.139133 208.000000
3.030613 -0.298299 0.138795 168.000000
3.030678 -0.307696 0.138829 160.000000
3.038665 -0.317930 0.139133 237.000000
3.037676 -0.327251 0.139133 232.000000
3.040630 -0.337010 0.139269 196.000000
3.038589 -0.346223 0.139235 228.000000
3.035527 -0.355311 0.139167 262.000000
3.033431 -0.364503 0.139133 264.000000
3.033290 -0.373930 0.139167 265.000000
3.028163 -0.382733 0.139032 228.000000
3.024992 -0.391764 0.138964 180.000000
3.022785 -0.400911 0.138930 169.000000
3.026492 -0.410856 0.139099 150.000000
3.020268 -0.419451 0.138930 186.000000
3.018967 -0.428715 0.138930 207.000000
3.017637 -0.437975 0.138930 225.000000
3.018257 -0.447525 0.138998 224.000000
3.017858 -0.456932 0.139032 228.000000
3.019405 -0.466647 0.139133 190.000000
3.015985 -0.475597 0.139066 160.000000
3.007604 -0.483736 0.138829 109.000000
3.002161 -0.492313 0.138693 103.000000
3.001622 -0.501686 0.138727 100.000000
2.999830 -0.529813 0.138829 81.000000
2.998191 -0.539014 0.138829 68.000000
2.998489 -0.548570 0.138896 72.000000
2.997775 -0.557949 0.138930 75.000000
2.998994 -0.567702 0.139032 60.000000
2.995276 -0.576522 0.138964 56.000000
2.992512 -0.585516 0.138930 63.000000
2.989722 -0.594499 0.138896 52.000000
2.986904 -0.603471 0.138862 59.000000
2.984060 -0.612431 0.138829 55.000000
2.980210 -0.621175 0.138761 56.000000
2.985134 -0.631764 0.138998 46.000000
2.984159 -0.641130 0.139032 43.000000
3.243911 -0.770203 0.148578 25.000000
3.319265 -0.798869 0.151286 37.000000
3.361461 -0.819949 0.152844 38.000000
3.379304 -0.835296 0.153555 45.000000
3.385451 -0.847846 0.153859 45.000000
3.396396 -0.861671 0.154333 34.000000
3.408255 -0.875819 0.154841 24.000000
3.421027 -0.890300 0.155383 23.000000
3.433742 -0.904868 0.155924 26.000000
3.449297 -0.920296 0.156568 24.000000
3.465754 -0.936088 0.157245 14.000000
3.496606 -0.955945 0.158429 9.000000
3.038285 -0.233530 0.101798 44.000000
3.035561 -0.242692 0.101755 55.000000
3.032809 -0.251839 0.101711 51.000000
3.032023 -0.261142 0.101711 59.000000
3.032203 -0.270532 0.101733 54.000000
3.032354 -0.279925 0.101755 54.000000
3.024514 -0.288564 0.101603 78.000000
3.021625 -0.297647 0.101560 105.000000
3.012740 -0.306110 0.101387 132.000000
3.011787 -0.315352 0.101387 149.000000
3.026710 -0.326299 0.101733 455.000000
3.025695 -0.335583 0.101733 462.000000
3.036571 -0.346219 0.101993 785.000000
3.067272 -0.359243 0.102685 1813.000000
3.081045 -0.370436 0.103010 2391.000000
3.067986 -0.378422 0.102750 2181.000000
3.064827 -0.387583 0.102707 1835.000000
3.042802 -0.394294 0.102252 1415.000000
3.017791 -0.400480 0.101733 868.000000
3.023483 -0.410675 0.101884 304.000000
3.019238 -0.419538 0.101820 259.000000
3.014966 -0.428378 0.101755 183.000000
3.018585 -0.438342 0.101863 213.000000
3.017226 -0.447601 0.101863 210.000000
3.017816 -0.457154 0.101906 190.000000
3.017387 -0.466563 0.101928 198.000000
3.017917 -0.476129 0.101971 124.000000
3.012494 -0.484752 0.101884 93.000000
3.007046 -0.493346 0.101798 75.000000
3.005518 -0.502569 0.101798 69.000000
3.003962 -0.511787 0.101798 49.000000
2.996467 -0.519978 0.101668 81.000000
3.011596 -0.532119 0.102036 42.000000
2.996172 -0.538884 0.101733 64.000000
2.998439 -0.548792 0.101820 57.000000
2.995758 -0.557805 0.101798 69.000000
2.996980 -0.567551 0.101863 58.000000
2.994243 -0.576554 0.101841 49.000000
2.990497 -0.585354 0.101798 47.000000
2.990649 -0.594915 0.101841 63.000000
2.981949 -0.602704 0.101690 36.000000
2.977148 -0.611248 0.101625 30.000000
2.983089 -0.622008 0.101798 54.000000
2.984101 -0.631777 0.101863 55.000000
3.013430 -0.647640 0.102555 28.000000
3.023151 -0.659434 0.102815 38.000000
3.043567 -0.673667 0.103313 41.000000
3.195623 -0.717554 0.106732 18.000000
3.263598 -0.743316 0.108290 38.000000
3.310012 -0.764558 0.109372 45.000000
3.339776 -0.782222 0.110086 70.000000
3.336388 -0.792234 0.110065 62.000000
3.346579 -0.805503 0.110346 33.000000
3.354777 -0.818370 0.110584 29.000000
3.363898 -0.831533 0.110844 28.000000
3.364241 -0.842577 0.110908 40.000000
3.376177 -0.856578 0.111233 36.000000
3.390964 -0.871405 0.111623 34.000000
3.411498 -0.887839 0.112142 21.000000
3.430995 -0.904154 0.112640 16.000000
3.420477 -0.912616 0.112467 21.000000
3.411869 -0.921544 0.112337 25.000000
3.391666 -0.927267 0.111947 12.000000
3.357968 -0.929147 0.111255 9.000000
3.039144 -0.243280 0.064237 25.000000
3.037387 -0.252520 0.064228 33.000000
3.045564 -0.262611 0.064311 51.000000
3.041756 -0.271687 0.064284 53.000000
3.039912 -0.280925 0.064274 37.000000
3.038041 -0.290155 0.064265 66.000000
3.037136 -0.299474 0.064265 88.000000
3.026255 -0.307777 0.064173 59.000000
3.020324 -0.316539 0.064126 47.000000
3.017350 -0.325589 0.064108 56.000000
3.014350 -0.334623 0.064089 79.000000
3.043114 -0.347275 0.064367 344.000000
3.028130 -0.354978 0.064237 610.000000
3.046882 -0.366658 0.064422 322.000000
3.021925 -0.373061 0.064200 497.000000
3.020766 -0.382330 0.064200 512.000000
3.035445 -0.393655 0.064348 320.000000
3.023320 -0.401517 0.064247 209.000000
3.020092 -0.410521 0.064228 175.000000
3.019809 -0.419922 0.064237 176.000000
3.022466 -0.429748 0.064274 213.000000
3.022123 -0.439163 0.064284 241.000000
3.018783 -0.448139 0.064265 256.000000
3.019372 -0.457698 0.064284 229.000000
3.016965 -0.466806 0.064274 186.000000
3.013543 -0.475748 0.064256 184.000000
3.013057 -0.485150 0.064265 154.000000
3.004647 -0.493257 0.064200 92.000000
3.006078 -0.502968 0.064228 91.000000
3.008214 -0.531833 0.064293 71.000000
3.004601 -0.540706 0.064274 78.000000
3.001944 -0.549741 0.064265 56.000000
3.001226 -0.559131 0.064274 57.000000
2.998514 -0.568150 0.064265 75.000000
2.995775 -0.577157 0.064256 49.000000
2.997916 -0.587115 0.064293 57.000000
2.999043 -0.596895 0.064321 54.000000
3.006998 -0.608077 0.064413 50.000000
3.017851 -0.619917 0.064533 49.000000
3.036491 -0.633463 0.064728 42.000000
3.059968 -0.648167 0.064968 47.000000
3.181140 -0.684054 0.066134 21.000000
3.297235 -0.719624 0.067253 49.000000
3.329182 -0.737308 0.067577 59.000000
3.337636 -0.749931 0.067678 64.000000
3.333370 -0.759723 0.067660 41.000000
3.340766 -0.772199 0.067752 43.000000
3.342275 -0.783358 0.067789 79.000000
3.342775 -0.794302 0.067817 59.000000
3.347127 -0.806193 0.067882 49.000000
3.359209 -0.820017 0.068021 39.000000
3.358619 -0.830800 0.068039 51.000000
3.365753 -0.843532 0.068132 61.000000
3.374779 -0.856808 0.068243 44.000000
3.391503 -0.872141 0.068428 34.000000
3.398488 -0.885063 0.068520 38.000000
3.412194 -0.899822 0.068677 23.000000
3.416180 -0.912092 0.068742 33.000000
3.421088 -0.924657 0.068816 30.000000
3.425951 -0.937260 0.068890 38.000000
3.395113 -0.940025 0.068622 17.000000
2.980645 -0.312103 0.026294 24.000000
3.025410 -0.326159 0.026141 52.000000
3.023401 -0.335330 0.026145 48.000000
3.022358 -0.344604 0.026145 54.000000
3.015725 -0.390795 0.026148 87.000000
3.019469 -0.400702 0.026132 91.000000
3.020207 -0.410232 0.026125 86.000000
3.018934 -0.419496 0.026125 88.000000
3.017633 -0.428756 0.026125 93.000000
3.015314 -0.437868 0.026128 97.000000
3.014945 -0.447263 0.026125 97.000000
3.018503 -0.457258 0.026108 84.000000
3.015109 -0.466212 0.026115 102.000000
3.016628 -0.475926 0.026105 66.000000
3.014166 -0.485020 0.026108 58.000000
3.014638 -0.494588 0.026102 51.000000
3.020011 -0.504987 0.026078 75.000000
3.012532 -0.513244 0.026098 59.000000
3.008973 -0.522143 0.026105 50.000000
3.019175 -0.533455 0.026065 69.000000
3.006697 -0.540772 0.026102 57.000000
3.012893 -0.551431 0.026075 47.000000
3.008238 -0.560124 0.026085 37.000000
3.007488 -0.569537 0.026082 36.000000
3.013583 -0.580270 0.026055 43.000000
3.037306 -0.594498 0.025969 34.000000
3.023697 -0.601476 0.026009 48.000000
3.129665 -0.632501 0.025644 26.000000
3.221756 -0.661371 0.025326 29.000000
3.290200 -0.685921 0.025087 40.000000
3.333086 -0.705523 0.024934 61.000000
3.337751 -0.717213 0.024911 68.000000
3.324786 -0.725110 0.024948 40.000000
3.331334 -0.737249 0.024918 52.000000
3.331984 -0.748122 0.024908 41.000000
3.332598 -0.759006 0.024898 59.000000
3.336101 -0.770575 0.024878 61.000000
3.342484 -0.782856 0.024848 62.000000
3.342986 -0.793799 0.024838 74.000000
3.347341 -0.805687 0.024815 62.000000
3.361370 -0.819976 0.024759 33.000000
3.354956 -0.829326 0.024772 56.000000
3.359186 -0.841313 0.024749 45.000000
3.369191 -0.854808 0.024706 36.000000
3.380113 -0.868620 0.024659 30.000000
3.383240 -0.880495 0.024639 28.000000
3.389226 -0.893161 0.024609 47.000000
3.398065 -0.906645 0.024570 36.000000
3.407819 -0.920451 0.024527 35.000000
3.407873 -0.931692 0.024517 20.000000
3.417529 -0.945606 0.024473 27.000000
3.395351 -0.950700 0.024540 21.000000
3.014005 -0.361636 -0.011259 29.000000
3.033721 -0.373449 -0.011589 51.000000
3.029585 -0.382378 -0.011542 46.000000
3.032364 -0.392185 -0.011605 70.000000
3.030155 -0.401355 -0.011589 64.000000
3.024946 -0.410111 -0.011526 58.000000
3.021693 -0.419115 -0.011495 42.000000
3.019403 -0.428243 -0.011479 70.000000
3.010159 -0.436355 -0.011353 58.000000
3.013752 -0.446321 -0.011432 67.000000
3.012368 -0.455565 -0.011432 69.000000
3.009968 -0.464652 -0.011416 80.000000
3.013467 -0.474663 -0.011495 69.000000
3.011009 -0.483747 -0.011479 69.000000
3.016418 -0.494115 -0.011589 102.000000
3.020805 -0.504356 -0.011683 194.000000
3.004219 -0.530051 -0.011495 65.000000
3.004547 -0.539619 -0.011526 66.000000
3.013697 -0.550813 -0.011699 49.000000
3.018873 -0.561337 -0.011809 45.000000
3.025979 -0.572269 -0.011950 57.000000
3.097849 -0.595720 -0.013128 35.000000
3.274600 -0.640157 -0.015987 36.000000
3.341268 -0.663847 -0.017087 59.000000
3.342156 -0.674689 -0.017134 47.000000
3.351824 -0.687351 -0.017322 78.000000
3.346763 -0.697019 -0.017275 67.000000
3.341674 -0.706662 -0.017228 64.000000
3.338513 -0.716701 -0.017212 60.000000
3.331414 -0.725875 -0.017134 38.000000
3.329171 -0.736093 -0.017134 58.000000
3.326897 -0.746303 -0.017134 57.000000
3.326542 -0.756950 -0.017165 70.000000
3.327127 -0.767827 -0.017212 66.000000
3.331570 -0.779626 -0.017322 56.000000
3.334027 -0.790998 -0.017401 43.000000
3.335473 -0.802159 -0.017464 55.000000
3.342710 -0.814757 -0.017621 43.000000
3.345048 -0.826208 -0.017699 50.000000
3.353167 -0.839138 -0.017872 61.000000
3.359299 -0.851634 -0.018013 36.000000
3.370229 -0.865419 -0.018233 43.000000
3.384976 -0.880286 -0.018516 36.000000
3.389027 -0.892450 -0.018626 29.000000
3.402697 -0.907224 -0.018893 30.000000
3.410516 -0.920526 -0.019066 40.000000
3.414428 -0.932831 -0.019176 33.000000
3.421187 -0.945967 -0.019333 30.000000
3.415380 -0.955650 -0.019286 34.000000
3.422052 -0.968849 -0.019443 26.000000
3.016095 -0.409675 -0.047872 30.000000
3.018785 -0.419475 -0.047983 43.000000
3.016494 -0.428594 -0.047955 32.000000
3.015164 -0.437847 -0.047955 43.000000
3.012818 -0.446949 -0.047927 44.000000
3.008468 -0.455742 -0.047844 51.000000
3.004091 -0.464512 -0.047761 47.000000
3.002652 -0.473727 -0.047761 42.000000
2.981445 -0.479768 -0.047206 23.000000
3.004621 -0.492949 -0.047899 58.000000
3.001123 -0.501836 -0.047844 52.000000
3.006468 -0.512213 -0.048038 44.000000
3.022611 -0.524504 -0.048538 33.000000
3.020003 -0.533601 -0.048510 39.000000
3.096080 -0.556813 -0.050702 34.000000
3.344128 -0.611925 -0.057750 15.000000
3.330441 -0.619990 -0.057417 30.000000
3.350133 -0.634289 -0.058027 41.000000
3.355042 -0.645884 -0.058221 43.000000
3.358931 -0.657324 -0.058388 46.000000
3.359841 -0.668210 -0.058471 50.000000
3.349936 -0.676933 -0.058249 47.000000
3.346864 -0.687007 -0.058221 46.000000
3.345719 -0.697475 -0.058249 47.000000
3.341608 -0.707323 -0.058194 41.000000
3.341377 -0.717991 -0.058249 52.000000
3.344042 -0.729302 -0.058388 62.000000
3.338860 -0.738911 -0.058305 50.000000
3.338528 -0.749589 -0.058360 52.000000
3.340112 -0.760714 -0.058471 46.000000
3.332892 -0.769835 -0.058332 38.000000
3.332461 -0.780512 -0.058388 50.000000
3.328106 -0.790271 -0.058332 41.000000
3.323722 -0.800010 -0.058277 38.000000
3.330964 -0.812569 -0.058554 39.000000
3.338160 -0.825180 -0.058832 22.000000
3.343371 -0.837358 -0.059054 27.000000
3.345631 -0.848839 -0.059192 30.000000
3.351725 -0.861335 -0.059442 33.000000
3.365514 -0.875888 -0.059914 36.000000
3.373445 -0.889008 -0.060219 25.000000
3.376497 -0.900898 -0.060386 16.000000
3.388194 -0.915157 -0.060802 23.000000
3.395014 -0.928181 -0.061079 40.000000
3.409493 -0.943385 -0.061579 27.000000
3.402732 -0.952764 -0.061468 31.000000
3.419991 -0.968914 -0.062050 23.000000
3.499650 -1.003061 -0.064437 7.000000
3.023145 -0.457197 -0.086520 33.000000
3.018766 -0.466012 -0.086399 34.000000
3.016335 -0.475115 -0.086359 46.000000
3.012891 -0.484050 -0.086278 53.000000
3.007447 -0.492644 -0.086117 53.000000
3.300103 -0.571860 -0.098289 8.000000
3.375083 -0.595533 -0.101433 18.000000
3.382091 -0.607475 -0.101796 24.000000
3.372348 -0.616410 -0.101473 31.000000
3.378300 -0.628216 -0.101796 34.000000
3.377338 -0.638763 -0.101836 28.000000
3.380269 -0.650066 -0.102038 32.000000
3.378258 -0.660433 -0.102038 35.000000
3.373276 -0.670210 -0.101917 31.000000
3.370225 -0.680358 -0.101877 41.000000
3.367143 -0.690494 -0.101836 52.000000
3.361096 -0.700005 -0.101675 47.000000
3.356977 -0.709900 -0.101594 58.000000
3.353806 -0.719986 -0.101554 49.000000
3.354511 -0.730911 -0.101675 55.000000
3.349326 -0.740551 -0.101554 57.000000
3.345088 -0.750386 -0.101473 49.000000
3.342770 -0.760645 -0.101473 48.000000
3.337500 -0.770222 -0.101353 60.000000
3.337067 -0.780913 -0.101433 56.000000
3.336600 -0.791609 -0.101514 56.000000
3.332213 -0.801375 -0.101433 46.000000
3.327797 -0.811120 -0.101353 42.000000
3.331113 -0.822764 -0.101594 46.000000
3.328573 -0.832980 -0.101594 36.000000
3.327939 -0.843679 -0.101675 39.000000
3.334045 -0.856123 -0.102038 43.000000
3.330436 -0.866096 -0.101997 43.000000
3.340324 -0.879619 -0.102521 31.000000
3.351125 -0.893468 -0.103086 40.000000
3.363802 -0.907912 -0.103731 23.000000
3.373531 -0.921653 -0.104255 28.000000
3.383207 -0.935461 -0.104779 33.000000
3.388018 -0.947991 -0.105101 40.000000
3.392785 -0.960559 -0.105423 29.000000
3.390783 -0.971239 -0.105464 23.000000
3.386827 -0.981359 -0.105423 13.000000
3.494426 -0.585377 -0.148681 12.000000
3.474893 -0.593077 -0.147739 19.000000
3.474041 -0.603906 -0.147791 18.000000
3.447587 -0.610218 -0.146483 18.000000
3.444715 -0.620615 -0.146430 21.000000
3.426096 -0.628125 -0.145541 36.000000
3.414335 -0.636805 -0.145017 36.000000
3.406478 -0.646163 -0.144703 31.000000
3.406441 -0.656988 -0.144808 31.000000
3.393629 -0.665326 -0.144232 34.000000
3.380798 -0.673592 -0.143656 48.000000
3.374800 -0.683169 -0.143447 41.000000
3.361928 -0.691311 -0.142871 25.000000
3.355880 -0.700807 -0.142662 27.000000
3.350784 -0.710479 -0.142505 43.000000
3.342730 -0.719497 -0.142191 40.000000
3.340507 -0.729749 -0.142191 49.000000
3.335327 -0.739346 -0.142034 35.000000
3.334018 -0.749794 -0.142086 48.000000
3.330728 -0.759798 -0.142034 59.000000
3.325462 -0.769338 -0.141877 45.000000
3.326003 -0.780220 -0.142034 40.000000
3.320679 -0.789729 -0.141877 39.000000
3.322124 -0.800847 -0.142086 39.000000
3.321592 -0.811509 -0.142191 30.000000
3.323934 -0.822894 -0.142453 47.000000
3.328175 -0.834786 -0.142819 54.000000
3.329470 -0.845975 -0.143028 44.000000
3.334596 -0.858175 -0.143447 30.000000
3.334847 -0.869156 -0.143604 35.000000
3.337959 -0.880910 -0.143918 37.000000
3.341995 -0.892948 -0.144285 49.000000
3.349844 -0.906062 -0.144860 31.000000
3.352828 -0.917915 -0.145174 36.000000
3.358658 -0.930594 -0.145645 25.000000
3.364442 -0.943317 -0.146116 37.000000
3.387474 -0.960985 -0.147529 10.000000
3.376830 -0.969172 -0.147111 18.000000
3.390146 -0.984255 -0.148000 6.000000
3.516849 -0.587240 -0.193993 15.000000
3.489454 -0.593672 -0.192311 24.000000
3.473851 -0.601988 -0.191405 27.000000
3.451351 -0.608999 -0.190046 38.000000
3.444555 -0.618702 -0.189723 17.000000
3.421045 -0.625317 -0.188299 32.000000
3.412243 -0.634532 -0.187846 42.000000
3.404397 -0.643884 -0.187458 37.000000
3.402406 -0.654326 -0.187458 47.000000
3.401362 -0.664953 -0.187523 46.000000
3.394412 -0.674412 -0.187199 48.000000
3.390371 -0.684427 -0.187070 59.000000
3.390210 -0.695227 -0.187199 47.000000
3.387084 -0.705421 -0.187135 52.000000
3.389786 -0.716842 -0.187458 51.000000
3.384643 -0.726610 -0.187264 36.000000
3.373623 -0.735077 -0.186682 32.000000
3.367455 -0.744562 -0.186423 41.000000
3.365155 -0.754889 -0.186423 31.000000
3.353093 -0.762995 -0.185776 49.000000
3.349764 -0.773054 -0.185711 36.000000
3.351263 -0.784237 -0.185970 32.000000
3.347870 -0.794284 -0.185905 38.000000
3.352209 -0.806186 -0.186358 43.000000
3.351659 -0.816939 -0.186488 30.000000
3.349137 -0.827218 -0.186488 41.000000
3.347551 -0.837732 -0.186552 34.000000
3.345933 -0.848243 -0.186617 28.000000
3.339448 -0.857511 -0.186358 40.000000
3.339699 -0.868506 -0.186552 39.000000
3.336054 -0.878494 -0.186488 36.000000
3.332379 -0.888468 -0.186423 39.000000
3.337345 -0.900768 -0.186940 20.000000
3.339378 -0.912318 -0.187264 19.000000
3.336564 -0.922559 -0.187264 24.000000
3.351015 -0.937633 -0.188429 25.000000
3.357724 -0.950629 -0.189076 24.000000
3.362466 -0.963125 -0.189593 29.000000
3.371955 -0.977048 -0.190435 15.000000
3.364154 -0.985985 -0.190111 43.000000
3.473408 -0.592824 -0.233120 19.000000
3.461750 -0.601773 -0.232355 27.000000
3.453014 -0.611177 -0.231819 22.000000
3.445235 -0.620709 -0.231360 25.000000
3.426641 -0.628225 -0.230058 23.000000
3.413915 -0.636727 -0.229216 26.000000
3.411945 -0.647198 -0.229216 33.000000
3.407006 -0.657097 -0.228987 35.000000
3.404974 -0.667547 -0.228987 39.000000
3.398021 -0.677017 -0.228604 30.000000
3.393973 -0.687044 -0.228451 54.000000
3.390873 -0.697253 -0.228374 36.000000
3.388718 -0.707653 -0.228374 40.000000
3.383604 -0.717426 -0.228145 24.000000
3.389186 -0.729479 -0.228757 75.000000
3.364526 -0.734987 -0.226997 38.000000
3.358361 -0.744444 -0.226690 31.000000
3.356062 -0.754744 -0.226690 37.000000
3.353730 -0.765037 -0.226690 44.000000
3.351367 -0.775322 -0.226690 36.000000
3.345090 -0.784691 -0.226384 32.000000
3.343637 -0.795180 -0.226461 40.000000
3.344090 -0.806134 -0.226690 28.000000
3.340632 -0.816154 -0.226614 35.000000
3.335209 -0.825681 -0.226384 31.000000
3.335561 -0.836636 -0.226614 50.000000
3.330080 -0.846130 -0.226384 23.000000
3.334228 -0.858080 -0.226920 35.000000
3.335439 -0.869310 -0.227226 41.000000
3.332756 -0.879538 -0.227226 35.000000
3.333896 -0.890787 -0.227532 23.000000
3.329222 -0.900491 -0.227379 37.000000
3.320673 -0.909123 -0.226920 35.000000
3.321712 -0.920370 -0.227226 32.000000
3.319833 -0.930826 -0.227303 35.000000
3.319839 -0.941822 -0.227532 31.000000
3.319810 -0.952827 -0.227762 22.000000
3.316871 -0.963007 -0.227762 29.000000
3.315814 -0.973740 -0.227915 21.000000
3.311856 -0.983625 -0.227839 13.000000
3.458406 -0.600548 -0.275069 19.000000
3.449682 -0.609940 -0.274448 20.000000
3.444853 -0.619991 -0.274181 16.000000
3.432158 -0.628582 -0.273205 24.000000
3.419442 -0.637101 -0.272230 17.000000
3.415514 -0.647217 -0.272052 30.000000
3.409600 -0.656939 -0.271697 38.000000
3.403659 -0.666630 -0.271342 26.000000
3.397690 -0.676291 -0.270987 26.000000
3.393647 -0.686317 -0.270810 32.000000
3.388598 -0.696123 -0.270544 39.000000
3.388397 -0.706923 -0.270721 38.000000
3.378417 -0.715663 -0.270011 24.000000
3.378152 -0.726443 -0.270189 37.000000
3.372989 -0.736167 -0.269923 34.000000
3.374604 -0.747373 -0.270278 60.000000
3.371324 -0.757504 -0.270189 32.000000
3.363157 -0.766515 -0.269657 47.000000
3.357878 -0.776156 -0.269390 28.000000
3.355481 -0.786455 -0.269390 28.000000
3.345300 -0.794902 -0.268681 29.000000
3.341877 -0.804928 -0.268592 33.000000
3.338424 -0.814941 -0.268503 32.000000
3.330107 -0.823744 -0.267971 31.000000
3.327564 -0.833956 -0.267971 59.000000
3.324990 -0.844161 -0.267971 50.000000
3.322385 -0.854358 -0.267971 42.000000
3.320712 -0.864798 -0.268060 36.000000
3.318043 -0.874982 -0.268060 48.000000
3.317267 -0.885672 -0.268237 32.000000
3.312612 -0.895325 -0.268060 46.000000
3.307928 -0.904957 -0.267882 32.000000
3.311855 -0.916963 -0.268503 40.000000
3.312863 -0.928195 -0.268858 38.000000
3.313833 -0.939441 -0.269213 48.000000
3.321466 -0.952625 -0.270189 38.000000
3.324268 -0.964477 -0.270721 16.000000
3.323205 -0.975232 -0.270899 37.000000
3.323062 -0.986274 -0.271165 27.000000
3.314296 -0.994745 -0.270633 20.000000
3.470903 -0.602740 -0.320675 13.000000
3.455321 -0.610965 -0.319258 27.000000
3.453430 -0.621563 -0.319258 18.000000
3.444657 -0.630903 -0.318549 25.000000
3.439770 -0.640922 -0.318246 35.000000
3.431923 -0.650363 -0.317638 25.000000
3.425026 -0.659949 -0.317132 34.000000
3.417128 -0.669308 -0.316525 41.000000
3.415058 -0.679789 -0.316525 42.000000
3.411981 -0.690066 -0.316423 36.000000
3.401077 -0.698732 -0.315512 42.000000
3.395021 -0.708351 -0.315107 34.000000
3.393806 -0.718970 -0.315209 39.000000
3.389638 -0.728961 -0.315006 22.000000
3.398079 -0.741687 -0.316120 34.000000
3.394816 -0.751893 -0.316019 37.000000
3.396376 -0.763176 -0.316423 53.000000
3.391109 -0.772930 -0.316120 29.000000
3.396476 -0.785120 -0.316930 61.000000
3.384365 -0.793270 -0.315917 49.000000
3.362555 -0.799055 -0.313893 18.000000
3.344611 -0.805645 -0.312273 18.000000
3.335358 -0.814253 -0.311564 20.000000
3.338639 -0.825914 -0.312172 26.000000
3.332229 -0.835187 -0.311767 32.000000
3.324830 -0.844183 -0.311261 35.000000
3.317406 -0.853142 -0.310755 32.000000
3.314773 -0.863316 -0.310755 33.000000
3.314995 -0.874242 -0.311058 30.000000
3.311336 -0.884151 -0.310957 46.000000
3.308608 -0.894306 -0.310957 38.000000
3.308728 -0.905239 -0.311261 35.000000
3.308811 -0.916182 -0.311564 40.000000
3.308859 -0.927133 -0.311868 26.000000
3.311743 -0.938906 -0.312476 27.000000
3.312672 -0.950158 -0.312880 39.000000
3.311653 -0.960870 -0.313083 36.000000
3.316327 -0.973265 -0.313893 27.000000
3.322864 -0.986262 -0.314905 23.000000
3.343646 -1.003594 -0.317436 11.000000
3.338647 -1.013270 -0.317233 7.000000
3.451073 -0.609568 -0.360690 13.000000
3.445275 -0.619449 -0.360237 25.000000
3.431630 -0.627869 -0.358881 33.000000
3.429688 -0.638394 -0.358881 29.000000
3.412093 -0.645955 -0.357073 42.000000
3.409120 -0.656232 -0.356960 36.000000
3.396365 -0.664588 -0.355716 35.000000
3.388463 -0.673841 -0.355038 42.000000
3.394171 -0.685809 -0.355942 27.000000
3.401784 -0.698218 -0.357073 35.000000
3.400598 -0.708854 -0.357186 35.000000
3.410072 -0.721753 -0.358542 49.000000
3.414641 -0.733674 -0.359333 32.000000
3.420140 -0.745841 -0.360237 39.000000
3.426567 -0.758263 -0.361255 29.000000
3.432949 -0.770732 -0.362272 59.000000
3.436381 -0.782585 -0.362950 23.000000
3.448485 -0.796479 -0.364646 28.000000
3.447960 -0.807509 -0.364872 33.000000
3.429033 -0.814179 -0.362950 43.000000
3.426519 -0.824696 -0.362950 20.000000
3.409494 -0.831671 -0.361255 34.000000
3.385707 -0.836879 -0.358768 38.000000
3.372521 -0.844606 -0.357525 25.000000
3.351616 -0.850305 -0.355377 35.000000
3.334557 -0.856872 -0.353682 44.000000
3.329990 -0.866598 -0.353456 36.000000
3.322511 -0.875544 -0.352891 44.000000
3.314050 -0.884195 -0.352212 28.000000
3.302689 -0.892026 -0.351195 41.000000
3.298978 -0.901892 -0.351082 37.000000
3.299068 -0.912804 -0.351421 68.000000
3.300079 -0.923993 -0.351873 30.000000
3.295317 -0.933571 -0.351647 45.000000
3.301989 -0.946416 -0.352777 35.000000
3.308612 -0.959310 -0.353908 32.000000
3.316141 -0.972533 -0.355151 37.000000
3.315999 -0.983550 -0.355490 39.000000
3.323435 -0.996860 -0.356734 36.000000
3.358392 -1.018591 -0.361255 18.000000
3.441979 -0.619506 -0.403639 12.000000
3.423472 -0.627030 -0.401508 17.000000
3.421532 -0.637530 -0.401508 21.000000
3.416635 -0.647471 -0.401132 29.000000
3.409761 -0.657013 -0.400505 18.000000
3.403835 -0.666709 -0.400004 28.000000
3.399827 -0.676762 -0.399753 35.000000
3.403570 -0.688368 -0.400505 35.000000
3.412133 -0.700999 -0.401884 27.000000
3.412880 -0.712071 -0.402260 37.000000
3.414562 -0.723360 -0.402761 43.000000
3.414267 -0.734248 -0.403012 38.000000
3.417814 -0.745987 -0.403764 31.000000
3.421322 -0.757755 -0.404516 35.000000
3.425757 -0.769768 -0.405393 35.000000
3.434988 -0.782916 -0.406897 37.000000
3.443204 -0.795905 -0.408276 30.000000
3.444610 -0.807369 -0.408777 28.000000
3.438255 -0.817017 -0.408276 26.000000
3.435732 -0.827562 -0.408276 54.000000
3.409080 -0.832224 -0.405143 13.000000
3.389174 -0.838397 -0.402887 19.000000
3.364450 -0.843251 -0.400004 26.000000
3.350307 -0.850643 -0.398500 23.000000
3.338072 -0.858450 -0.397247 24.000000
3.329661 -0.867188 -0.396495 27.000000
3.325067 -0.876894 -0.396244 40.000000
3.314692 -0.885046 -0.395241 22.000000
3.311003 -0.894953 -0.395116 39.000000
3.304413 -0.904061 -0.394615 34.000000
3.302581 -0.914459 -0.394740 27.000000
3.308358 -0.926993 -0.395868 43.000000
