ply
format ascii 1.0
element vertex 1277
property float x
property float y
property float z
property float intensity
end_header
2.984644 -0.018375 0.538871 55.000000
2.984574 -0.027532 0.538871 52.000000
2.979546 -0.036630 0.538037 47.000000
2.978433 -0.045756 0.537870 51.000000
2.981236 -0.054947 0.538370 44.000000
2.982039 -0.064114 0.538537 64.000000
2.983800 -0.073310 0.538871 61.000000
2.985532 -0.082517 0.539205 47.000000
2.983294 -0.091617 0.538871 59.000000
2.983984 -0.100802 0.539038 48.000000
2.984646 -0.109992 0.539205 40.000000
2.982325 -0.119070 0.538871 57.000000
2.981946 -0.128219 0.538871 56.000000
2.985478 -0.137547 0.539539 40.000000
2.989965 -0.146946 0.540374 36.000000
2.992455 -0.156272 0.540875 45.000000
2.998852 -0.165830 0.542043 48.000000
3.000298 -0.175144 0.542377 54.000000
2.998763 -0.184287 0.542210 37.000000
3.000151 -0.193613 0.542544 38.000000
2.995608 -0.202552 0.541876 39.000000
2.992022 -0.211534 0.541375 45.000000
2.997259 -0.221145 0.542377 60.000000
2.987718 -0.229663 0.540875 28.000000
2.989948 -0.239063 0.541375 40.000000
2.990183 -0.248316 0.541542 44.000000
2.991372 -0.257657 0.541876 52.000000
2.992532 -0.267007 0.542210 44.000000
2.995626 -0.276548 0.542878 25.000000
2.999671 -0.286204 0.543712 23.000000
2.996816 -0.295213 0.543379 36.000000
3.033173 -0.308178 0.549722 17.000000
2.984899 0.565955 0.509997 20.000000
2.987592 0.556976 0.510151 35.000000
2.983457 0.546740 0.509222 42.000000
2.974424 0.535660 0.507518 50.000000
2.974108 0.526188 0.507209 65.000000
2.967921 0.515709 0.505970 39.000000
2.968516 0.506435 0.505815 64.000000
2.967132 0.496836 0.505350 42.000000
2.970592 0.488051 0.505660 44.000000
2.971100 0.478778 0.505505 59.000000
2.974507 0.469968 0.505815 40.000000
2.979840 0.461445 0.506434 56.000000
2.982219 0.452449 0.506589 50.000000
2.984570 0.443442 0.506744 62.000000
2.980050 0.433431 0.505815 49.000000
2.978431 0.423869 0.505350 68.000000
2.981675 0.415002 0.505660 74.000000
2.981955 0.405719 0.505505 50.000000
2.979269 0.396048 0.504885 42.000000
2.980470 0.386906 0.504885 49.000000
2.974782 0.376892 0.503801 38.000000
2.978866 0.368127 0.504266 41.000000
2.977039 0.358632 0.503801 64.000000
2.979106 0.349612 0.503956 57.000000
2.977220 0.340135 0.503492 40.000000
2.977268 0.330890 0.503337 49.000000
2.980233 0.321966 0.503646 59.000000
2.983172 0.313028 0.503956 52.000000
2.984118 0.303874 0.503956 47.000000
2.986020 0.294814 0.504111 48.000000
2.982976 0.285276 0.503492 61.000000
2.989740 0.276669 0.504421 47.000000
2.988606 0.267319 0.504111 44.000000
2.988428 0.258064 0.503956 54.000000
2.990191 0.248976 0.504111 49.000000
2.992910 0.239959 0.504421 51.000000
2.995602 0.230927 0.504731 62.000000
2.994326 0.221590 0.504421 58.000000
2.992035 0.212194 0.503956 43.000000
2.988729 0.202746 0.503337 53.000000
2.988351 0.193512 0.503182 53.000000
2.986959 0.184222 0.502872 52.000000
2.982579 0.174769 0.502098 60.000000
2.986060 0.165781 0.502562 53.000000
2.983595 0.156465 0.502098 45.000000
2.987021 0.147456 0.502562 46.000000
2.988446 0.138337 0.502717 54.000000
2.987870 0.129125 0.502562 52.000000
2.986278 0.119879 0.502252 61.000000
2.989593 0.110826 0.502717 65.000000
2.987944 0.101587 0.502407 67.000000
2.997129 0.092693 0.503801 69.000000
2.998387 0.083525 0.503956 56.000000
2.999617 0.074350 0.504111 47.000000
3.001806 0.065190 0.504421 38.000000
2.999029 0.055925 0.503956 59.000000
2.999186 0.046724 0.503956 56.000000
3.000303 0.037535 0.504111 45.000000
2.993489 0.028265 0.503027 49.000000
2.994550 0.019087 0.503182 52.000000
2.991631 0.009891 0.502717 56.000000
2.989671 0.000712 0.502407 51.000000
2.995586 -0.008477 0.503337 58.000000
2.993570 -0.017656 0.503027 63.000000
2.993502 -0.026840 0.503027 45.000000
2.997357 -0.036072 0.503646 66.000000
2.992293 -0.045192 0.502872 54.000000
2.997080 -0.054462 0.503646 55.000000
3.001837 -0.063763 0.504421 48.000000
2.997677 -0.072875 0.503801 66.000000
3.006327 -0.082316 0.505195 45.000000
3.005073 -0.091509 0.505040 55.000000
3.003791 -0.100695 0.504885 42.000000
3.012353 -0.110236 0.506279 55.000000
3.009039 -0.119359 0.505815 49.000000
3.008659 -0.128590 0.505815 48.000000
3.014172 -0.138092 0.506744 31.000000
3.007813 -0.147049 0.505815 55.000000
3.010307 -0.156430 0.506279 41.000000
3.012773 -0.165828 0.506744 57.000000
3.007318 -0.174783 0.505970 45.000000
3.007754 -0.184069 0.506124 43.000000
3.010133 -0.193486 0.506589 60.000000
3.007554 -0.202588 0.506279 43.000000
3.004947 -0.211675 0.505970 54.000000
3.003299 -0.220820 0.505815 58.000000
3.005562 -0.230260 0.506279 76.000000
3.010750 -0.239951 0.507209 40.000000
3.004092 -0.248697 0.506279 56.000000
3.004300 -0.257997 0.506434 58.000000
3.005462 -0.267388 0.506744 41.000000
3.001676 -0.276336 0.506279 31.000000
3.002781 -0.285731 0.506589 34.000000
3.001890 -0.294942 0.506589 36.000000
3.088449 -0.313027 0.520374 7.000000
3.026554 -0.316130 0.510771 8.000000
2.986182 0.556477 0.472709 26.000000
2.980088 0.545883 0.471565 35.000000
2.969086 0.534454 0.469706 47.000000
2.973636 0.525860 0.470135 40.000000
2.978160 0.517244 0.470564 44.000000
2.977782 0.507771 0.470278 40.000000
2.975421 0.497978 0.469706 30.000000
2.979865 0.489330 0.470135 40.000000
2.979398 0.479870 0.469849 31.000000
2.979878 0.470572 0.469706 38.000000
2.979352 0.461124 0.469420 41.000000
2.980753 0.451982 0.469420 40.000000
2.981146 0.442689 0.469277 55.000000
2.987387 0.434255 0.469992 48.000000
2.989685 0.425227 0.470135 49.000000
2.993917 0.416463 0.470564 53.000000
2.995180 0.407276 0.470564 42.000000
3.000340 0.398608 0.471136 41.000000
3.004493 0.389784 0.471565 44.000000
2.998802 0.379692 0.470564 60.000000
2.997006 0.370125 0.470135 37.000000
2.998127 0.360928 0.470135 50.000000
2.999221 0.351728 0.470135 38.000000
2.997336 0.342187 0.469706 57.000000
3.000339 0.333209 0.469992 57.000000
2.996427 0.323470 0.469277 53.000000
3.002327 0.314793 0.469992 62.000000
3.010171 0.306285 0.470993 31.000000
2.999277 0.295878 0.469277 47.000000
2.998200 0.286486 0.468991 60.000000
3.003993 0.277743 0.469706 38.000000
3.004831 0.268526 0.469706 47.000000
3.005640 0.259306 0.469706 49.000000
3.008394 0.250249 0.469992 40.000000
3.007175 0.240859 0.469706 53.000000
3.005926 0.231479 0.469420 42.000000
3.003661 0.222036 0.468991 39.000000
2.997418 0.212328 0.467990 40.000000
2.995093 0.202929 0.467562 54.000000
2.995701 0.193739 0.467562 59.000000
2.992330 0.184303 0.466990 39.000000
2.995846 0.175296 0.467419 54.000000
2.997357 0.166159 0.467562 47.000000
3.000818 0.157119 0.467990 44.000000
3.007217 0.148206 0.468848 56.000000
3.006669 0.138934 0.468705 58.000000
3.011036 0.129881 0.469277 46.000000
3.005487 0.120403 0.468419 56.000000
3.005842 0.111181 0.468419 44.000000
3.003201 0.101857 0.467990 47.000000
2.999543 0.092519 0.467419 46.000000
3.003770 0.083428 0.467990 41.000000
3.004012 0.074212 0.467990 48.000000
3.007194 0.065061 0.468419 57.000000
3.011338 0.055910 0.468991 52.000000
3.010505 0.046655 0.468848 43.000000
3.011624 0.037431 0.468991 37.000000
3.017663 0.028250 0.469849 47.000000
3.010807 0.018945 0.468848 45.000000
3.010851 0.009708 0.468848 50.000000
3.010867 0.000471 0.468848 54.000000
3.005905 -0.008754 0.468133 47.000000
3.009823 -0.017998 0.468705 54.000000
3.008764 -0.027223 0.468562 55.000000
3.007677 -0.036442 0.468419 50.000000
3.010520 -0.045714 0.468848 30.000000
3.010365 -0.054949 0.468848 50.000000
3.016120 -0.064309 0.469706 37.000000
3.013929 -0.073515 0.469420 47.000000
3.017647 -0.082868 0.469992 56.000000
3.019357 -0.092185 0.470278 36.000000
3.013125 -0.101251 0.469420 51.000000
3.014778 -0.110566 0.469706 47.000000
3.017392 -0.119932 0.470135 55.000000
3.014043 -0.129063 0.469706 51.000000
3.016599 -0.138444 0.470135 51.000000
3.017149 -0.147746 0.470278 55.000000
3.015693 -0.156951 0.470135 43.000000
3.021127 -0.166527 0.470993 39.000000
3.021590 -0.175852 0.471136 42.000000
3.021036 -0.185121 0.471136 45.000000
3.027368 -0.194831 0.472137 37.000000
3.027743 -0.204184 0.472280 37.000000
3.027103 -0.213472 0.472280 38.000000
3.027421 -0.222830 0.472423 44.000000
3.027710 -0.232193 0.472566 38.000000
3.025009 -0.241324 0.472280 33.000000
3.021296 -0.250359 0.471851 39.000000
3.014597 -0.259121 0.470993 32.000000
3.015759 -0.268543 0.471279 38.000000
3.010979 -0.277432 0.470707 30.000000
3.014055 -0.287042 0.471279 37.000000
3.014145 -0.296385 0.471422 10.000000
3.005344 -0.304834 0.470278 8.000000
2.996446 0.539623 0.436549 34.000000
3.002969 0.531290 0.437204 28.000000
2.997748 0.520887 0.436287 23.000000
3.009104 0.513354 0.437597 41.000000
3.009687 0.503956 0.437466 41.000000
3.013176 0.495041 0.437728 56.000000
3.014680 0.485795 0.437728 42.000000
3.013219 0.476080 0.437335 42.000000
3.013685 0.466682 0.437204 44.000000
3.011183 0.456839 0.436680 59.000000
3.009628 0.447162 0.436287 61.000000
3.012948 0.438212 0.436549 45.000000
3.012315 0.428687 0.436287 53.000000
3.015580 0.419716 0.436549 47.000000
3.016853 0.410463 0.436549 56.000000
3.017116 0.401075 0.436418 52.000000
3.021281 0.392199 0.436811 43.000000
3.021487 0.382803 0.436680 60.000000
3.016744 0.372803 0.435894 61.000000
3.018857 0.363665 0.436025 58.000000
3.016021 0.353939 0.435500 45.000000
3.015122 0.344460 0.435238 49.000000
3.017150 0.335317 0.435369 50.000000
3.014222 0.325634 0.434845 64.000000
3.014221 0.316282 0.434714 51.000000
3.017149 0.307233 0.434976 53.000000
3.014132 0.297586 0.434452 47.000000
3.016017 0.288432 0.434583 53.000000
3.020837 0.279542 0.435107 45.000000
3.018718 0.270009 0.434714 49.000000
3.019532 0.260746 0.434714 43.000000
3.016366 0.251152 0.434190 50.000000
3.017122 0.241897 0.434190 44.000000
3.019827 0.232792 0.434452 49.000000
3.019538 0.223453 0.434321 56.000000
3.017243 0.213978 0.433928 52.000000
3.017885 0.204720 0.433928 50.000000
3.015531 0.195269 0.433535 70.000000
3.019084 0.186199 0.433928 65.000000
3.015683 0.176704 0.433404 74.000000
3.017200 0.167506 0.433535 56.000000
3.016711 0.158197 0.433404 52.000000
3.025103 0.149331 0.434452 54.000000
3.025547 0.140050 0.434452 49.000000
3.027943 0.130852 0.434714 63.000000
3.028330 0.121562 0.434714 52.000000
3.028689 0.112270 0.434714 46.000000
3.024065 0.102810 0.434059 44.000000
3.023376 0.093502 0.433928 59.000000
3.022657 0.084198 0.433797 61.000000
3.022901 0.074924 0.433797 73.000000
3.018161 0.065543 0.433142 53.000000
3.024295 0.056393 0.433928 61.000000
3.024454 0.047114 0.433928 62.000000
3.029541 0.037897 0.434583 59.000000
3.029643 0.028602 0.434583 51.000000
3.024760 0.019276 0.433928 49.000000
3.028770 0.010009 0.434452 49.000000
3.024821 0.000716 0.433928 52.000000
3.023818 -0.008561 0.433797 57.000000
3.025760 -0.017850 0.434059 47.000000
3.024699 -0.027124 0.433928 49.000000
3.028567 -0.036451 0.434452 56.000000
3.033398 -0.045818 0.435107 66.000000
3.034234 -0.055142 0.435238 48.000000
3.039997 -0.064578 0.436025 52.000000
3.040776 -0.073929 0.436156 65.000000
3.041526 -0.083285 0.436287 45.000000
3.039274 -0.092555 0.436025 55.000000
3.036994 -0.101812 0.435763 60.000000
3.031714 -0.110947 0.435107 46.000000
3.034331 -0.120366 0.435500 49.000000
3.033947 -0.129675 0.435500 51.000000
3.035516 -0.139073 0.435763 49.000000
3.036065 -0.148434 0.435894 46.000000
3.034606 -0.157696 0.435763 41.000000
3.040047 -0.167333 0.436549 37.000000
3.038529 -0.176601 0.436418 64.000000
3.036983 -0.185862 0.436287 38.000000
3.038378 -0.195306 0.436549 52.000000
3.037765 -0.204626 0.436549 39.000000
3.040089 -0.214154 0.436942 51.000000
3.043372 -0.223772 0.437466 47.000000
3.041683 -0.233032 0.437335 42.000000
3.039966 -0.242283 0.437204 36.000000
3.037232 -0.251445 0.436942 44.000000
3.032496 -0.260422 0.436418 23.000000
3.037607 -0.270252 0.437204 35.000000
3.034789 -0.279388 0.436942 41.000000
3.036878 -0.288980 0.437335 36.000000
3.036964 -0.298392 0.437466 6.000000
3.033190 0.546562 0.403440 47.000000
3.030943 0.536560 0.402964 44.000000
3.030618 0.526918 0.402726 55.000000
3.029284 0.517116 0.402370 36.000000
3.026940 0.507162 0.401894 34.000000
3.022604 0.496904 0.401180 41.000000
3.022153 0.487312 0.400943 70.000000
3.020692 0.477571 0.400586 54.000000
3.024106 0.468606 0.400824 57.000000
3.023566 0.459028 0.400586 75.000000
3.019068 0.448871 0.399872 45.000000
3.022395 0.439893 0.400110 61.000000
3.023731 0.430618 0.400110 53.000000
3.024054 0.421202 0.399991 45.000000
3.025332 0.411923 0.399991 64.000000
3.022645 0.402114 0.399516 55.000000
3.029772 0.393609 0.400229 51.000000
3.035890 0.384938 0.400824 48.000000
3.033115 0.375133 0.400348 71.000000
3.033266 0.365707 0.400229 58.000000
3.026485 0.355469 0.399278 56.000000
3.028548 0.346296 0.399397 49.000000
3.031570 0.337223 0.399634 52.000000
3.029629 0.327599 0.399278 52.000000
3.029632 0.318199 0.399159 48.000000
3.026643 0.308498 0.398683 63.000000
3.028563 0.299309 0.398802 51.000000
3.034409 0.290491 0.399397 51.000000
3.034297 0.281089 0.399278 67.000000
3.033168 0.271600 0.399040 64.000000
3.034976 0.262379 0.399159 74.000000
3.031809 0.252735 0.398683 71.000000
3.031580 0.243353 0.398564 66.000000
3.033302 0.234128 0.398683 55.000000
3.033016 0.224747 0.398564 52.000000
3.026759 0.214946 0.397732 59.000000
3.031366 0.205929 0.398207 60.000000
3.031984 0.196628 0.398207 61.000000
3.036537 0.187572 0.398683 49.000000
3.036107 0.178196 0.398564 70.000000
3.036639 0.168881 0.398564 68.000000
3.037143 0.159564 0.398564 46.000000
3.040593 0.150394 0.398921 56.000000
3.038065 0.140925 0.398564 52.000000
3.038483 0.131604 0.398564 55.000000
3.039865 0.122322 0.398683 51.000000
3.041218 0.113032 0.398802 64.000000
3.037581 0.103565 0.398326 45.000000
3.039869 0.094307 0.398564 60.000000
3.043122 0.085065 0.398921 59.000000
3.043368 0.075728 0.398921 47.000000
3.044579 0.066413 0.399040 60.000000
3.044769 0.057072 0.399040 59.000000
3.046915 0.047763 0.399278 54.000000
3.043076 0.038363 0.398802 58.000000
3.041193 0.029007 0.398564 52.000000
3.037297 0.019650 0.398088 65.000000
3.038336 0.010335 0.398207 58.000000
3.041332 0.001015 0.398564 53.000000
3.038342 -0.008308 0.398207 46.000000
3.041281 -0.017646 0.398564 41.000000
3.042205 -0.026985 0.398683 59.000000
3.044093 -0.036341 0.398921 50.000000
3.045954 -0.045709 0.399159 60.000000
3.046792 -0.055071 0.399278 45.000000
3.049586 -0.064480 0.399634 50.000000
3.051359 -0.073883 0.399872 65.000000
3.053103 -0.083297 0.400110 54.000000
3.053826 -0.092694 0.400229 58.000000
3.052535 -0.102029 0.400110 44.000000
3.048238 -0.111251 0.399634 56.000000
3.051851 -0.120758 0.400110 52.000000
3.046506 -0.129910 0.399516 52.000000
3.050061 -0.139436 0.399991 52.000000
3.049619 -0.148793 0.399991 52.000000
3.045182 -0.157944 0.399516 42.000000
3.047657 -0.167448 0.399872 51.000000
3.047129 -0.176797 0.399872 45.000000
3.043599 -0.185964 0.399516 50.000000
3.044996 -0.195428 0.399753 55.000000
3.045373 -0.204835 0.399872 53.000000
3.048692 -0.214454 0.400348 50.000000
3.052971 -0.224168 0.400943 43.000000
3.052269 -0.233533 0.400943 46.000000
3.052528 -0.242975 0.401062 50.000000
3.056716 -0.252746 0.401656 49.000000
3.060873 -0.262545 0.402251 37.000000
3.058075 -0.271759 0.402013 62.000000
3.061182 -0.281502 0.402489 63.000000
3.068211 -0.291641 0.403440 38.000000
3.090030 -0.303275 0.406175 26.000000
3.091061 -0.312953 0.406413 25.000000
3.106876 -0.324180 0.408435 6.000000
3.051081 0.550001 0.367447 25.000000
3.036110 0.537693 0.365631 36.000000
3.034806 0.527865 0.365311 35.000000
3.033471 0.518050 0.364991 38.000000
3.032104 0.508248 0.364670 41.000000
3.036593 0.499427 0.364991 41.000000
3.041055 0.490583 0.365311 42.000000
3.042547 0.481251 0.365311 53.000000
3.043026 0.471762 0.365204 42.000000
3.044459 0.462424 0.365204 47.000000
3.049797 0.453666 0.365631 45.000000
3.052159 0.444451 0.365738 35.000000
3.052524 0.434945 0.365631 54.000000
3.053843 0.425578 0.365631 48.000000
3.054150 0.416072 0.365525 56.000000
3.055412 0.406700 0.365525 53.000000
3.055659 0.397197 0.365418 55.000000
3.056863 0.387820 0.365418 51.000000
3.054092 0.377952 0.364991 59.000000
3.054250 0.368461 0.364884 51.000000
3.053391 0.358858 0.364670 45.000000
3.054477 0.349488 0.364670 53.000000
3.053559 0.339896 0.364457 56.000000
3.053599 0.330419 0.364350 45.000000
3.048665 0.320426 0.363709 34.000000
3.049634 0.311072 0.363709 54.000000
3.048595 0.301519 0.363496 53.000000
3.047526 0.291975 0.363282 59.000000
3.042467 0.282074 0.362642 42.000000
3.047280 0.273093 0.363069 60.000000
3.048103 0.263743 0.363069 65.000000
3.048898 0.254390 0.363069 51.000000
3.049664 0.245035 0.363069 66.000000
3.051392 0.235754 0.363175 53.000000
3.057060 0.226758 0.363709 61.000000
3.060716 0.217590 0.364030 43.000000
3.061369 0.208198 0.364030 62.000000
3.061001 0.198741 0.363923 48.000000
3.061597 0.189349 0.363923 44.000000
3.062163 0.179955 0.363923 59.000000
3.060715 0.170450 0.363709 60.000000
3.059238 0.160954 0.363496 60.000000
3.054752 0.151323 0.362962 55.000000
3.052222 0.141812 0.362642 51.000000
3.053636 0.132490 0.362748 47.000000
3.053035 0.123081 0.362642 50.000000
3.053398 0.113714 0.362642 45.000000
3.053733 0.104346 0.362642 59.000000
3.052051 0.094915 0.362428 51.000000
3.061273 0.085801 0.363389 43.000000
3.062516 0.076433 0.363496 47.000000
3.061741 0.067016 0.363389 39.000000
3.063921 0.057659 0.363603 35.000000
3.062095 0.048228 0.363389 60.000000
3.064217 0.038858 0.363603 35.000000
3.062333 0.029438 0.363389 49.000000
3.059427 0.020024 0.363069 60.000000
3.065439 0.010658 0.363709 55.000000
3.068440 0.001254 0.364030 52.000000
3.074395 -0.008177 0.364670 37.000000
3.077339 -0.017626 0.364991 54.000000
3.074287 -0.027041 0.364670 82.000000
3.080155 -0.036544 0.365311 47.000000
3.076052 -0.045934 0.364884 60.000000
3.070926 -0.055281 0.364350 59.000000
3.071736 -0.064723 0.364457 57.000000
3.073511 -0.074195 0.364670 49.000000
3.073269 -0.083624 0.364670 50.000000
3.075979 -0.093143 0.364991 40.000000
3.080647 -0.102746 0.365525 49.000000
3.083299 -0.112305 0.365845 44.000000
3.084927 -0.121843 0.366059 43.000000
3.083545 -0.131264 0.365952 43.000000
3.079155 -0.140542 0.365525 34.000000
3.076723 -0.149891 0.365311 50.000000
3.072277 -0.159123 0.364884 48.000000
3.066810 -0.168275 0.364350 49.000000
3.066279 -0.177683 0.364350 56.000000
3.063735 -0.186968 0.364136 48.000000
3.062155 -0.196303 0.364030 47.000000
3.067491 -0.206097 0.364670 58.000000
3.071803 -0.215857 0.365204 40.000000
3.076084 -0.225644 0.365738 51.000000
3.079343 -0.235384 0.366165 46.000000
3.078606 -0.244830 0.366165 34.000000
3.079823 -0.254438 0.366379 43.000000
3.081999 -0.264141 0.366699 45.000000
3.080184 -0.273507 0.366593 34.000000
3.077350 -0.282773 0.366379 43.000000
3.078448 -0.292401 0.366593 36.000000
3.093369 -0.303399 0.368301 17.000000
3.131003 -0.316796 0.372466 6.000000
3.046013 0.548332 0.329962 46.000000
3.036899 0.537073 0.328918 26.000000
3.041474 0.528266 0.329203 38.000000
3.048968 0.519939 0.329773 43.000000
3.043677 0.509429 0.329108 54.000000
3.047190 0.500412 0.329298 56.000000
3.053624 0.491855 0.329773 51.000000
3.052169 0.482017 0.329488 54.000000
3.056585 0.473109 0.329773 58.000000
3.060975 0.464178 0.330057 48.000000
3.061400 0.454638 0.329962 57.000000
3.063765 0.445387 0.330057 41.000000
3.063146 0.435705 0.329868 59.000000
3.060524 0.425755 0.329488 47.000000
3.064775 0.416767 0.329773 49.000000
3.063079 0.406968 0.329488 52.000000
3.063326 0.397440 0.329393 54.000000
3.064531 0.388040 0.329393 58.000000
3.062744 0.378269 0.329108 53.000000
3.068831 0.369468 0.329583 62.000000
3.069950 0.360051 0.329583 76.000000
3.066095 0.350064 0.329108 57.000000
3.065176 0.340435 0.328918 65.000000
3.065217 0.330923 0.328823 54.000000
3.064237 0.321309 0.328633 71.000000
3.063228 0.311704 0.328443 49.000000
3.064170 0.302305 0.328443 53.000000
3.063101 0.292713 0.328253 58.000000
3.062002 0.283130 0.328063 63.000000
3.062857 0.273734 0.328063 46.000000
3.066657 0.264594 0.328348 46.000000
3.068447 0.255267 0.328443 57.000000
3.072192 0.246092 0.328728 72.000000
3.077895 0.237049 0.329203 60.000000
3.078608 0.227606 0.329203 55.000000
3.082271 0.218372 0.329488 46.000000
3.082926 0.208914 0.329488 61.000000
3.081566 0.199326 0.329298 60.000000
3.078188 0.189624 0.328918 53.000000
3.074781 0.179946 0.328538 64.000000
3.072336 0.170345 0.328253 49.000000
3.070856 0.160813 0.328063 64.000000
3.069347 0.151293 0.327873 57.000000
3.064825 0.141644 0.327398 56.000000
3.065244 0.132240 0.327398 69.000000
3.069615 0.122997 0.327778 62.000000
3.070972 0.113616 0.327873 47.000000
3.073296 0.104262 0.328063 41.000000
3.070617 0.094739 0.327778 64.000000
3.067908 0.085234 0.327493 52.000000
3.069150 0.075847 0.327588 54.000000
3.063397 0.066299 0.327018 60.000000
3.062590 0.056881 0.326923 72.000000
3.062751 0.047485 0.326923 48.000000
3.065868 0.038127 0.327208 60.000000
3.074929 0.028808 0.328063 50.000000
3.071022 0.019347 0.327683 63.000000
3.080026 0.009958 0.328538 26.000000
3.078051 0.000507 0.328348 42.000000
3.080029 -0.008941 0.328538 36.000000
3.078991 -0.018385 0.328443 52.000000
3.074939 -0.027796 0.328063 53.000000
3.076830 -0.037253 0.328253 42.000000
3.075706 -0.046678 0.328158 47.000000
3.076543 -0.056132 0.328253 60.000000
3.077352 -0.065591 0.328348 62.000000
3.080122 -0.075103 0.328633 43.000000
3.085847 -0.084714 0.329203 63.000000
3.085573 -0.094181 0.329203 43.000000
3.091239 -0.103846 0.329773 70.000000
3.090906 -0.113329 0.329773 59.000000
3.091538 -0.122850 0.329868 31.000000
3.096120 -0.132545 0.330342 44.000000
3.089732 -0.141772 0.329773 52.000000
3.086300 -0.151106 0.329488 52.000000
3.082839 -0.160419 0.329203 46.000000
3.076368 -0.169550 0.328633 43.000000
3.077821 -0.179103 0.328823 55.000000
3.070302 -0.188121 0.328158 57.000000
3.066730 -0.197349 0.327873 47.000000
3.071076 -0.207089 0.328348 49.000000
3.076385 -0.216928 0.328918 39.000000
3.084640 -0.227020 0.329773 38.000000
3.086907 -0.236709 0.330057 38.000000
3.089143 -0.246415 0.330342 26.000000
3.094326 -0.256382 0.330912 33.000000
3.096500 -0.266129 0.331197 37.000000
3.095669 -0.275628 0.331197 41.000000
3.068043 -0.282668 0.328633 12.000000
3.040404 -0.289541 0.326068 5.000000
3.055198 0.550743 0.291741 37.000000
3.058836 0.541714 0.291905 36.000000
3.065392 0.533181 0.292318 42.000000
3.072908 0.524780 0.292813 40.000000
3.077453 0.515844 0.293060 42.000000
3.085905 0.507531 0.293637 51.000000
3.089415 0.498378 0.293802 51.000000
3.092898 0.489209 0.293967 50.000000
3.092415 0.479413 0.293802 49.000000
3.093871 0.469923 0.293802 55.000000
3.089384 0.459550 0.293307 50.000000
3.087820 0.449639 0.293060 40.000000
3.086226 0.439742 0.292813 65.000000
3.083612 0.429722 0.292483 48.000000
3.087878 0.420663 0.292730 44.000000
3.090142 0.411319 0.292813 54.000000
3.090401 0.401708 0.292730 60.000000
3.091619 0.392225 0.292730 52.000000
3.090829 0.382494 0.292565 50.000000
3.093967 0.373248 0.292730 49.000000
3.096087 0.363870 0.292813 39.000000
3.091249 0.353691 0.292318 55.000000
3.090338 0.343985 0.292153 51.000000
3.089397 0.334288 0.291988 35.000000
3.088426 0.324600 0.291823 36.000000
3.086433 0.314821 0.291576 41.000000
3.086392 0.305252 0.291493 45.000000
3.087315 0.295782 0.291493 46.000000
3.089200 0.286401 0.291576 45.000000
3.090064 0.276922 0.291576 50.000000
3.096856 0.267955 0.292070 40.000000
3.102630 0.258866 0.292483 45.000000
3.098442 0.248948 0.292070 53.000000
3.097204 0.239288 0.291905 40.000000
3.099911 0.229932 0.292070 42.000000
3.097620 0.220209 0.291823 64.000000
3.098281 0.210704 0.291823 74.000000
3.098913 0.201198 0.291823 59.000000
3.096531 0.191505 0.291576 54.000000
3.098099 0.182063 0.291658 53.000000
3.099638 0.172612 0.291741 45.000000
3.095177 0.162841 0.291328 46.000000
3.095662 0.153344 0.291328 40.000000
3.095122 0.143800 0.291246 59.000000
3.099532 0.134476 0.291576 49.000000
3.100925 0.125006 0.291658 47.000000
3.103286 0.115566 0.291823 55.000000
3.103626 0.106045 0.291823 53.000000
3.105929 0.096584 0.291988 46.000000
3.104218 0.086999 0.291823 46.000000
3.103474 0.077450 0.291741 45.000000
3.098716 0.067820 0.291328 39.000000
3.095920 0.058257 0.291081 49.000000
3.096084 0.048759 0.291081 57.000000
3.099209 0.039297 0.291328 53.000000
3.100311 0.029799 0.291411 47.000000
3.104374 0.020312 0.291741 40.000000
3.104422 0.010788 0.291741 57.000000
3.105437 0.001264 0.291823 51.000000
3.106423 -0.008266 0.291905 54.000000
3.109373 -0.017814 0.292153 43.000000
3.108307 -0.027344 0.292070 51.000000
3.109205 -0.036892 0.292153 52.000000
3.111070 -0.046461 0.292318 50.000000
3.110913 -0.056005 0.292318 43.000000
3.110726 -0.065549 0.292318 66.000000
3.107522 -0.075020 0.292070 57.000000
3.106281 -0.084526 0.291988 50.000000
3.106007 -0.094056 0.291988 62.000000
3.104707 -0.103551 0.291905 40.000000
3.106367 -0.113148 0.292070 64.000000
3.107001 -0.122718 0.292153 38.000000
3.109597 -0.132377 0.292400 44.000000
3.114154 -0.142144 0.292813 40.000000
3.113703 -0.151697 0.292813 46.000000
3.110237 -0.161094 0.292565 48.000000
3.109729 -0.170636 0.292565 56.000000
3.110185 -0.180233 0.292648 49.000000
3.108623 -0.189713 0.292565 41.000000
3.108026 -0.199250 0.292565 58.000000
3.108395 -0.208851 0.292648 47.000000
3.109728 -0.218526 0.292813 45.000000
3.116000 -0.228577 0.293390 46.000000
3.114290 -0.238060 0.293307 49.000000
3.114539 -0.247692 0.293390 32.000000
3.112771 -0.257164 0.293307 41.000000
3.107996 -0.266372 0.292977 31.000000
3.111135 -0.276259 0.293307 46.000000
3.098363 -0.284707 0.292318 11.000000
3.077888 0.552979 0.256479 29.000000
3.088410 0.545097 0.257115 21.000000
3.093999 0.536302 0.257397 46.000000
3.096613 0.526975 0.257468 23.000000
3.099199 0.517637 0.257539 40.000000
3.102741 0.508450 0.257680 37.000000
3.106256 0.499246 0.257821 37.000000
3.108758 0.489869 0.257892 33.000000
3.107290 0.479871 0.257680 36.000000
3.111706 0.470785 0.257892 29.000000
3.112149 0.461090 0.257821 33.000000
3.108613 0.450822 0.257468 42.000000
3.107019 0.440861 0.257256 53.000000
3.111321 0.431739 0.257468 42.000000
3.110654 0.421923 0.257327 46.000000
3.110945 0.412246 0.257256 33.000000
3.109227 0.402315 0.257044 37.000000
3.107479 0.392398 0.256832 45.000000
3.104708 0.382373 0.256550 34.000000
3.100914 0.372250 0.256197 45.000000
3.105014 0.363084 0.256409 37.000000
3.101158 0.352990 0.256056 42.000000
3.105201 0.343804 0.256267 43.000000
3.102274 0.333848 0.255985 46.000000
3.105268 0.324537 0.256126 27.000000
3.106248 0.315008 0.256126 39.000000
3.106208 0.305379 0.256056 42.000000
3.103158 0.295468 0.255773 36.000000
3.107030 0.286222 0.255985 38.000000
3.105906 0.276511 0.255844 35.000000
3.110715 0.267324 0.256126 33.000000
3.114503 0.258027 0.256338 45.000000
3.116274 0.248551 0.256409 35.000000
3.115033 0.238836 0.256267 31.000000
3.123709 0.229866 0.256832 26.000000
3.121415 0.220070 0.256621 26.000000
3.118094 0.210223 0.256338 32.000000
3.119720 0.200720 0.256409 53.000000
3.117334 0.190964 0.256197 36.000000
3.115914 0.181283 0.256056 41.000000
3.117451 0.171778 0.256126 43.000000
3.112983 0.161952 0.255773 38.000000
3.116454 0.152548 0.255985 33.000000
3.113918 0.142848 0.255773 49.000000
3.114342 0.133294 0.255773 33.000000
3.114736 0.123738 0.255773 54.000000
3.115101 0.114182 0.255773 37.000000
3.114440 0.104590 0.255702 45.000000
3.117737 0.095127 0.255914 34.000000
3.116020 0.085506 0.255773 45.000000
3.116268 0.075946 0.255773 52.000000
3.114491 0.066342 0.255632 35.000000
3.115678 0.056805 0.255702 45.000000
3.113842 0.047215 0.255561 33.000000
3.114970 0.037674 0.255632 43.000000
3.119061 0.028155 0.255914 31.000000
3.120130 0.018592 0.255985 46.000000
3.125160 0.009036 0.256338 48.000000
3.132155 -0.000551 0.256832 54.000000
3.130144 -0.010154 0.256691 37.000000
3.137081 -0.019799 0.257186 48.000000
3.137005 -0.029423 0.257186 38.000000
3.133908 -0.039011 0.256974 42.000000
3.131778 -0.048596 0.256832 54.000000
3.128623 -0.058149 0.256621 43.000000
3.126435 -0.067705 0.256479 53.000000
3.127210 -0.077321 0.256550 27.000000
3.123966 -0.086832 0.256338 50.000000
3.125679 -0.096477 0.256479 29.000000
3.124372 -0.106032 0.256409 46.000000
3.124032 -0.115617 0.256409 39.000000
3.126652 -0.125320 0.256621 33.000000
3.126253 -0.134912 0.256621 44.000000
3.125824 -0.144502 0.256621 50.000000
3.125366 -0.154092 0.256621 45.000000
3.125875 -0.163731 0.256691 42.000000
3.127350 -0.173430 0.256832 42.000000
3.128795 -0.183140 0.256974 48.000000
3.128218 -0.192738 0.256974 36.000000
3.126617 -0.202270 0.256903 35.000000
3.127972 -0.211996 0.257044 38.000000
3.124322 -0.221381 0.256832 54.000000
3.126613 -0.231185 0.257044 36.000000
3.126883 -0.240852 0.257115 31.000000
3.127124 -0.250523 0.257186 27.000000
3.121370 -0.259704 0.256832 27.000000
3.121552 -0.269365 0.256903 22.000000
3.116737 -0.278587 0.256621 13.000000
3.103948 -0.287049 0.255773 7.000000
3.520713 0.369362 0.241237 14.000000
3.496006 0.355933 0.239727 35.000000
3.456349 0.341189 0.237346 29.000000
3.501106 0.334760 0.239901 55.000000
3.466330 0.320710 0.237810 32.000000
3.474258 0.310696 0.238217 23.000000
3.432426 0.296348 0.235719 51.000000
3.347759 0.278703 0.230724 33.000000
3.376462 0.270661 0.232350 30.000000
3.343434 0.257696 0.230375 37.000000
3.247636 0.240303 0.224741 26.000000
3.225454 0.228717 0.223405 30.000000
3.261002 0.221181 0.225438 38.000000
3.214842 0.208149 0.222708 48.000000
3.198526 0.197243 0.221720 49.000000
3.200113 0.187487 0.221778 31.000000
3.191702 0.177172 0.221256 34.000000
3.201203 0.167848 0.221778 37.000000
3.202700 0.158075 0.221837 36.000000
3.209153 0.148525 0.222185 35.000000
3.173688 0.137132 0.220094 47.000000
3.191051 0.128073 0.221081 46.000000
3.181453 0.117914 0.220501 48.000000
3.172820 0.107849 0.219978 42.000000
3.185110 0.098483 0.220675 46.000000
3.159451 0.087991 0.219165 31.000000
3.157710 0.078248 0.219048 31.000000
3.168914 0.068797 0.219687 36.000000
3.185081 0.059371 0.220617 42.000000
3.158297 0.049182 0.219048 41.000000
3.175403 0.039703 0.220036 29.000000
3.176508 0.029970 0.220094 31.000000
3.156619 0.020100 0.218932 48.000000
3.155668 0.010412 0.218874 42.000000
3.157681 0.000731 0.218990 42.000000
3.151679 -0.008939 0.218642 36.000000
3.148642 -0.018590 0.218467 37.000000
3.148570 -0.028250 0.218467 52.000000
3.148468 -0.037910 0.218467 31.000000
3.145343 -0.047523 0.218293 46.000000
3.146180 -0.057191 0.218351 39.000000
3.140999 -0.066737 0.218061 43.000000
3.153754 -0.076690 0.218816 39.000000
3.154502 -0.086392 0.218874 40.000000
3.147237 -0.095856 0.218467 46.000000
3.165886 -0.106149 0.219571 26.000000
3.140604 -0.114946 0.218119 49.000000
3.141234 -0.124620 0.218177 40.000000
3.144826 -0.134428 0.218409 36.000000
3.143402 -0.144030 0.218351 41.000000
3.145936 -0.153819 0.218526 31.000000
3.147444 -0.163574 0.218642 42.000000
3.145931 -0.173175 0.218584 28.000000
3.147377 -0.182941 0.218700 30.000000
3.149791 -0.192780 0.218874 33.000000
3.149184 -0.202442 0.218874 35.000000
3.148549 -0.212103 0.218874 28.000000
3.144896 -0.221551 0.218700 35.000000
3.148184 -0.231491 0.218932 35.000000
3.146463 -0.241072 0.218874 37.000000
3.149689 -0.251042 0.219106 47.000000
3.148904 -0.260704 0.219106 26.000000
3.149084 -0.270449 0.219165 33.000000
3.136307 -0.279046 0.218467 7.000000
3.558808 0.371483 0.201062 25.000000
3.563906 0.360967 0.201247 34.000000
3.547103 0.348269 0.200415 62.000000
3.560087 0.338523 0.200970 29.000000
3.541215 0.325763 0.200045 30.000000
3.538218 0.314542 0.199860 37.000000
3.527223 0.302656 0.199305 43.000000
3.515194 0.290759 0.198704 50.000000
3.508103 0.279336 0.198334 45.000000
3.494004 0.267424 0.197641 55.000000
3.487834 0.256188 0.197317 40.000000
3.477643 0.244712 0.196808 60.000000
3.474391 0.233772 0.196624 72.000000
3.474095 0.223047 0.196577 56.000000
3.473766 0.212326 0.196531 64.000000
3.509304 0.203706 0.198149 14.000000
3.510910 0.192993 0.198195 24.000000
3.505500 0.181909 0.197918 42.000000
3.503048 0.171006 0.197779 44.000000
3.488588 0.159568 0.197086 69.000000
3.488064 0.148822 0.197040 59.000000
3.492496 0.138279 0.197225 35.000000
3.483919 0.127233 0.196808 29.000000
3.491282 0.116780 0.197132 46.000000
3.488629 0.105976 0.196993 39.000000
3.494929 0.095438 0.197271 59.000000
3.500198 0.084838 0.197502 69.000000
3.508431 0.074271 0.197872 43.000000
3.512638 0.063580 0.198057 31.000000
3.519808 0.052911 0.198380 43.000000
3.534936 0.042296 0.199074 56.000000
3.554029 0.031626 0.199952 35.000000
3.564098 0.020784 0.200415 55.000000
3.584124 0.009911 0.201339 38.000000
3.591130 -0.001085 0.201663 34.000000
3.597103 -0.012120 0.201941 51.000000
3.607038 -0.023217 0.202403 44.000000
3.571547 0.362988 0.157245 33.000000
3.560708 0.350855 0.156838 24.000000
3.559778 0.339739 0.156771 27.000000
3.554832 0.328266 0.156568 32.000000
3.542882 0.316204 0.156127 41.000000
3.530890 0.304220 0.155687 50.000000
3.527823 0.293055 0.155552 49.000000
3.511769 0.280878 0.154976 37.000000
3.505639 0.269567 0.154739 30.000000
3.464587 0.255725 0.153318 13.000000
3.491276 0.246925 0.154198 39.000000
3.480051 0.235405 0.153792 60.000000
3.474773 0.224341 0.153588 78.000000
3.472452 0.213496 0.153487 55.000000
3.470098 0.202668 0.153385 60.000000
3.457730 0.191304 0.152945 25.000000
3.459299 0.180747 0.152979 19.000000
3.467823 0.170525 0.153250 53.000000
3.462340 0.159610 0.153047 40.000000
3.468804 0.149244 0.153250 49.000000
3.470244 0.138641 0.153284 41.000000
3.473649 0.128104 0.153385 29.000000
3.480019 0.117648 0.153588 35.000000
3.484360 0.107093 0.153724 66.000000
3.491665 0.096596 0.153961 48.000000
3.491945 0.085883 0.153961 72.000000
3.503183 0.075405 0.154333 46.000000
3.531378 0.065170 0.155281 24.000000
3.523566 0.054213 0.155010 36.000000
3.538707 0.043586 0.155518 34.000000
3.544820 0.032784 0.155721 59.000000
3.571888 0.022072 0.156635 42.000000
3.605919 0.011216 0.157786 21.000000
3.602938 0.000153 0.157685 29.000000
3.613915 -0.010935 0.158057 33.000000
3.621860 -0.022072 0.158328 41.000000
3.497851 -0.032035 0.154130 7.000000
3.601558 0.366057 0.114198 12.000000
3.597689 0.354514 0.114090 11.000000
3.555966 0.339377 0.113159 31.000000
3.549026 0.327728 0.112986 35.000000
3.529104 0.314965 0.112532 48.000000
3.522085 0.303447 0.112358 51.000000
3.514033 0.291892 0.112164 44.000000
3.503950 0.280229 0.111926 42.000000
3.484857 0.267939 0.111493 82.000000
3.479680 0.256802 0.111363 71.000000
3.479454 0.246055 0.111341 38.000000
3.470218 0.234701 0.111125 57.000000
3.466931 0.223794 0.111038 56.000000
3.467602 0.213157 0.111038 63.000000
3.465245 0.202342 0.110973 97.000000
3.461857 0.191487 0.110887 125.000000
3.456438 0.180551 0.110757 59.000000
3.449986 0.169600 0.110606 56.000000
3.450490 0.159014 0.110606 51.000000
3.454956 0.148601 0.110692 57.000000
3.465385 0.138403 0.110908 50.000000
3.461797 0.127622 0.110822 60.000000
3.466169 0.117137 0.110908 62.000000
3.481502 0.106968 0.111233 38.000000
3.490808 0.096538 0.111428 42.000000
3.498084 0.086002 0.111579 26.000000
3.502330 0.075357 0.111666 20.000000
3.506542 0.064687 0.111752 37.000000
3.517720 0.054102 0.111990 28.000000
3.534865 0.043524 0.112358 30.000000
3.551977 0.032842 0.112726 39.000000
3.577054 0.022107 0.113267 24.000000
3.590102 0.011177 0.113549 19.000000
3.593119 0.000164 0.113614 22.000000
3.594102 -0.010862 0.113635 14.000000
3.576482 0.362862 0.069288 20.000000
3.582554 0.352376 0.069334 17.000000
3.567691 0.339868 0.069186 24.000000
3.557763 0.327913 0.069084 23.000000
3.541820 0.315490 0.068927 36.000000
3.528824 0.303424 0.068798 36.000000
3.519772 0.291771 0.068705 49.000000
3.511680 0.280257 0.068622 60.000000
3.506541 0.269023 0.068566 55.000000
3.497377 0.257531 0.068474 87.000000
3.493163 0.246449 0.068428 81.000000
3.486919 0.235260 0.068363 76.000000
3.485629 0.224433 0.068344 82.000000
3.480312 0.213372 0.068289 64.000000
3.470968 0.202113 0.068196 57.000000
3.463584 0.191024 0.068122 75.000000
3.459160 0.180137 0.068076 64.000000
3.456700 0.169377 0.068048 50.000000
3.454207 0.158634 0.068021 33.000000
3.465667 0.148506 0.068122 34.000000
3.467105 0.137912 0.068132 50.000000
3.472509 0.127458 0.068178 53.000000
3.478880 0.117004 0.068233 43.000000
3.482221 0.106422 0.068261 50.000000
3.491528 0.095985 0.068344 39.000000
3.502802 0.085540 0.068446 45.000000
3.511045 0.074963 0.068520 49.000000
3.515258 0.064263 0.068557 58.000000
3.524437 0.053614 0.068640 50.000000
3.535584 0.042933 0.068742 57.000000
3.548698 0.032203 0.068862 41.000000
3.589778 0.021557 0.069242 14.000000
3.584827 0.010530 0.069195 30.000000
3.564843 -0.000464 0.069010 14.000000
3.564825 -0.011401 0.069010 8.000000
3.567559 0.362591 0.024341 14.000000
3.560693 0.350857 0.024367 22.000000
3.548812 0.338692 0.024410 29.000000
3.529920 0.325957 0.024477 48.000000
3.523931 0.314501 0.024500 49.000000
3.499973 0.301534 0.024583 68.000000
3.498888 0.290629 0.024590 56.000000
3.491789 0.279253 0.024616 73.000000
3.487644 0.268154 0.024633 67.000000
3.483464 0.257083 0.024649 60.000000
3.481244 0.246182 0.024659 84.000000
3.476995 0.235161 0.024676 71.000000
3.475704 0.224364 0.024682 52.000000
3.475378 0.213638 0.024686 59.000000
3.471026 0.202681 0.024702 66.000000
3.468636 0.191864 0.024712 60.000000
3.466212 0.181064 0.024722 62.000000
3.465753 0.170380 0.024725 88.000000
3.462263 0.159561 0.024739 70.000000
3.461737 0.148895 0.024742 70.000000
3.468173 0.138515 0.024722 57.000000
3.472579 0.128023 0.024709 57.000000
3.475953 0.117471 0.024699 46.000000
3.478297 0.106868 0.024692 37.000000
3.483606 0.096337 0.024676 54.000000
3.488883 0.085773 0.024659 31.000000
3.498128 0.075266 0.024629 41.000000
3.503342 0.064627 0.024613 54.000000
3.528520 0.054271 0.024530 39.000000
3.551668 0.043736 0.024454 37.000000
3.584784 0.033156 0.024344 24.000000
3.594869 0.022223 0.024311 24.000000
3.602920 0.011221 0.024284 19.000000
3.606937 0.000169 0.024271 16.000000
3.613921 -0.010916 0.024248 20.000000
3.592979 0.365795 -0.020307 15.000000
3.580154 0.353397 -0.020087 31.000000
3.566291 0.340985 -0.019851 32.000000
3.551390 0.328570 -0.019600 32.000000
3.530471 0.315717 -0.019254 34.000000
3.514488 0.303423 -0.018987 39.000000
3.502449 0.291563 -0.018783 33.000000
3.492363 0.279939 -0.018610 40.000000
3.488221 0.268839 -0.018532 73.000000
3.486038 0.257915 -0.018485 65.000000
3.484818 0.247078 -0.018453 60.000000
3.478576 0.235912 -0.018343 66.000000
3.476291 0.225046 -0.018296 94.000000
3.467983 0.213827 -0.018155 83.000000
3.456644 0.202486 -0.017966 49.000000
3.460244 0.192046 -0.018013 92.000000
3.462814 0.181534 -0.018045 78.000000
3.463355 0.170909 -0.018045 83.000000
3.465861 0.160375 -0.018076 85.000000
3.468334 0.149827 -0.018108 72.000000
3.468778 0.139186 -0.018108 67.000000
3.472186 0.128654 -0.018155 65.000000
3.477561 0.118170 -0.018233 63.000000
3.476907 0.107470 -0.018217 81.000000
3.479220 0.096858 -0.018249 61.000000
3.488497 0.086405 -0.018390 68.000000
3.491744 0.075767 -0.018437 56.000000
3.502957 0.065257 -0.018610 46.000000
3.520137 0.054773 -0.018877 52.000000
3.561280 0.044480 -0.019521 24.000000
3.563399 0.033573 -0.019553 33.000000
3.593481 0.022828 -0.020024 25.000000
3.596534 0.011813 -0.020071 37.000000
3.611552 0.000780 -0.020307 26.000000
3.626535 -0.010344 -0.020542 26.000000
3.614488 -0.021398 -0.020354 6.000000
3.623736 0.379555 -0.064520 6.000000
3.592067 0.365090 -0.063604 19.000000
3.561337 0.350920 -0.062716 35.000000
3.541501 0.337992 -0.062134 45.000000
3.534558 0.326387 -0.061912 30.000000
3.518617 0.314025 -0.061440 35.000000
3.506617 0.302109 -0.061079 45.000000
3.492585 0.290103 -0.060663 44.000000
3.486484 0.278827 -0.060469 54.000000
3.481344 0.267667 -0.060302 43.000000
3.476167 0.256542 -0.060136 51.000000
3.473946 0.245663 -0.060053 60.000000
3.465708 0.234394 -0.059803 58.000000
3.463418 0.223566 -0.059720 53.000000
3.458101 0.212570 -0.059553 62.000000
3.455744 0.201784 -0.059470 61.000000
3.452354 0.190958 -0.059359 63.000000
3.455919 0.180523 -0.059442 74.000000
3.456456 0.169920 -0.059442 55.000000
3.457959 0.159361 -0.059470 78.000000
3.459431 0.148795 -0.059498 56.000000
3.461869 0.138261 -0.059553 43.000000
3.470268 0.127937 -0.059775 66.000000
3.476638 0.117494 -0.059942 71.000000
3.479980 0.106921 -0.060025 68.000000
3.483289 0.096328 -0.060108 46.000000
3.493561 0.085890 -0.060386 51.000000
3.502803 0.075368 -0.060635 41.000000
3.515011 0.064846 -0.060968 28.000000
3.520191 0.054140 -0.061107 32.000000
3.537332 0.043555 -0.061579 32.000000
3.562439 0.032942 -0.062272 22.000000
3.578516 0.022116 -0.062716 27.000000
3.613554 0.011258 -0.063687 12.000000
3.601576 0.000167 -0.063354 22.000000
3.616554 -0.010923 -0.063771 20.000000
3.628498 -0.022087 -0.064104 14.000000
3.565525 0.374059 -0.107802 22.000000
3.560691 0.362511 -0.107560 25.000000
3.555820 0.350997 -0.107318 22.000000
3.534998 0.337997 -0.106431 37.000000
3.530049 0.326598 -0.106189 24.000000
3.523072 0.315056 -0.105867 37.000000
3.515063 0.303473 -0.105504 51.000000
3.507016 0.291942 -0.105141 52.000000
3.499927 0.280544 -0.104819 46.000000
3.494794 0.269345 -0.104577 54.000000
3.486635 0.257959 -0.104214 42.000000
3.481430 0.246838 -0.103972 56.000000
3.479180 0.235953 -0.103852 48.000000
3.472908 0.224827 -0.103569 61.000000
3.473582 0.214171 -0.103569 57.000000
3.470232 0.203280 -0.103408 64.000000
3.468844 0.192522 -0.103328 80.000000
3.471414 0.181984 -0.103408 72.000000
3.470958 0.171283 -0.103368 74.000000
3.472465 0.160680 -0.103408 68.000000
3.474938 0.150112 -0.103489 89.000000
3.478378 0.139570 -0.103610 71.000000
3.487776 0.129230 -0.103972 53.000000
3.494148 0.118732 -0.104214 57.000000
3.498491 0.108134 -0.104375 62.000000
3.499805 0.097428 -0.104416 75.000000
3.519066 0.087159 -0.105182 45.000000
3.519317 0.076362 -0.105182 50.000000
3.531523 0.065786 -0.105665 35.000000
3.544696 0.055152 -0.106189 25.000000
3.552841 0.044376 -0.106512 23.000000
3.564950 0.033587 -0.106995 27.000000
3.586019 0.022781 -0.107842 25.000000
3.598063 0.011817 -0.108325 47.000000
3.618066 0.000781 -0.109132 30.000000
3.622048 -0.010331 -0.109293 24.000000
3.629992 -0.021491 -0.109615 21.000000
3.592941 -0.032292 -0.108124 9.000000
3.576238 0.395506 -0.151559 26.000000
3.568498 0.383569 -0.151088 34.000000
3.558733 0.371475 -0.150513 30.000000
3.550915 0.359647 -0.150041 42.000000
3.542063 0.347772 -0.149518 45.000000
3.536155 0.336240 -0.149152 38.000000
3.533191 0.325022 -0.148942 35.000000
3.523231 0.313204 -0.148367 47.000000
3.520195 0.302051 -0.148157 52.000000
3.515134 0.290754 -0.147843 55.000000
3.504064 0.279013 -0.147215 63.000000
3.500921 0.267955 -0.147006 64.000000
3.491767 0.256479 -0.146483 56.000000
3.488553 0.245483 -0.146273 57.000000
3.486301 0.234577 -0.146116 55.000000
3.484014 0.223687 -0.145959 58.000000
3.484684 0.212997 -0.145959 64.000000
3.485322 0.202305 -0.145959 58.000000
3.485926 0.191612 -0.145959 77.000000
3.487494 0.180968 -0.146012 63.000000
3.486038 0.170170 -0.145907 51.000000
3.488539 0.159566 -0.146012 45.000000
3.494001 0.149077 -0.146273 60.000000
3.497435 0.138476 -0.146430 60.000000
3.500838 0.127856 -0.146587 51.000000
3.507202 0.117317 -0.146901 44.000000
3.512536 0.106710 -0.147163 38.000000
3.516840 0.096044 -0.147372 38.000000
3.523108 0.085401 -0.147686 53.000000
3.532339 0.074785 -0.148157 45.000000
3.538543 0.064058 -0.148471 55.000000
3.551703 0.053401 -0.149152 51.000000
3.559838 0.042602 -0.149570 39.000000
3.568939 0.031764 -0.150041 40.000000
3.584998 0.020913 -0.150879 36.000000
3.595031 0.009945 -0.151402 36.000000
3.607028 -0.001084 -0.152030 26.000000
3.618992 -0.012187 -0.152658 22.000000
3.617939 -0.023284 -0.152606 16.000000
3.601658 0.377845 -0.197617 19.000000
3.589894 0.365481 -0.196776 28.000000
3.575109 0.352899 -0.195741 32.000000
3.568228 0.341170 -0.195223 33.000000
3.554353 0.328844 -0.194252 36.000000
3.543417 0.316873 -0.193476 45.000000
3.532442 0.304972 -0.192699 57.000000
3.521428 0.293141 -0.191923 77.000000
3.518332 0.282017 -0.191664 65.000000
3.509230 0.270456 -0.191017 78.000000
3.503077 0.259174 -0.190564 47.000000
3.498879 0.248073 -0.190241 56.000000
3.497632 0.237203 -0.190111 55.000000
3.493364 0.226149 -0.189788 72.000000
3.499022 0.215737 -0.190111 44.000000
3.499667 0.205001 -0.190111 46.000000
3.495298 0.193988 -0.189788 60.000000
3.498866 0.183420 -0.189982 45.000000
3.502403 0.172832 -0.190176 68.000000
3.503913 0.162132 -0.190241 57.000000
3.507385 0.151510 -0.190435 51.000000
3.509828 0.140828 -0.190564 52.000000
3.512238 0.130133 -0.190693 54.000000
3.518604 0.119560 -0.191082 41.000000
3.519952 0.108795 -0.191146 61.000000
3.524259 0.098106 -0.191405 68.000000
3.525541 0.087318 -0.191470 54.000000
3.527788 0.076545 -0.191599 45.000000
3.530002 0.065758 -0.191729 54.000000
3.530187 0.054928 -0.191729 30.000000
3.538321 0.044196 -0.192246 54.000000
3.545425 0.033406 -0.192699 41.000000
3.554492 0.022584 -0.193282 54.000000
3.570511 0.011730 -0.194317 41.000000
3.589490 0.000778 -0.195546 25.000000
3.604444 -0.010279 -0.196517 25.000000
3.615372 -0.021403 -0.197229 22.000000
3.631255 -0.032640 -0.198264 18.000000
3.602769 0.376086 -0.240698 17.000000
3.582083 0.362814 -0.239014 34.000000
3.580202 0.351529 -0.238785 35.000000
3.565382 0.339028 -0.237560 42.000000
3.554492 0.326988 -0.236641 31.000000
3.548526 0.315462 -0.236105 47.000000
3.538550 0.303632 -0.235263 53.000000
3.531516 0.292114 -0.234651 41.000000
3.531402 0.281199 -0.234575 56.000000
3.531254 0.270287 -0.234498 55.000000
3.532067 0.259452 -0.234498 60.000000
3.530857 0.248474 -0.234345 52.000000
3.531602 0.237640 -0.234345 41.000000
3.530324 0.226676 -0.234192 50.000000
3.529013 0.215722 -0.234039 81.000000
3.524681 0.204603 -0.233656 47.000000
3.484475 0.191531 -0.230518 20.000000
3.511930 0.182244 -0.232584 36.000000
3.517452 0.171714 -0.232967 51.000000
3.511987 0.160646 -0.232508 43.000000
3.510471 0.149785 -0.232355 33.000000
3.511910 0.139054 -0.232431 38.000000
3.514313 0.128353 -0.232584 36.000000
3.519673 0.117739 -0.232967 43.000000
3.517028 0.106848 -0.232737 36.000000
3.520329 0.096140 -0.232967 52.000000
3.517617 0.085266 -0.232737 34.000000
3.520853 0.074538 -0.232967 45.000000
3.520067 0.063717 -0.232891 33.000000
3.518253 0.052887 -0.232737 37.000000
3.521389 0.042130 -0.232967 40.000000
3.531472 0.031418 -0.233733 44.000000
3.539528 0.020633 -0.234345 31.000000
3.552537 0.009813 -0.235340 30.000000
3.568503 -0.001085 -0.236565 26.000000
3.600389 -0.012130 -0.239014 12.000000
3.598341 -0.023164 -0.238861 16.000000
3.599250 -0.034213 -0.238938 28.000000
3.596137 -0.045218 -0.238708 33.000000
3.584251 0.374762 -0.283408 18.000000
3.572501 0.362458 -0.282255 22.000000
3.568640 0.351009 -0.281811 33.000000
3.555818 0.338738 -0.280569 29.000000
3.552873 0.327462 -0.280214 32.000000
3.544932 0.315766 -0.279416 39.000000
3.537945 0.304207 -0.278706 40.000000
3.537869 0.293270 -0.278617 37.000000
3.541730 0.282652 -0.278884 51.000000
3.539602 0.271556 -0.278617 53.000000
3.541412 0.260768 -0.278706 58.000000
3.538220 0.249622 -0.278351 53.000000
3.538969 0.238766 -0.278351 54.000000
3.543661 0.228163 -0.278706 45.000000
3.544345 0.217290 -0.278706 47.000000
3.542011 0.206242 -0.278440 66.000000
3.540638 0.195265 -0.278262 66.000000
3.535253 0.184091 -0.277730 39.000000
3.534806 0.173196 -0.277641 28.000000
3.532336 0.162214 -0.277375 34.000000
3.534807 0.151461 -0.277553 25.000000
3.531274 0.140457 -0.277198 38.000000
3.534674 0.129732 -0.277464 36.000000
3.537047 0.118954 -0.277641 38.000000
3.536399 0.108072 -0.277553 53.000000
3.524766 0.096895 -0.276488 95.000000
3.529030 0.086177 -0.276843 55.000000
3.526290 0.075286 -0.276577 46.000000
3.525509 0.064449 -0.276488 49.000000
3.527682 0.053663 -0.276666 49.000000
3.532809 0.042900 -0.277109 50.000000
3.536909 0.032097 -0.277464 49.000000
3.539979 0.021263 -0.277730 48.000000
3.547996 0.010425 -0.278440 40.000000
3.555979 -0.000462 -0.279150 36.000000
3.556957 -0.011375 -0.279238 24.000000
3.570850 -0.022376 -0.280481 28.000000
3.573753 -0.033359 -0.280747 23.000000
3.579610 -0.044398 -0.281279 20.000000
3.588841 0.375258 -0.329381 15.000000
3.571170 0.362332 -0.327458 25.000000
