ply
format ascii 1.0
element vertex 1267
property float x
property float y
property float z
property float intensity
end_header
3.160928 0.048496 0.646471 40.000000
3.156154 0.038736 0.645519 44.000000
3.146441 0.028959 0.643614 34.000000
3.147497 0.019312 0.643805 40.000000
3.143615 0.009642 0.643043 45.000000
3.141666 -0.000003 0.642662 44.000000
3.139688 -0.009637 0.642281 41.000000
3.137681 -0.019258 0.641900 35.000000
3.138588 -0.028893 0.642090 39.000000
3.132595 -0.038451 0.640948 37.000000
3.131481 -0.048047 0.640757 64.000000
3.124448 -0.057530 0.639424 41.000000
3.120331 -0.067033 0.638662 50.000000
3.117166 -0.076534 0.638091 43.000000
3.107103 -0.085830 0.636186 39.000000
3.104863 -0.095302 0.635805 30.000000
3.104556 -0.104828 0.635805 41.000000
3.103239 -0.114316 0.635615 38.000000
3.100912 -0.123758 0.635234 51.000000
3.091690 -0.132895 0.633519 39.000000
3.086364 -0.142156 0.632567 42.000000
3.081991 -0.151433 0.631805 42.000000
3.078572 -0.160735 0.631234 31.000000
3.078064 -0.170179 0.631234 42.000000
3.072627 -0.179338 0.630281 38.000000
3.073042 -0.188823 0.630472 49.000000
3.074408 -0.198376 0.630853 34.000000
3.075744 -0.207939 0.631234 29.000000
3.080967 -0.217787 0.632377 36.000000
3.039164 -0.224221 0.624377 11.000000
3.171459 0.157089 0.609797 30.000000
3.177823 0.147632 0.610869 28.000000
3.183176 0.138094 0.611762 42.000000
3.184568 0.128367 0.611941 46.000000
3.181997 0.118487 0.611405 31.000000
3.179395 0.108624 0.610869 33.000000
3.170863 0.098595 0.609261 40.000000
3.168200 0.088784 0.608725 40.000000
3.158621 0.078820 0.606939 35.000000
3.156881 0.069086 0.606582 36.000000
3.157078 0.059401 0.606582 38.000000
3.160197 0.049761 0.607118 61.000000
3.157383 0.040028 0.606582 64.000000
3.152572 0.030294 0.605689 51.000000
3.154618 0.020635 0.606046 55.000000
3.148763 0.010937 0.604974 47.000000
3.144846 0.001275 0.604260 47.000000
3.141883 -0.008365 0.603724 40.000000
3.134955 -0.017964 0.602473 51.000000
3.134885 -0.027581 0.602473 46.000000
3.134786 -0.037199 0.602473 38.000000
3.130722 -0.046757 0.601759 48.000000
3.127613 -0.056308 0.601223 52.000000
3.121523 -0.065778 0.600151 42.000000
3.121306 -0.075354 0.600151 48.000000
3.117126 -0.084823 0.599437 34.000000
3.111934 -0.094236 0.598543 41.000000
3.110647 -0.103750 0.598365 43.000000
3.106381 -0.113149 0.597650 53.000000
3.102087 -0.122523 0.596936 42.000000
3.099730 -0.131955 0.596578 47.000000
3.092430 -0.141150 0.595328 54.000000
3.089035 -0.150492 0.594792 54.000000
3.087576 -0.159918 0.594614 52.000000
3.082158 -0.169119 0.593720 38.000000
3.081625 -0.178575 0.593720 32.000000
3.078116 -0.187848 0.593185 46.000000
3.075562 -0.197164 0.592827 38.000000
3.079851 -0.206929 0.593720 30.000000
3.082146 -0.216585 0.594256 35.000000
3.079505 -0.225895 0.593899 36.000000
3.081740 -0.235567 0.594435 43.000000
3.071195 -0.244240 0.592649 26.000000
3.032386 -0.259882 0.585861 7.000000
3.285109 0.232246 0.591124 7.000000
3.228752 0.218288 0.581441 15.000000
3.181195 0.205253 0.573261 34.000000
3.175905 0.195128 0.572259 40.000000
3.176489 0.185383 0.572259 40.000000
3.177043 0.175637 0.572259 34.000000
3.183474 0.166200 0.573261 45.000000
3.182000 0.156335 0.572927 36.000000
3.184434 0.146663 0.573261 41.000000
3.187824 0.137021 0.573762 42.000000
3.184289 0.127081 0.573094 46.000000
3.181708 0.117201 0.572593 50.000000
3.177126 0.107271 0.571759 44.000000
3.165614 0.097156 0.569755 43.000000
3.161955 0.087334 0.569088 36.000000
3.158265 0.077534 0.568420 48.000000
3.155531 0.067780 0.567919 46.000000
3.154738 0.058080 0.567752 33.000000
3.150958 0.048339 0.567084 51.000000
3.149120 0.038647 0.566750 47.000000
3.152181 0.029014 0.567251 30.000000
3.146340 0.019304 0.566250 48.000000
3.141454 0.009634 0.565415 55.000000
3.137526 -0.000005 0.564747 47.000000
3.137511 -0.009631 0.564747 41.000000
3.137467 -0.019256 0.564747 40.000000
3.135421 -0.028865 0.564413 48.000000
3.136303 -0.038495 0.564580 31.000000
3.131241 -0.048044 0.563745 36.000000
3.130093 -0.057632 0.563578 40.000000
3.127930 -0.067193 0.563245 55.000000
3.124752 -0.076718 0.562744 38.000000
3.121545 -0.086223 0.562243 49.000000
3.120281 -0.095770 0.562076 45.000000
3.118987 -0.105309 0.561909 37.000000
3.113722 -0.114698 0.561074 54.000000
3.110400 -0.124134 0.560574 46.000000
3.102124 -0.133340 0.559238 49.000000
3.092836 -0.142451 0.557736 46.000000
3.086476 -0.151651 0.556734 48.000000
3.082057 -0.160916 0.556066 42.000000
3.079580 -0.170262 0.555732 46.000000
3.070184 -0.179196 0.554230 38.000000
3.069620 -0.188614 0.554230 51.000000
3.070995 -0.198157 0.554564 40.000000
3.071356 -0.207644 0.554731 49.000000
3.075623 -0.217412 0.555565 32.000000
3.061175 -0.225836 0.553228 18.000000
3.065383 -0.235602 0.554063 43.000000
3.059731 -0.244615 0.553228 22.000000
3.070758 -0.254975 0.555231 36.000000
3.060137 -0.263553 0.553562 34.000000
3.057350 -0.272765 0.553228 19.000000
3.222541 0.268293 0.540663 29.000000
3.216455 0.257853 0.539579 44.000000
3.206397 0.247150 0.537875 38.000000
3.203198 0.237021 0.537256 38.000000
3.196027 0.226634 0.536017 43.000000
3.197693 0.216895 0.536172 48.000000
3.194400 0.206828 0.535552 54.000000
3.191075 0.196784 0.534933 42.000000
3.188705 0.186820 0.534468 47.000000
3.191236 0.177146 0.534778 51.000000
3.191765 0.167355 0.534778 45.000000
3.191276 0.157513 0.534623 58.000000
3.187797 0.147539 0.534003 51.000000
3.190208 0.137844 0.534313 67.000000
3.188642 0.127977 0.534003 50.000000
3.188032 0.118157 0.533849 50.000000
3.186405 0.108309 0.533539 50.000000
3.179810 0.098320 0.532455 44.000000
3.179109 0.088536 0.532300 44.000000
3.178378 0.078758 0.532145 57.000000
3.174654 0.068921 0.531525 44.000000
3.172875 0.059145 0.531216 59.000000
3.168103 0.049334 0.530441 55.000000
3.163300 0.039553 0.529667 61.000000
3.161431 0.029829 0.529357 43.000000
3.158543 0.020112 0.528892 60.000000
3.149699 0.010393 0.527498 51.000000
3.149716 0.000730 0.527498 47.000000
3.150691 -0.008936 0.527653 48.000000
3.146697 -0.018579 0.527034 34.000000
3.146626 -0.028233 0.527034 43.000000
3.142573 -0.037838 0.526414 50.000000
3.132564 -0.047329 0.524865 40.000000
3.133392 -0.056957 0.525020 64.000000
3.125300 -0.066401 0.523781 45.000000
3.119156 -0.075844 0.522852 45.000000
3.113971 -0.085277 0.522077 42.000000
3.112707 -0.094800 0.521923 35.000000
3.109440 -0.104250 0.521458 46.000000
3.112067 -0.113898 0.521923 57.000000
3.107754 -0.123288 0.521303 42.000000
3.103413 -0.132652 0.520683 55.000000
3.100031 -0.142037 0.520219 58.000000
3.100568 -0.151595 0.520374 46.000000
3.098114 -0.161004 0.520064 45.000000
3.095633 -0.170400 0.519754 49.000000
3.092137 -0.179724 0.519290 43.000000
3.089599 -0.189088 0.518980 46.000000
3.087033 -0.198439 0.518670 42.000000
3.086409 -0.207909 0.518670 61.000000
3.083786 -0.217238 0.518360 47.000000
3.080149 -0.226480 0.517896 40.000000
3.078454 -0.235853 0.517741 35.000000
3.077716 -0.245297 0.517741 40.000000
3.076949 -0.254738 0.517741 32.000000
3.076154 -0.264177 0.517741 29.000000
3.070408 -0.273175 0.516966 53.000000
3.069556 -0.282593 0.516966 34.000000
3.078509 -0.292946 0.518515 23.000000
3.166082 -0.311095 0.532455 7.000000
3.264198 0.332232 0.507880 30.000000
3.255353 0.321240 0.506451 44.000000
3.249427 0.310590 0.505450 39.000000
3.243466 0.299978 0.504449 41.000000
3.238457 0.289495 0.503591 40.000000
3.233413 0.279046 0.502733 48.000000
3.218474 0.267806 0.500446 62.000000
3.217307 0.257772 0.500160 27.000000
3.214135 0.247594 0.499588 53.000000
3.209945 0.237366 0.498873 44.000000
3.203748 0.227024 0.497872 44.000000
3.202454 0.217060 0.497586 47.000000
3.201130 0.207105 0.497300 32.000000
3.198786 0.197099 0.496871 48.000000
3.195424 0.187052 0.496299 54.000000
3.194007 0.177137 0.496013 61.000000
3.195523 0.167390 0.496156 42.000000
3.193056 0.157438 0.495728 49.000000
3.189570 0.147457 0.495156 46.000000
3.189018 0.137627 0.495013 53.000000
3.187448 0.127763 0.494727 63.000000
3.186836 0.117946 0.494584 44.000000
3.186193 0.108135 0.494441 51.000000
3.178596 0.098112 0.493297 45.000000
3.180861 0.088416 0.493583 46.000000
3.177160 0.078557 0.493011 49.000000
3.173428 0.068722 0.492439 36.000000
3.173624 0.058986 0.492439 30.000000
3.172800 0.049233 0.492296 36.000000
3.168978 0.039448 0.491724 42.000000
3.167104 0.029707 0.491438 41.000000
3.159263 0.019937 0.490294 49.000000
3.157330 0.010237 0.490009 43.000000
3.154377 0.000549 0.489580 42.000000
3.146446 -0.009108 0.488436 50.000000
3.145414 -0.018756 0.488293 52.000000
3.140393 -0.028363 0.487578 34.000000
3.136332 -0.037951 0.487006 39.000000
3.125316 -0.047412 0.485433 28.000000
3.125155 -0.057000 0.485433 36.000000
3.119029 -0.066463 0.484576 35.000000
3.115842 -0.075961 0.484147 44.000000
3.107679 -0.085306 0.483003 47.000000
3.106414 -0.094810 0.482860 62.000000
3.106108 -0.104339 0.482860 54.000000
3.110718 -0.114048 0.483575 43.000000
3.108376 -0.123513 0.483289 37.000000
3.105016 -0.132923 0.482860 37.000000
3.105582 -0.142493 0.483003 47.000000
3.104142 -0.151972 0.482860 35.000000
3.103661 -0.161495 0.482860 46.000000
3.102163 -0.170962 0.482717 33.000000
3.092731 -0.179964 0.481430 50.000000
3.105007 -0.190234 0.483289 22.000000
3.083667 -0.198432 0.480286 39.000000
3.079094 -0.207627 0.479714 48.000000
3.074493 -0.216796 0.479142 42.000000
3.068878 -0.225866 0.478428 33.000000
3.068171 -0.235280 0.478428 44.000000
3.066447 -0.244613 0.478285 34.000000
3.064696 -0.253939 0.478142 36.000000
3.067847 -0.263677 0.478714 36.000000
3.070967 -0.273438 0.479285 30.000000
3.068143 -0.282677 0.478999 44.000000
3.066276 -0.291995 0.478857 40.000000
3.063396 -0.301208 0.478571 52.000000
3.083136 -0.312694 0.481573 21.000000
3.092006 -0.323177 0.483003 13.000000
3.239064 0.329802 0.464461 22.000000
3.243021 0.320155 0.464855 52.000000
3.243001 0.310110 0.464724 49.000000
3.236040 0.299429 0.463675 38.000000
3.231019 0.288970 0.462889 46.000000
3.225964 0.278545 0.462103 52.000000
3.215936 0.267744 0.460661 56.000000
3.212789 0.257560 0.460137 58.000000
3.211587 0.247550 0.459875 42.000000
3.208377 0.237403 0.459351 57.000000
3.208101 0.227489 0.459220 45.000000
3.208784 0.217646 0.459220 54.000000
3.207458 0.207672 0.458958 64.000000
3.206101 0.197709 0.458695 52.000000
3.202733 0.187641 0.458171 54.000000
3.197355 0.177485 0.457385 50.000000
3.196895 0.167623 0.457254 58.000000
3.194423 0.157668 0.456861 69.000000
3.190931 0.147684 0.456337 46.000000
3.190378 0.137851 0.456206 51.000000
3.192767 0.128142 0.456468 57.000000
3.191164 0.118273 0.456206 71.000000
3.188540 0.108381 0.455812 46.000000
3.186875 0.098537 0.455550 45.000000
3.182208 0.088622 0.454895 52.000000
3.175527 0.078688 0.453978 60.000000
3.171789 0.068859 0.453454 59.000000
3.171985 0.059128 0.453454 48.000000
3.171160 0.049381 0.453323 62.000000
3.168323 0.039615 0.452929 51.000000
3.160499 0.029821 0.451881 71.000000
3.157601 0.020106 0.451488 52.000000
3.155665 0.010412 0.451226 55.000000
3.154691 0.000730 0.451095 46.000000
3.147739 -0.008928 0.450177 59.000000
3.142740 -0.018555 0.449522 49.000000
3.136720 -0.028142 0.448736 46.000000
3.134636 -0.037742 0.448474 58.000000
3.130541 -0.047298 0.447950 55.000000
3.127408 -0.056848 0.447557 38.000000
3.121271 -0.066315 0.446770 62.000000
3.116098 -0.075769 0.446115 40.000000
3.114860 -0.085302 0.445984 66.000000
3.111610 -0.094767 0.445591 53.000000
3.109324 -0.104246 0.445329 45.000000
3.109980 -0.113821 0.445460 31.000000
3.107635 -0.123283 0.445198 53.000000
3.101299 -0.132562 0.444412 47.000000
3.100878 -0.142076 0.444412 44.000000
3.097457 -0.151443 0.444018 43.000000
3.094998 -0.160842 0.443756 46.000000
3.093500 -0.170282 0.443625 43.000000
3.084056 -0.179253 0.442446 45.000000
3.080522 -0.188532 0.442053 46.000000
3.079930 -0.197982 0.442053 55.000000
3.073373 -0.207030 0.441266 52.000000
3.069757 -0.216248 0.440873 56.000000
3.069078 -0.225665 0.440873 46.000000
3.065406 -0.234852 0.440480 55.000000
3.067636 -0.244492 0.440873 51.000000
3.066872 -0.253902 0.440873 52.000000
3.068054 -0.263480 0.441135 48.000000
3.070193 -0.273156 0.441529 42.000000
3.068354 -0.282483 0.441397 39.000000
3.063525 -0.291519 0.440873 43.000000
3.062616 -0.300916 0.440873 45.000000
3.061679 -0.310311 0.440873 44.000000
3.060712 -0.319702 0.440873 40.000000
3.058731 -0.328985 0.440742 32.000000
3.089239 -0.341860 0.444936 14.000000
3.092116 -0.351785 0.445460 6.000000
3.222195 0.308542 0.421992 34.000000
3.221149 0.298471 0.421754 35.000000
3.232928 0.289565 0.423062 55.000000
3.233801 0.279645 0.423062 42.000000
3.230686 0.269391 0.422587 44.000000
3.230508 0.259399 0.422468 65.000000
3.229308 0.249333 0.422230 64.000000
3.223127 0.238908 0.421397 53.000000
3.220874 0.228806 0.421041 58.000000
3.217598 0.218653 0.420565 57.000000
3.212309 0.208393 0.419851 60.000000
3.206987 0.198167 0.419138 53.000000
3.201633 0.187976 0.418424 57.000000
3.196247 0.177819 0.417711 52.000000
3.196777 0.168012 0.417711 45.000000
3.195294 0.158105 0.417473 63.000000
3.192789 0.148162 0.417116 50.000000
3.192236 0.138323 0.416997 51.000000
3.195622 0.128650 0.417354 49.000000
3.192033 0.118696 0.416878 35.000000
3.189405 0.108800 0.416522 46.000000
3.185754 0.098889 0.416046 48.000000
3.179095 0.088918 0.415213 35.000000
3.176375 0.079089 0.414857 57.000000
3.175610 0.069322 0.414738 39.000000
3.176800 0.059598 0.414857 47.000000
3.179947 0.049899 0.415213 41.000000
3.176113 0.040092 0.414738 50.000000
3.173243 0.030318 0.414381 31.000000
3.171335 0.020568 0.414143 46.000000
3.165426 0.010816 0.413430 42.000000
3.161473 0.001102 0.412954 44.000000
3.157490 -0.008588 0.412478 58.000000
3.153477 -0.018253 0.412003 37.000000
3.151421 -0.027911 0.411765 46.000000
3.150327 -0.037568 0.411646 44.000000
3.147219 -0.047189 0.411289 56.000000
3.143088 -0.056774 0.410813 63.000000
3.134958 -0.066252 0.409862 44.000000
3.128784 -0.075728 0.409148 39.000000
3.123574 -0.085193 0.408554 51.000000
3.121313 -0.094716 0.408316 56.000000
3.115054 -0.104095 0.407602 49.000000
3.112735 -0.113580 0.407364 47.000000
3.110388 -0.123051 0.407127 56.000000
3.109003 -0.132551 0.407008 44.000000
3.105607 -0.141954 0.406651 48.000000
3.101190 -0.151289 0.406175 44.000000
3.097736 -0.160650 0.405818 53.000000
3.095246 -0.170044 0.405581 51.000000
3.091735 -0.179368 0.405224 52.000000
3.088197 -0.188672 0.404867 33.000000
3.084631 -0.197956 0.404510 53.000000
3.083019 -0.207353 0.404391 55.000000
3.080387 -0.216671 0.404154 49.000000
3.079708 -0.226121 0.404154 52.000000
3.079000 -0.235568 0.404154 44.000000
3.075294 -0.244778 0.403797 58.000000
3.071559 -0.253968 0.403440 45.000000
3.073733 -0.263643 0.403797 56.000000
3.071921 -0.272985 0.403678 46.000000
3.067114 -0.282046 0.403202 51.000000
3.062280 -0.291080 0.402726 56.000000
3.058408 -0.300184 0.402370 38.000000
3.060437 -0.309864 0.402726 42.000000
3.053546 -0.318636 0.402013 36.000000
3.046631 -0.327368 0.401299 35.000000
3.045612 -0.336714 0.401299 29.000000
3.042591 -0.345832 0.401062 35.000000
3.033626 -0.354247 0.400110 18.000000
3.228509 0.289312 0.382610 26.000000
3.227400 0.279234 0.382397 61.000000
3.232205 0.269661 0.382824 52.000000
3.228061 0.259346 0.382290 37.000000
3.222894 0.248983 0.381649 41.000000
3.221660 0.238947 0.381436 50.000000
3.220394 0.228921 0.381222 54.000000
3.217113 0.218771 0.380795 55.000000
3.214792 0.208707 0.380475 49.000000
3.211448 0.198598 0.380047 37.000000
3.213035 0.188803 0.380154 62.000000
3.209628 0.178724 0.379727 49.000000
3.206190 0.168667 0.379300 56.000000
3.205699 0.158781 0.379193 53.000000
3.202198 0.148761 0.378766 65.000000
3.192706 0.138507 0.377698 47.000000
3.192122 0.128671 0.377591 50.000000
3.186540 0.118656 0.376951 57.000000
3.184902 0.108812 0.376737 62.000000
3.185221 0.099040 0.376737 59.000000
3.179546 0.089101 0.376096 60.000000
3.179805 0.079346 0.376096 68.000000
3.181027 0.069612 0.376203 56.000000
3.181226 0.059852 0.376203 52.000000
3.178412 0.050045 0.375883 54.000000
3.175568 0.040256 0.375562 45.000000
3.170705 0.030466 0.375029 52.000000
3.168795 0.020726 0.374815 66.000000
3.162878 0.010984 0.374174 48.000000
3.155937 0.001278 0.373427 53.000000
3.154932 -0.008401 0.373320 59.000000
3.149920 -0.018051 0.372786 49.000000
3.147861 -0.027697 0.372572 59.000000
3.148756 -0.037366 0.372679 53.000000
3.146638 -0.046997 0.372466 43.000000
3.144491 -0.056614 0.372252 63.000000
3.140326 -0.066177 0.371825 51.000000
3.138120 -0.075762 0.371611 59.000000
3.134891 -0.085308 0.371291 45.000000
3.131633 -0.094835 0.370971 47.000000
3.124372 -0.104209 0.370223 38.000000
3.120063 -0.113649 0.369796 57.000000
3.118706 -0.123181 0.369689 46.000000
3.117320 -0.132706 0.369583 56.000000
3.112925 -0.142088 0.369155 56.000000
3.110488 -0.151540 0.368942 50.000000
3.107030 -0.160928 0.368621 46.000000
3.106521 -0.170459 0.368621 44.000000
3.104991 -0.179931 0.368515 49.000000
3.103432 -0.189396 0.368408 45.000000
3.099860 -0.198725 0.368088 48.000000
3.097252 -0.208101 0.367874 46.000000
3.094615 -0.217462 0.367660 43.000000
3.093933 -0.226956 0.367660 49.000000
3.090248 -0.236219 0.367340 48.000000
3.087527 -0.245541 0.367126 55.000000
3.081805 -0.254602 0.366593 49.000000
3.078037 -0.263800 0.366272 37.000000
3.074242 -0.272978 0.365952 63.000000
3.068439 -0.281953 0.365418 60.000000
3.066570 -0.291271 0.365311 52.000000
3.069620 -0.301067 0.365738 34.000000
3.064725 -0.310082 0.365311 47.000000
3.065737 -0.319690 0.365525 48.000000
3.065731 -0.329200 0.365631 32.000000
3.063718 -0.338495 0.365525 48.000000
3.057725 -0.347331 0.364991 29.000000
3.055658 -0.356595 0.364884 45.000000
3.043690 -0.364665 0.363709 51.000000
3.045517 -0.374366 0.364030 26.000000
3.029558 -0.381840 0.362428 12.000000
3.075704 -0.397252 0.367554 6.000000
3.216258 0.267621 0.342594 31.000000
3.219048 0.257912 0.342784 42.000000
3.214862 0.247650 0.342310 57.000000
3.213621 0.237639 0.342120 48.000000
3.212349 0.227637 0.341930 42.000000
3.208066 0.217442 0.341455 59.000000
3.206732 0.207470 0.341265 62.000000
3.204372 0.197446 0.340980 61.000000
3.204963 0.187614 0.340980 60.000000
3.201547 0.177558 0.340600 60.000000
3.202077 0.167735 0.340600 60.000000
3.196611 0.157614 0.340030 50.000000
3.194097 0.147668 0.339745 38.000000
3.188567 0.137608 0.339175 54.000000
3.184001 0.127624 0.338700 49.000000
3.181393 0.117743 0.338415 62.000000
3.180745 0.107948 0.338320 43.000000
3.179071 0.098127 0.338131 49.000000
3.174382 0.088233 0.337656 48.000000
3.172647 0.078444 0.337466 62.000000
3.169887 0.068644 0.337181 72.000000
3.163116 0.058787 0.336516 47.000000
3.164277 0.049098 0.336611 70.000000
3.160431 0.039339 0.336231 41.000000
3.154564 0.029584 0.335661 46.000000
3.151654 0.019886 0.335376 37.000000
3.149709 0.010210 0.335186 45.000000
3.149725 0.000547 0.335186 49.000000
3.146725 -0.009109 0.334901 50.000000
3.143697 -0.018746 0.334616 42.000000
3.140638 -0.028365 0.334331 42.000000
3.139541 -0.037989 0.334236 55.000000
3.138414 -0.047606 0.334141 69.000000
3.136262 -0.057199 0.333952 34.000000
3.135077 -0.066799 0.333857 51.000000
3.133862 -0.076393 0.333762 43.000000
3.133613 -0.086008 0.333762 43.000000
3.127364 -0.095441 0.333192 53.000000
3.128052 -0.105068 0.333287 39.000000
3.125725 -0.114592 0.333097 49.000000
3.120385 -0.123986 0.332622 60.000000
3.119990 -0.133558 0.332622 44.000000
3.116582 -0.142994 0.332337 56.000000
3.110163 -0.152265 0.331767 47.000000
3.109681 -0.161806 0.331767 52.000000
3.102212 -0.170965 0.331102 46.000000
3.096704 -0.180194 0.330627 48.000000
3.097130 -0.189754 0.330722 40.000000
3.095540 -0.199192 0.330627 34.000000
3.088955 -0.208288 0.330057 47.000000
3.087308 -0.217694 0.329962 43.000000
3.084640 -0.227020 0.329773 56.000000
3.081944 -0.236331 0.329583 41.000000
3.077235 -0.245470 0.329203 45.000000
3.072499 -0.254582 0.328823 46.000000
3.068728 -0.263753 0.328538 66.000000
3.063938 -0.272814 0.328158 42.000000
3.061104 -0.282031 0.327968 39.000000
3.061215 -0.291515 0.328063 47.000000
3.060306 -0.300906 0.328063 59.000000
3.056398 -0.309993 0.327778 45.000000
3.052462 -0.319059 0.327493 51.000000
3.050479 -0.328316 0.327398 49.000000
3.048468 -0.337564 0.327303 53.000000
3.049396 -0.347140 0.327493 59.000000
3.045350 -0.356148 0.327208 50.000000
3.044243 -0.365489 0.327208 38.000000
3.049036 -0.375555 0.327778 49.000000
3.050833 -0.385280 0.328063 32.000000
3.044700 -0.394001 0.327588 37.000000
3.211225 0.238174 0.301306 42.000000
3.212935 0.228392 0.301388 51.000000
3.210637 0.218331 0.301141 37.000000
3.212287 0.208545 0.301224 44.000000
3.208933 0.198443 0.300894 53.000000
3.207537 0.188480 0.300729 66.000000
3.205115 0.178473 0.300481 59.000000
3.204652 0.168587 0.300399 58.000000
3.200177 0.158508 0.299987 54.000000
3.198657 0.148597 0.299822 49.000000
3.198102 0.138740 0.299739 53.000000
3.196521 0.128848 0.299574 46.000000
3.193914 0.118930 0.299327 56.000000
3.191276 0.109028 0.299080 55.000000
3.187611 0.099114 0.298750 59.000000
3.184911 0.089251 0.298502 57.000000
3.177200 0.079281 0.297843 51.000000
3.171450 0.069403 0.297348 57.000000
3.169655 0.059636 0.297183 45.000000
3.170819 0.049927 0.297265 43.000000
3.172951 0.040223 0.297430 58.000000
3.168076 0.030441 0.297018 40.000000
3.164169 0.020696 0.296688 48.000000
3.168204 0.011002 0.297018 49.000000
3.168222 0.001282 0.297018 47.000000
3.162232 -0.008421 0.296523 46.000000
3.156212 -0.018088 0.296029 71.000000
3.153152 -0.027744 0.295781 68.000000
3.147073 -0.037346 0.295286 74.000000
3.136978 -0.046851 0.294462 40.000000
3.139809 -0.056529 0.294709 43.000000
3.133643 -0.066035 0.294214 57.000000
3.134422 -0.075673 0.294297 48.000000
3.134175 -0.085289 0.294297 47.000000
3.131906 -0.094843 0.294132 42.000000
3.131600 -0.104451 0.294132 43.000000
3.133257 -0.114131 0.294297 43.000000
3.126917 -0.123507 0.293802 66.000000
3.123537 -0.132972 0.293555 48.000000
3.120127 -0.142417 0.293307 61.000000
3.116689 -0.151843 0.293060 51.000000
3.113223 -0.161249 0.292813 44.000000
3.109729 -0.170636 0.292565 44.000000
3.101231 -0.179713 0.291905 45.000000
3.104644 -0.189470 0.292235 43.000000
3.099075 -0.198675 0.291823 67.000000
3.096463 -0.208048 0.291658 54.000000
3.095810 -0.217547 0.291658 54.000000
3.093140 -0.226897 0.291493 56.000000
3.091435 -0.236310 0.291411 48.000000
3.087716 -0.245556 0.291163 48.000000
3.081982 -0.254617 0.290751 44.000000
3.080193 -0.263986 0.290669 52.000000
3.077384 -0.273258 0.290504 46.000000
3.071569 -0.282241 0.290091 59.000000
3.067712 -0.291380 0.289844 49.000000
3.065812 -0.300693 0.289762 39.000000
3.064875 -0.310097 0.289762 49.000000
3.060935 -0.319188 0.289514 58.000000
3.055978 -0.328151 0.289184 46.000000
3.049014 -0.336868 0.288690 54.000000
3.045986 -0.345996 0.288525 41.000000
3.039960 -0.354761 0.288112 55.000000
3.035889 -0.363729 0.287865 51.000000
3.032781 -0.372798 0.287700 51.000000
3.027668 -0.381602 0.287370 48.000000
3.029448 -0.391272 0.287618 43.000000
3.029221 -0.400696 0.287700 47.000000
3.026990 -0.409853 0.287618 44.000000
3.017821 -0.418043 0.286958 19.000000
2.997777 -0.424642 0.285391 6.000000
3.196040 0.225359 0.261918 12.000000
3.212640 0.216633 0.263048 28.000000
3.215280 0.206904 0.263189 33.000000
3.212913 0.196855 0.262977 30.000000
3.213502 0.186997 0.262977 51.000000
3.210077 0.176916 0.262694 42.000000
3.208612 0.166962 0.262553 57.000000
3.211102 0.157216 0.262694 51.000000
3.207583 0.147179 0.262412 53.000000
3.207023 0.137295 0.262341 60.000000
3.204439 0.127335 0.262129 53.000000
3.200828 0.117356 0.261847 59.000000
3.200176 0.107502 0.261776 44.000000
3.193511 0.097468 0.261282 48.000000
3.188809 0.087531 0.260929 49.000000
3.185074 0.077649 0.260646 51.000000
3.178317 0.067725 0.260152 59.000000
3.174520 0.057900 0.259869 41.000000
3.169696 0.048083 0.259516 41.000000
3.163844 0.038284 0.259092 29.000000
3.163946 0.028577 0.259092 38.000000
3.162024 0.018857 0.258951 42.000000
3.160072 0.009150 0.258810 52.000000
3.159088 -0.000546 0.258739 51.000000
3.154084 -0.010223 0.258386 39.000000
3.153040 -0.019894 0.258316 42.000000
3.149972 -0.029540 0.258104 37.000000
3.145877 -0.039156 0.257821 52.000000
3.140755 -0.048732 0.257468 36.000000
3.140591 -0.058367 0.257468 36.000000
3.140397 -0.068002 0.257468 31.000000
3.141171 -0.077660 0.257539 37.000000
3.137926 -0.087215 0.257327 50.000000
3.134653 -0.096750 0.257115 44.000000
3.130353 -0.106233 0.256832 45.000000
3.128019 -0.115763 0.256691 48.000000
3.120672 -0.125082 0.256197 47.000000
3.114294 -0.134400 0.255773 40.000000
3.113867 -0.143954 0.255773 39.000000
3.110422 -0.153360 0.255561 45.000000
3.105952 -0.162695 0.255279 47.000000
3.109422 -0.172443 0.255561 48.000000
3.105891 -0.181808 0.255349 49.000000
3.107310 -0.191457 0.255490 41.000000
3.102726 -0.200734 0.255208 50.000000
3.095129 -0.209782 0.254714 45.000000
3.091486 -0.219066 0.254502 54.000000
3.092789 -0.228696 0.254643 48.000000
3.084116 -0.237574 0.254078 53.000000
3.079395 -0.246718 0.253795 56.000000
3.078624 -0.256164 0.253795 38.000000
3.075836 -0.265437 0.253654 53.000000
3.073020 -0.274695 0.253513 47.000000
3.071169 -0.284030 0.253442 41.000000
3.064325 -0.292884 0.253019 59.000000
3.064405 -0.302382 0.253089 57.000000
3.063463 -0.311782 0.253089 41.000000
3.055547 -0.320453 0.252595 54.000000
3.053558 -0.329719 0.252524 53.000000
3.052532 -0.339086 0.252524 48.000000
3.048504 -0.348111 0.252312 56.000000
3.045440 -0.357230 0.252171 49.000000
3.050272 -0.367285 0.252595 28.000000
3.041211 -0.375666 0.252030 40.000000
3.039055 -0.384870 0.251959 45.000000
3.040827 -0.394575 0.252171 28.000000
3.029714 -0.402593 0.251465 39.000000
3.031430 -0.412288 0.251677 33.000000
3.032127 -0.421860 0.251818 38.000000
3.025880 -0.430460 0.251465 32.000000
3.062058 -0.445181 0.254149 18.000000
3.111988 -0.462174 0.257821 6.000000
3.216461 0.198347 0.222766 42.000000
3.217055 0.188478 0.222766 43.000000
3.214628 0.178442 0.222592 36.000000
3.215160 0.168578 0.222592 72.000000
3.211674 0.158517 0.222359 47.000000
3.209153 0.148525 0.222185 45.000000
3.206602 0.138550 0.222011 56.000000
3.204019 0.128592 0.221837 59.000000
3.201406 0.118651 0.221662 66.000000
3.196766 0.108660 0.221372 61.000000
3.196087 0.098821 0.221314 50.000000
3.196374 0.089015 0.221314 65.000000
3.196633 0.079208 0.221314 69.000000
3.193866 0.069336 0.221139 68.000000
3.189074 0.059445 0.220849 66.000000
3.185248 0.049599 0.220617 52.000000
3.179396 0.039752 0.220268 60.000000
3.173513 0.029942 0.219920 57.000000
3.167600 0.020168 0.219571 62.000000
3.164653 0.010440 0.219397 61.000000
3.162673 0.000731 0.219281 58.000000
3.161662 -0.008969 0.219223 55.000000
3.160621 -0.018663 0.219165 49.000000
3.161547 -0.028368 0.219223 40.000000
3.158451 -0.038031 0.219048 63.000000
3.154326 -0.047660 0.218816 52.000000
3.150173 -0.057264 0.218584 50.000000
3.148984 -0.066907 0.218526 51.000000
3.145770 -0.076495 0.218351 52.000000
3.142527 -0.086063 0.218177 55.000000
3.138257 -0.095582 0.217945 60.000000
3.132960 -0.105041 0.217654 58.000000
3.131625 -0.114616 0.217596 54.000000
3.125274 -0.123985 0.217248 56.000000
3.118894 -0.133316 0.216899 34.000000
3.116476 -0.142792 0.216783 55.000000
3.112035 -0.152158 0.216551 55.000000
3.110556 -0.161652 0.216493 52.000000
3.109049 -0.171140 0.216434 59.000000
3.105519 -0.180503 0.216260 48.000000
3.107940 -0.190213 0.216434 55.000000
3.105350 -0.199619 0.216318 47.000000
3.097750 -0.208675 0.215912 60.000000
3.096100 -0.218107 0.215854 56.000000
3.093425 -0.227458 0.215737 59.000000
3.086740 -0.236489 0.215389 58.000000
3.086000 -0.245958 0.215389 51.000000
3.082246 -0.255177 0.215215 52.000000
3.079460 -0.264461 0.215098 48.000000
3.080622 -0.274085 0.215215 48.000000
3.075791 -0.283168 0.214982 63.000000
3.073914 -0.292508 0.214924 44.000000
3.076976 -0.302329 0.215157 56.000000
3.070074 -0.311163 0.214808 46.000000
3.068113 -0.320476 0.214750 43.000000
3.062152 -0.329353 0.214460 43.000000
3.060135 -0.338636 0.214401 51.000000
3.056106 -0.347684 0.214227 43.000000
3.054033 -0.356942 0.214169 55.000000
3.048959 -0.365834 0.213937 50.000000
3.051786 -0.375675 0.214169 54.000000
3.049628 -0.384911 0.214111 59.000000
3.046453 -0.394009 0.213995 57.000000
3.042261 -0.402960 0.213821 53.000000
3.036064 -0.411620 0.213530 45.000000
3.031821 -0.420521 0.213356 43.000000
3.027551 -0.429399 0.213182 45.000000
3.019304 -0.437682 0.212775 46.000000
3.013997 -0.446358 0.212543 47.000000
3.017549 -0.456349 0.212833 42.000000
3.044745 -0.470026 0.214518 13.000000
3.200716 0.175839 0.183816 27.000000
3.198248 0.165862 0.183678 36.000000
3.200737 0.156148 0.183770 44.000000
3.196212 0.146097 0.183539 28.000000
3.197643 0.136334 0.183585 40.000000
3.196050 0.126443 0.183493 43.000000
3.194426 0.116564 0.183400 34.000000
3.188778 0.106560 0.183123 54.000000
3.188092 0.096746 0.183077 34.000000
3.190371 0.087020 0.183169 51.000000
3.186629 0.077133 0.182984 36.000000
3.183854 0.067292 0.182846 45.000000
3.185044 0.057542 0.182892 44.000000
3.182209 0.047725 0.182753 36.000000
3.179344 0.037925 0.182614 40.000000
3.174451 0.028124 0.182383 53.000000
3.169528 0.018354 0.182152 36.000000
3.164575 0.008615 0.181921 31.000000
3.164586 -0.001094 0.181921 43.000000
3.158574 -0.010785 0.181643 37.000000
3.154531 -0.020451 0.181459 30.000000
3.154453 -0.030128 0.181459 43.000000
3.152348 -0.039781 0.181366 40.000000
3.150214 -0.049422 0.181274 43.000000
3.149048 -0.059068 0.181227 46.000000
3.148853 -0.068729 0.181227 46.000000
3.146630 -0.078340 0.181135 45.000000
3.143379 -0.087911 0.180996 49.000000
3.142096 -0.097524 0.180950 51.000000
3.138787 -0.107062 0.180811 49.000000
3.133452 -0.116507 0.180580 37.000000
3.130085 -0.126001 0.180441 33.000000
3.122698 -0.135303 0.180118 61.000000
3.118277 -0.144699 0.179933 53.000000
3.111832 -0.153971 0.179655 46.000000
3.109350 -0.163413 0.179563 48.000000
3.107836 -0.172897 0.179517 48.000000
3.105297 -0.182314 0.179424 43.000000
3.106717 -0.191963 0.179517 43.000000
3.105117 -0.201429 0.179470 47.000000
3.100497 -0.210685 0.179285 40.000000
3.099837 -0.220196 0.179285 41.000000
3.094165 -0.229338 0.179054 36.000000
3.088467 -0.238447 0.178823 49.000000
3.083738 -0.247603 0.178638 52.000000
3.080973 -0.256897 0.178546 40.000000
3.078180 -0.266177 0.178453 44.000000
3.075359 -0.275442 0.178361 47.000000
3.071515 -0.284600 0.178222 36.000000
3.066650 -0.293643 0.178037 40.000000
3.063746 -0.302854 0.177945 50.000000
3.054852 -0.311444 0.177575 44.000000
3.048915 -0.320295 0.177344 45.000000
3.044938 -0.329326 0.177205 47.000000
3.043913 -0.338667 0.177205 42.000000
3.042860 -0.348004 0.177205 54.000000
3.044755 -0.357686 0.177344 46.000000
3.044635 -0.367145 0.177390 42.000000
3.046468 -0.376850 0.177529 37.000000
3.043315 -0.385945 0.177436 57.000000
3.040136 -0.395023 0.177344 49.000000
3.032968 -0.403560 0.177066 33.000000
3.033696 -0.413132 0.177159 55.000000
3.028456 -0.421887 0.176974 50.000000
3.029125 -0.431457 0.177066 33.000000
3.024822 -0.440318 0.176928 57.000000
3.026421 -0.450035 0.177066 30.000000
3.020088 -0.458570 0.176835 35.000000
3.020641 -0.468139 0.176928 36.000000
3.015244 -0.476781 0.176743 34.000000
3.020671 -0.487140 0.177066 11.000000
3.186323 0.156714 0.143703 15.000000
3.206756 0.147856 0.144380 41.000000
3.206196 0.137975 0.144347 45.000000
3.202610 0.127978 0.144211 48.000000
3.197994 0.117969 0.144042 32.000000
3.200339 0.108224 0.144110 45.000000
3.199656 0.098375 0.144076 42.000000
3.196946 0.088475 0.143974 42.000000
3.190208 0.078495 0.143737 36.000000
3.186437 0.068622 0.143602 55.000000
3.188632 0.058882 0.143670 58.000000
3.184800 0.049039 0.143534 48.000000
3.176941 0.039170 0.143263 57.000000
3.172049 0.029377 0.143094 49.000000
3.167127 0.019615 0.142925 64.000000
3.168172 0.009901 0.142959 72.000000
3.166188 0.000182 0.142891 45.000000
3.157179 -0.009504 0.142586 51.000000
3.157135 -0.019190 0.142586 48.000000
3.155063 -0.028857 0.142519 50.000000
3.150962 -0.038487 0.142383 58.000000
3.148830 -0.048123 0.142315 45.000000
3.145670 -0.057728 0.142214 50.000000
3.140482 -0.067271 0.142045 50.000000
3.140261 -0.076906 0.142045 56.000000
3.139011 -0.086512 0.142011 52.000000
3.138731 -0.096142 0.142011 50.000000
3.138422 -0.105771 0.142011 46.000000
3.136085 -0.115325 0.141943 57.000000
3.133719 -0.124866 0.141875 49.000000
3.131324 -0.134394 0.141808 48.000000
3.125905 -0.143770 0.141638 55.000000
3.119460 -0.153065 0.141435 48.000000
3.117978 -0.162582 0.141401 50.000000
3.119460 -0.172257 0.141469 53.000000
3.119915 -0.181885 0.141503 45.000000
3.117347 -0.191334 0.141435 62.000000
3.113753 -0.200703 0.141334 61.000000
3.110132 -0.210053 0.141232 47.000000
3.106481 -0.219382 0.141131 42.000000
3.099813 -0.228470 0.140927 44.000000
3.090130 -0.237289 0.140623 43.000000
3.089387 -0.246768 0.140623 67.000000
3.083636 -0.255832 0.140454 48.000000
3.084828 -0.265462 0.140521 58.000000
3.083999 -0.274925 0.140521 44.000000
3.077170 -0.283834 0.140318 57.000000
3.080264 -0.293653 0.140454 41.000000
3.078354 -0.303004 0.140420 44.000000
3.073432 -0.312043 0.140284 57.000000
3.070473 -0.321262 0.140217 57.000000
3.065498 -0.330252 0.140081 45.000000
3.057517 -0.338884 0.139844 58.000000
3.057456 -0.348376 0.139878 52.000000
3.050417 -0.357056 0.139675 57.000000
3.045338 -0.365936 0.139540 47.000000
3.041225 -0.374910 0.139438 46.000000
3.033120 -0.383360 0.139201 56.000000
3.033912 -0.392921 0.139269 61.000000
3.031702 -0.402095 0.139235 45.000000
3.030453 -0.411394 0.139235 45.000000
3.026207 -0.420277 0.139133 52.000000
3.022925 -0.429278 0.139066 50.000000
3.020605 -0.438407 0.139032 55.000000
3.021223 -0.447965 0.139099 52.000000
3.014893 -0.456483 0.138930 52.000000
3.014466 -0.465883 0.138964 42.000000
3.009074 -0.474506 0.138829 47.000000
3.010564 -0.484212 0.138930 43.000000
3.010051 -0.493608 0.138964 42.000000
3.019365 -0.504654 0.139336 32.000000
3.098591 -0.527683 0.142112 7.000000
3.370056 0.144920 0.108853 16.000000
3.246614 0.129592 0.106169 30.000000
3.223019 0.118738 0.105650 44.000000
3.223368 0.108850 0.105650 37.000000
3.211695 0.098588 0.105390 25.000000
3.192994 0.088202 0.104979 32.000000
3.187253 0.078257 0.104849 38.000000
3.182481 0.068369 0.104741 53.000000
3.178677 0.058529 0.104654 40.000000
3.174843 0.048714 0.104568 46.000000
3.170979 0.038923 0.104481 37.000000
3.169084 0.029176 0.104438 42.000000
3.166159 0.019433 0.104373 43.000000
3.166204 0.009720 0.104373 44.000000
3.164219 0.000005 0.104330 32.000000
3.162205 -0.009697 0.104287 34.000000
3.161161 -0.019393 0.104265 39.000000
3.156088 -0.029047 0.104157 43.000000
3.152985 -0.038694 0.104092 44.000000
3.147853 -0.048292 0.103984 43.000000
3.144691 -0.057895 0.103919 49.000000
3.139501 -0.067437 0.103810 53.000000
3.138280 -0.077045 0.103789 44.000000
3.136030 -0.086618 0.103746 61.000000
3.136749 -0.096269 0.103767 51.000000
3.133441 -0.105792 0.103702 30.000000
3.132102 -0.115368 0.103681 54.000000
3.128737 -0.124858 0.103616 44.000000
3.126342 -0.134372 0.103572 44.000000
3.121920 -0.143780 0.103486 50.000000
3.119467 -0.153260 0.103443 34.000000
3.116985 -0.162726 0.103399 42.000000
3.117469 -0.172343 0.103421 49.000000
3.118922 -0.182022 0.103464 35.000000
3.115355 -0.191407 0.103399 44.000000
3.112758 -0.200836 0.103356 65.000000
3.108137 -0.210117 0.103269 47.000000
3.101494 -0.219231 0.103140 45.000000
3.093827 -0.228232 0.102988 43.000000
3.085138 -0.237113 0.102815 50.000000
3.078416 -0.246101 0.102685 37.000000
3.078643 -0.255627 0.102707 36.000000
3.076848 -0.264986 0.102685 33.000000
3.076020 -0.274424 0.102685 42.000000
3.073173 -0.283677 0.102642 42.000000
3.070297 -0.292915 0.102599 58.000000
3.070379 -0.302430 0.102620 32.000000
3.065458 -0.311446 0.102534 41.000000
3.059516 -0.320331 0.102425 49.000000
3.058519 -0.329716 0.102425 49.000000
3.054512 -0.338768 0.102361 56.000000
3.054452 -0.348250 0.102382 44.000000
3.052376 -0.357504 0.102361 37.000000
3.048287 -0.366510 0.102296 38.000000
3.047148 -0.375860 0.102296 52.000000
3.043997 -0.384957 0.102252 49.000000
3.044785 -0.394550 0.102296 39.000000
3.037613 -0.403102 0.102166 51.000000
3.036362 -0.412420 0.102166 34.000000
3.032111 -0.421322 0.102101 56.000000
3.028825 -0.430342 0.102058 53.000000
3.026501 -0.439489 0.102036 51.000000
3.023160 -0.448479 0.101993 38.000000
3.022759 -0.457901 0.102014 46.000000
3.024304 -0.467630 0.102079 35.000000
3.020880 -0.476595 0.102036 31.000000
3.021378 -0.486178 0.102079 39.000000
3.012965 -0.494315 0.101928 40.000000
3.010449 -0.503392 0.101906 33.000000
3.005933 -0.512122 0.101841 40.000000
3.009273 -0.522195 0.101949 27.000000
3.489169 0.160236 0.068344 6.000000
3.483650 0.149274 0.068289 16.000000
3.413150 0.135772 0.067632 46.000000
3.377576 0.123984 0.067299 38.000000
3.292992 0.110773 0.066513 39.000000
3.260333 0.099666 0.066208 49.000000
3.225639 0.088705 0.065884 44.000000
3.203903 0.078274 0.065680 40.000000
3.190131 0.068147 0.065551 54.000000
3.179328 0.058159 0.065449 48.000000
3.178492 0.048390 0.065440 50.000000
3.180625 0.038662 0.065458 57.000000
3.175729 0.028859 0.065412 51.000000
3.173803 0.019104 0.065394 53.000000
3.171846 0.009362 0.065375 46.000000
3.170860 -0.000369 0.065366 46.000000
3.166844 -0.010084 0.065329 53.000000
3.166798 -0.019800 0.065329 63.000000
3.164723 -0.029496 0.065310 55.000000
3.164618 -0.039206 0.065310 46.000000
3.163483 -0.048899 0.065301 50.000000
3.160318 -0.058548 0.065273 56.000000
3.155125 -0.068135 0.065227 48.000000
3.153902 -0.077789 0.065218 62.000000
3.147651 -0.087298 0.065162 53.000000
3.141371 -0.096769 0.065107 67.000000
3.140060 -0.106372 0.065098 64.000000
3.135722 -0.115857 0.065061 58.000000
3.131355 -0.125316 0.065024 52.000000
3.127959 -0.134793 0.064996 55.000000
3.124534 -0.144250 0.064968 57.000000
3.120082 -0.153638 0.064931 42.000000
3.116600 -0.163053 0.064903 62.000000
3.113090 -0.172447 0.064876 55.000000
3.113544 -0.182056 0.064885 49.000000
3.112971 -0.191607 0.064885 52.000000
3.112369 -0.201157 0.064885 48.000000
3.111737 -0.210704 0.064885 56.000000
3.108083 -0.220038 0.064857 53.000000
3.106396 -0.229498 0.064848 50.000000
3.104681 -0.238951 0.064839 54.000000
3.096956 -0.247915 0.064774 51.000000
3.094188 -0.257249 0.064755 53.000000
3.090395 -0.266483 0.064728 36.000000
3.086575 -0.275696 0.064700 58.000000
3.084719 -0.285072 0.064691 34.000000
3.079848 -0.294153 0.064654 55.000000
3.073956 -0.303109 0.064607 48.000000
3.073011 -0.312539 0.064607 45.000000
3.069054 -0.321652 0.064580 50.000000
3.064077 -0.330637 0.064543 51.000000
3.059072 -0.339594 0.064506 68.000000
3.056029 -0.348750 0.064487 53.000000
3.049979 -0.357542 0.064441 61.000000
3.046882 -0.366658 0.064422 65.000000
3.045743 -0.376004 0.064422 48.000000
3.046559 -0.385598 0.064441 40.000000
3.048337 -0.395329 0.064469 45.000000
3.047110 -0.404679 0.064469 52.000000
3.043872 -0.413756 0.064450 56.000000
3.042588 -0.423093 0.064450 58.000000
3.036326 -0.431721 0.064404 63.000000
3.030039 -0.440314 0.064358 46.000000
3.021751 -0.448580 0.064293 53.000000
3.011462 -0.456498 0.064210 45.000000
3.014000 -0.466347 0.064247 55.000000
3.010580 -0.475280 0.064228 39.000000
3.010095 -0.484673 0.064237 41.000000
3.011554 -0.494392 0.064265 35.000000
3.008051 -0.503298 0.064247 40.000000
3.004521 -0.512188 0.064228 47.000000
3.011802 -0.522944 0.064311 36.000000
3.014122 -0.532879 0.064348 32.000000
2.999680 -0.539819 0.064228 46.000000
2.967519 -0.543432 0.063941 7.000000
3.475249 0.160164 0.024696 14.000000
3.474725 0.149458 0.024699 22.000000
3.473169 0.138716 0.024706 30.000000
3.444598 0.126982 0.024802 33.000000
3.413990 0.115356 0.024905 31.000000
3.382343 0.103888 0.025011 44.000000
3.306676 0.091384 0.025263 32.000000
3.255957 0.079969 0.025432 34.000000
3.234193 0.069499 0.025505 26.000000
3.205396 0.059031 0.025601 28.000000
3.191564 0.048977 0.025647 35.000000
3.186699 0.039122 0.025664 39.000000
3.173805 0.029221 0.025707 52.000000
3.171880 0.019470 0.025714 47.000000
3.169925 0.009732 0.025720 43.000000
3.161940 0.000004 0.025747 52.000000
3.157925 -0.009686 0.025760 47.000000
3.155880 -0.019363 0.025767 49.000000
3.154806 -0.029036 0.025770 60.000000
3.157702 -0.038750 0.025760 46.000000
3.155569 -0.048408 0.025767 37.000000
3.153405 -0.058053 0.025773 46.000000
3.154212 -0.067748 0.025770 42.000000
3.153990 -0.077425 0.025770 24.000000
3.150738 -0.087019 0.025780 45.000000
3.147458 -0.096594 0.025790 52.000000
3.146147 -0.106216 0.025793 44.000000
3.138811 -0.115613 0.025816 53.000000
3.138442 -0.125242 0.025816 47.000000
3.129051 -0.134487 0.025846 42.000000
3.126626 -0.143995 0.025853 37.000000
3.123173 -0.153441 0.025863 52.000000
3.119691 -0.162866 0.025873 47.000000
3.118179 -0.172382 0.025876 45.000000
3.119632 -0.182063 0.025870 53.000000
3.119059 -0.191633 0.025870 49.000000
3.116460 -0.201073 0.025876 42.000000
3.113833 -0.210500 0.025883 45.000000
3.108185 -0.219701 0.025899 56.000000
3.106499 -0.229162 0.025903 37.000000
3.097805 -0.238082 0.025929 43.000000
3.092075 -0.247188 0.025946 44.000000
3.088313 -0.256426 0.025956 47.000000
3.088508 -0.265985 0.025952 58.000000
3.088673 -0.275548 0.025949 45.000000
3.090801 -0.285297 0.025939 47.000000
3.087920 -0.294589 0.025946 48.000000
3.086006 -0.303964 0.025949 40.000000
3.088044 -0.313732 0.025939 44.000000
3.086072 -0.323101 0.025942 36.000000
3.077112 -0.331713 0.025969 52.000000
3.071110 -0.340602 0.025986 37.000000
3.063096 -0.349233 0.026009 63.000000
3.059030 -0.358281 0.026019 51.000000
3.056924 -0.367545 0.026022 62.000000
3.052804 -0.376555 0.026032 66.000000
3.046674 -0.385294 0.026049 39.000000
3.047461 -0.394896 0.026042 32.000000
3.049209 -0.404637 0.026032 29.000000
3.042999 -0.413319 0.026049 40.000000
3.039735 -0.422378 0.026055 32.000000
3.037435 -0.431561 0.026059 41.000000
3.030159 -0.440018 0.026078 42.000000
3.026816 -0.449020 0.026085 46.000000
3.022458 -0.457856 0.026095 41.000000
3.021039 -0.467126 0.026095 36.000000
3.012677 -0.475304 0.026118 37.000000
3.078344 -0.495322 0.025893 17.000000
3.512290 0.173318 -0.018814 10.000000
3.500819 0.161989 -0.018626 19.000000
3.482320 0.150430 -0.018327 34.000000
3.477769 0.139546 -0.018249 30.000000
3.455199 0.128026 -0.017888 40.000000
3.444584 0.117053 -0.017715 51.000000
3.427937 0.105961 -0.017448 53.000000
3.410255 0.094945 -0.017165 59.000000
3.392538 0.084039 -0.016882 67.000000
3.323804 0.072141 -0.015799 56.000000
3.255030 0.060666 -0.014715 45.000000
3.222209 0.050170 -0.014196 40.000000
3.205351 0.040073 -0.013929 53.000000
3.189461 0.030090 -0.013678 56.000000
3.181540 0.020255 -0.013552 35.000000
3.177588 0.010482 -0.013490 50.000000
3.173606 0.000732 -0.013427 67.000000
3.172593 -0.009001 -0.013411 52.000000
3.170551 -0.018722 -0.013380 70.000000
3.166479 -0.028413 -0.013317 75.000000
3.163378 -0.038091 -0.013270 61.000000
3.160247 -0.047750 -0.013223 58.000000
3.157086 -0.057391 -0.013175 62.000000
3.156895 -0.067076 -0.013175 44.000000
3.149678 -0.076590 -0.013065 52.000000
3.147429 -0.086198 -0.013034 47.000000
3.148149 -0.095884 -0.013050 51.000000
3.148839 -0.105576 -0.013065 44.000000
3.145503 -0.115126 -0.013018 50.000000
3.142138 -0.124656 -0.012971 49.000000
3.135747 -0.134039 -0.012877 64.000000
3.138317 -0.143796 -0.012924 55.000000
3.135864 -0.153326 -0.012893 59.000000
3.131385 -0.162737 -0.012830 49.000000
3.129872 -0.172289 -0.012814 54.000000
3.129329 -0.181890 -0.012814 49.000000
3.127758 -0.191429 -0.012798 47.000000
3.127156 -0.201024 -0.012798 51.000000
3.118544 -0.210078 -0.012673 44.000000
3.114892 -0.219433 -0.012626 70.000000
3.110216 -0.228695 -0.012563 60.000000
3.103518 -0.237777 -0.012469 52.000000
3.098787 -0.246979 -0.012406 52.000000
3.094029 -0.256154 -0.012343 61.000000
3.088248 -0.265217 -0.012264 73.000000
3.086423 -0.274602 -0.012249 59.000000
3.088553 -0.284345 -0.012296 64.000000
3.087667 -0.293819 -0.012296 48.000000
3.085755 -0.303192 -0.012280 68.000000
3.084811 -0.312658 -0.012280 61.000000
3.085826 -0.322329 -0.012312 51.000000
3.084822 -0.331794 -0.012312 56.000000
3.078821 -0.340706 -0.012233 62.000000
3.073787 -0.349698 -0.012170 45.000000
3.067734 -0.358545 -0.012092 43.000000
3.067613 -0.368075 -0.012107 41.000000
3.062500 -0.376995 -0.012045 42.000000
3.052401 -0.385261 -0.011903 56.000000
3.043271 -0.393597 -0.011777 39.000000
3.040067 -0.402669 -0.011746 42.000000
3.050707 -0.413607 -0.011935 26.000000
3.034568 -0.420902 -0.011699 20.000000
3.506829 0.183200 -0.060857 27.000000
3.511368 0.172638 -0.060968 22.000000
3.499898 0.161308 -0.060635 14.000000
3.483399 0.149834 -0.060164 24.000000
3.465864 0.138422 -0.059664 28.000000
3.450289 0.127194 -0.059220 34.000000
3.440673 0.116267 -0.058943 39.000000
3.433020 0.105462 -0.058721 39.000000
3.424335 0.094678 -0.058471 43.000000
3.405622 0.083698 -0.057944 40.000000
3.385876 0.072813 -0.057389 49.000000
3.365095 0.062031 -0.056806 52.000000
3.280313 0.050371 -0.054448 32.000000
3.249466 0.039916 -0.053587 32.000000
3.217587 0.029640 -0.052700 25.000000
3.207667 0.019703 -0.052422 34.000000
3.184721 0.009783 -0.051784 34.000000
3.168743 0.000007 -0.051340 40.000000
3.161730 -0.009696 -0.051146 34.000000
3.154689 -0.019356 -0.050952 42.000000
3.148617 -0.028981 -0.050785 48.000000
3.144515 -0.038593 -0.050674 49.000000
3.144382 -0.048240 -0.050674 53.000000
3.144219 -0.057887 -0.050674 47.000000
3.144027 -0.067533 -0.050674 48.000000
3.143805 -0.077178 -0.050674 62.000000
3.141555 -0.086769 -0.050619 44.000000
3.140275 -0.096376 -0.050591 54.000000
3.140963 -0.106043 -0.050619 38.000000
3.134629 -0.115460 -0.050452 54.000000
3.130265 -0.124919 -0.050341 60.000000
3.124873 -0.134309 -0.050202 50.000000
3.125445 -0.143941 -0.050230 52.000000
3.120995 -0.153334 -0.050119 46.000000
3.119512 -0.162857 -0.050091 53.000000
3.120994 -0.172536 -0.050147 41.000000
3.115460 -0.181821 -0.050008 57.000000
3.111894 -0.191196 -0.049925 39.000000
3.111293 -0.200742 -0.049925 38.000000
3.100689 -0.209616 -0.049647 35.000000
3.101028 -0.219198 -0.049675 43.000000
3.094360 -0.228272 -0.049509 47.000000
3.087665 -0.237307 -0.049342 39.000000
3.086922 -0.246778 -0.049342 43.000000
3.082165 -0.255918 -0.049231 48.000000
3.079374 -0.265202 -0.049176 35.000000
3.074563 -0.274295 -0.049065 44.000000
3.077689 -0.284092 -0.049176 32.000000
3.066851 -0.292587 -0.048898 58.000000
3.068923 -0.302288 -0.048981 42.000000
3.070965 -0.312003 -0.049065 37.000000
3.074965 -0.321942 -0.049203 31.000000
3.071975 -0.331161 -0.049148 26.000000
3.073925 -0.340914 -0.049231 34.000000
3.067899 -0.349778 -0.049092 38.000000
3.056882 -0.358030 -0.048815 15.000000
3.531696 0.196004 -0.105867 18.000000
3.524299 0.184750 -0.105544 15.000000
3.491916 0.172315 -0.104214 30.000000
3.480450 0.161049 -0.103731 27.000000
3.467951 0.149811 -0.103207 32.000000
3.454417 0.138611 -0.102642 49.000000
3.446838 0.127717 -0.102320 47.000000
3.441221 0.116939 -0.102078 50.000000
3.431577 0.106074 -0.101675 52.000000
3.428890 0.095462 -0.101554 57.000000
3.425171 0.084843 -0.101393 65.000000
3.419421 0.074205 -0.101151 68.000000
3.411641 0.063566 -0.100829 55.000000
3.396834 0.052868 -0.100224 49.000000
3.388987 0.042347 -0.099902 71.000000
3.342141 0.031512 -0.098007 47.000000
3.263288 0.020766 -0.094823 54.000000
3.230363 0.010649 -0.093493 44.000000
3.209398 0.000736 -0.092646 38.000000
3.185405 -0.009039 -0.091679 45.000000
3.176369 -0.018758 -0.091316 46.000000
3.172300 -0.028466 -0.091155 54.000000
3.169201 -0.038162 -0.091034 62.000000
3.169069 -0.047885 -0.091034 39.000000
3.167908 -0.057589 -0.090994 57.000000
3.160724 -0.067158 -0.090712 36.000000
3.160503 -0.076855 -0.090712 62.000000
3.160252 -0.086551 -0.090712 64.000000
3.153980 -0.096063 -0.090470 56.000000
3.151673 -0.105671 -0.090389 40.000000
3.148338 -0.115230 -0.090268 61.000000
3.140981 -0.124610 -0.089986 44.000000
3.138587 -0.134160 -0.089906 59.000000
3.136164 -0.143697 -0.089825 55.000000
3.130719 -0.153073 -0.089623 54.000000
3.129237 -0.162626 -0.089583 60.000000
3.124732 -0.172005 -0.089422 50.000000
3.123193 -0.181533 -0.089382 65.000000
3.121624 -0.191052 -0.089341 47.000000
3.123017 -0.200757 -0.089422 61.000000
