ply
format ascii 1.0
element vertex 1288
property float x
property float y
property float z
property float intensity
end_header
3.095583 0.726447 0.687357 49.000000
3.094934 0.716285 0.686753 58.000000
3.101892 0.707875 0.687761 46.000000
3.102138 0.697926 0.687357 45.000000
3.100439 0.687557 0.686551 53.000000
3.104448 0.678460 0.686954 57.000000
3.106515 0.668933 0.686954 73.000000
3.104720 0.658586 0.686148 83.000000
3.117272 0.651260 0.688365 57.000000
3.116377 0.641102 0.687761 61.000000
3.121210 0.632121 0.688365 62.000000
3.119292 0.621776 0.687559 71.000000
3.124068 0.612769 0.688164 58.000000
3.128819 0.603738 0.688769 61.000000
3.126807 0.593406 0.687962 58.000000
3.130539 0.584169 0.688365 50.000000
3.133280 0.574739 0.688567 53.000000
3.136956 0.565471 0.688970 49.000000
3.137712 0.555673 0.688769 49.000000
3.143261 0.546715 0.689575 51.000000
3.144924 0.537069 0.689575 38.000000
3.146557 0.527418 0.689575 46.000000
3.151060 0.518239 0.690180 52.000000
3.153602 0.508725 0.690381 57.000000
3.151278 0.498436 0.689575 38.000000
3.155696 0.489215 0.690180 49.000000
3.152340 0.478796 0.689172 55.000000
3.162829 0.440752 0.690180 52.000000
3.167078 0.431442 0.690784 67.000000
3.175183 0.422628 0.692196 53.000000
3.175493 0.412758 0.691994 44.000000
3.177716 0.403137 0.692196 34.000000
3.186715 0.394348 0.693808 59.000000
3.187910 0.384569 0.693808 53.000000
3.187129 0.374559 0.693405 47.000000
3.196048 0.365669 0.695018 53.000000
3.188394 0.354887 0.693204 47.000000
3.191415 0.345314 0.693607 56.000000
3.190511 0.335317 0.693204 56.000000
3.182755 0.324634 0.691389 46.000000
3.180812 0.314579 0.690784 43.000000
3.183712 0.305005 0.691188 56.000000
3.182683 0.295056 0.690784 40.000000
3.194304 0.286250 0.693002 57.000000
3.199070 0.276786 0.693808 55.000000
3.209665 0.267784 0.695824 53.000000
3.221211 0.258797 0.698042 46.000000
3.226873 0.249290 0.699050 45.000000
3.227623 0.239389 0.699050 39.000000
3.229319 0.229555 0.699251 39.000000
3.228054 0.219513 0.698848 42.000000
3.227735 0.209546 0.698646 51.000000
3.221519 0.199220 0.697235 39.000000
3.228959 0.189737 0.698646 15.000000
3.225615 0.179612 0.697840 6.000000
3.030635 1.001203 0.652376 39.000000
3.034626 0.992206 0.652566 45.000000
3.037656 0.982891 0.652566 55.000000
3.042526 0.974166 0.652947 30.000000
3.044565 0.964530 0.652757 48.000000
3.048446 0.955479 0.652947 50.000000
3.054176 0.946995 0.653518 29.000000
3.054252 0.936756 0.652947 49.000000
3.054293 0.926526 0.652376 47.000000
3.057122 0.917151 0.652376 63.000000
3.062744 0.908606 0.652947 42.000000
3.059866 0.897545 0.651804 56.000000
3.061662 0.887880 0.651614 69.000000
3.063428 0.878212 0.651423 52.000000
3.067053 0.869077 0.651614 53.000000
3.071595 0.860194 0.651995 51.000000
3.071381 0.849980 0.651423 66.000000
3.073028 0.840293 0.651233 48.000000
3.072748 0.830092 0.650661 57.000000
3.077178 0.821168 0.651042 75.000000
3.074936 0.810471 0.650090 78.000000
3.078358 0.801281 0.650280 80.000000
3.085556 0.793057 0.651233 98.000000
3.085120 0.782861 0.650661 67.000000
3.098312 0.745863 0.651423 89.000000
3.099630 0.736127 0.651233 87.000000
3.102830 0.726839 0.651423 102.000000
3.105045 0.717316 0.651423 98.000000
3.106274 0.707568 0.651233 89.000000
3.106515 0.697604 0.650852 102.000000
3.105765 0.687432 0.650280 82.000000
3.106901 0.677691 0.650090 88.000000
3.111844 0.668776 0.650661 74.000000
3.116762 0.659837 0.651233 81.000000
3.121655 0.650874 0.651804 72.000000
3.126522 0.641887 0.652376 71.000000
3.128476 0.632292 0.652376 56.000000
3.133290 0.623267 0.652947 67.000000
3.133260 0.613273 0.652566 45.000000
3.138019 0.604215 0.653137 61.000000
3.139858 0.594585 0.653137 64.000000
3.140702 0.584769 0.652947 56.000000
3.144413 0.575485 0.653328 44.000000
3.146163 0.565836 0.653328 53.000000
3.145951 0.555838 0.652947 65.000000
3.151510 0.546857 0.653709 46.000000
3.149302 0.536525 0.652947 52.000000
3.152870 0.527185 0.653328 62.000000
3.154473 0.517509 0.653328 54.000000
3.156045 0.507829 0.653328 47.000000
3.158558 0.498298 0.653518 41.000000
3.158132 0.488304 0.653137 55.000000
3.161556 0.478908 0.653518 57.000000
3.160098 0.468773 0.652947 64.000000
3.158607 0.458651 0.652376 45.000000
3.162915 0.449374 0.652947 41.000000
3.159417 0.438991 0.651995 46.000000
3.162694 0.429561 0.652376 55.000000
3.163997 0.419856 0.652376 49.000000
3.159429 0.409388 0.651233 59.000000
3.169436 0.400804 0.652947 46.000000
3.172599 0.391320 0.653328 57.000000
3.177683 0.382055 0.654090 40.000000
3.185665 0.373106 0.655423 58.000000
3.188745 0.363554 0.655804 43.000000
3.191797 0.353986 0.656185 49.000000
3.196772 0.344615 0.656947 35.000000
3.195862 0.334600 0.656566 59.000000
3.196873 0.324794 0.656566 56.000000
3.194924 0.314695 0.655994 71.000000
3.195874 0.304891 0.655994 51.000000
3.198750 0.295266 0.656375 54.000000
3.204529 0.285889 0.657328 57.000000
3.207347 0.276226 0.657709 54.000000
3.213071 0.266792 0.658661 54.000000
3.218767 0.257326 0.659613 56.000000
3.221499 0.247601 0.659994 67.000000
3.222244 0.237717 0.659994 40.000000
3.221979 0.227760 0.659804 47.000000
3.215806 0.217408 0.658471 39.000000
3.218417 0.207669 0.658851 38.000000
3.215120 0.197551 0.658090 39.000000
3.237271 0.188953 0.662280 14.000000
3.039901 1.005608 0.614620 44.000000
3.037361 0.994441 0.613548 43.000000
3.037590 0.984208 0.613012 57.000000
3.040595 0.974884 0.613012 35.000000
3.041696 0.964956 0.612655 47.000000
3.039948 0.954147 0.611762 71.000000
3.049439 0.946858 0.613012 60.000000
3.062660 0.899693 0.612834 68.000000
3.063516 0.889745 0.612477 76.000000
3.063394 0.879527 0.611941 76.000000
3.070811 0.871467 0.612834 84.000000
3.074418 0.862308 0.613012 82.000000
3.078945 0.853397 0.613370 106.000000
3.085345 0.844986 0.614084 83.000000
3.086023 0.835003 0.613727 98.000000
3.088570 0.825531 0.613727 93.000000
3.092040 0.816302 0.613906 110.000000
3.098338 0.807805 0.614620 137.000000
3.096990 0.797315 0.613906 107.000000
3.107051 0.789748 0.615335 137.000000
3.102778 0.778536 0.614084 119.000000
3.100377 0.767831 0.613191 98.000000
3.102718 0.758316 0.613191 99.000000
3.101204 0.747871 0.612477 116.000000
3.102526 0.738126 0.612298 105.000000
3.101903 0.727930 0.611762 128.000000
3.105080 0.718631 0.611941 131.000000
3.110148 0.709758 0.612477 117.000000
3.114231 0.700645 0.612834 144.000000
3.116365 0.691087 0.612834 139.000000
3.116549 0.681103 0.612477 111.000000
3.120547 0.671952 0.612834 128.000000
3.120669 0.661967 0.612477 111.000000
3.124612 0.652792 0.612834 129.000000
3.122745 0.642411 0.612119 90.000000
3.123736 0.632632 0.611941 92.000000
3.125663 0.623046 0.611941 96.000000
3.124663 0.612885 0.611405 78.000000
3.130393 0.604041 0.612119 66.000000
3.134165 0.594801 0.612477 59.000000
3.138876 0.585724 0.613012 73.000000
3.149369 0.577688 0.614620 55.000000
3.153063 0.568372 0.614977 68.000000
3.156730 0.559039 0.615335 56.000000
3.162307 0.550025 0.616049 46.000000
3.163010 0.540156 0.615871 48.000000
3.168534 0.531099 0.616585 45.000000
3.172090 0.521695 0.616942 56.000000
3.172704 0.511804 0.616764 31.000000
3.181063 0.503143 0.618014 43.000000
3.181619 0.493231 0.617836 46.000000
3.186036 0.483910 0.618371 59.000000
3.174193 0.442334 0.615156 63.000000
3.176510 0.432726 0.615335 50.000000
3.183674 0.423757 0.616407 45.000000
3.183984 0.413861 0.616228 58.000000
3.186214 0.404214 0.616407 45.000000
3.198181 0.395765 0.618371 48.000000
3.204264 0.386540 0.619265 54.000000
3.207390 0.376937 0.619622 50.000000
3.209508 0.367207 0.619800 35.000000
3.208664 0.357141 0.619443 46.000000
3.212679 0.347613 0.619979 52.000000
3.210795 0.337446 0.619443 52.000000
3.208879 0.327295 0.618907 38.000000
3.208889 0.317352 0.618729 59.000000
3.211806 0.307693 0.619086 45.000000
3.218613 0.298383 0.620158 44.000000
3.223433 0.288857 0.620872 53.000000
3.224304 0.278967 0.620872 47.000000
3.230048 0.269482 0.621765 44.000000
3.231840 0.259649 0.621944 57.000000
3.229678 0.249506 0.621408 59.000000
3.232391 0.239742 0.621765 41.000000
3.231148 0.229684 0.621408 36.000000
3.228893 0.219570 0.620872 41.000000
3.231515 0.209791 0.621229 40.000000
3.234108 0.199997 0.621587 43.000000
3.254351 0.191226 0.625159 12.000000
3.041888 1.004925 0.575932 37.000000
3.039335 0.993747 0.574930 42.000000
3.035804 0.982291 0.573762 28.000000
3.047253 0.975681 0.575264 25.000000
3.049292 0.966030 0.575097 46.000000
3.051301 0.956375 0.574930 65.000000
3.053279 0.946717 0.574764 57.000000
3.056169 0.937345 0.574764 41.000000
3.063748 0.929397 0.575598 64.000000
3.067528 0.920277 0.575765 68.000000
3.067502 0.910019 0.575264 75.000000
3.071226 0.900882 0.575431 52.000000
3.070188 0.890356 0.574764 66.000000
3.070062 0.880116 0.574263 82.000000
3.067056 0.869078 0.573261 68.000000
3.067810 0.859132 0.572927 98.000000
3.069481 0.849453 0.572760 88.000000
3.073023 0.840292 0.572927 107.000000
3.077490 0.831375 0.573261 123.000000
3.082884 0.822693 0.573762 120.000000
3.093973 0.815496 0.575264 178.000000
3.102185 0.807493 0.576266 209.000000
3.104648 0.797971 0.576266 199.000000
3.106126 0.788200 0.576099 204.000000
3.103748 0.777467 0.575264 283.000000
3.107075 0.768178 0.575431 272.000000
3.109417 0.758642 0.575431 300.000000
3.113647 0.749561 0.575765 270.000000
3.116892 0.740233 0.575932 238.000000
3.121068 0.731118 0.576266 227.000000
3.125217 0.721984 0.576600 256.000000
3.125495 0.711954 0.576266 209.000000
3.130550 0.703010 0.576767 198.000000
3.126917 0.692122 0.575765 179.000000
3.119393 0.680421 0.574096 142.000000
3.118574 0.670225 0.573595 121.000000
3.118687 0.660245 0.573261 111.000000
3.120698 0.650674 0.573261 116.000000
3.122679 0.641097 0.573261 105.000000
3.127531 0.632101 0.573762 92.000000
3.132356 0.623081 0.574263 93.000000
3.135220 0.613657 0.574430 84.000000
3.142897 0.605156 0.575431 54.000000
3.143770 0.595328 0.575264 58.000000
3.148489 0.586222 0.575765 56.000000
3.153183 0.577094 0.576266 55.000000
3.152027 0.566893 0.575765 42.000000
3.156664 0.557735 0.576266 49.000000
3.161275 0.548555 0.576767 66.000000
3.165858 0.539351 0.577268 46.000000
3.167498 0.529636 0.577268 47.000000
3.168135 0.519756 0.577101 65.000000
3.167768 0.509720 0.576767 43.000000
3.169317 0.499999 0.576767 58.000000
3.167913 0.489820 0.576266 37.000000
3.175250 0.480987 0.577268 45.000000
3.173785 0.470808 0.576767 53.000000
3.178141 0.461495 0.577268 48.000000
3.179542 0.451742 0.577268 54.000000
3.180913 0.441986 0.577268 41.000000
3.183231 0.432358 0.577435 52.000000
3.186497 0.422850 0.577768 53.000000
3.184846 0.412691 0.577268 56.000000
3.189032 0.403290 0.577768 44.000000
3.195146 0.394109 0.578603 62.000000
3.199277 0.384659 0.579104 54.000000
3.205339 0.375417 0.579939 46.000000
3.208434 0.365806 0.580273 51.000000
3.212481 0.356288 0.580773 50.000000
3.218460 0.346961 0.581608 54.000000
3.220490 0.337188 0.581775 48.000000
3.217586 0.326906 0.581107 47.000000
3.218574 0.317033 0.581107 42.000000
3.218550 0.307063 0.580940 37.000000
3.217514 0.297005 0.580606 65.000000
3.221355 0.287396 0.581107 62.000000
3.224186 0.277682 0.581441 58.000000
3.226989 0.267953 0.581775 45.000000
3.233692 0.258525 0.582777 51.000000
3.238402 0.248907 0.583444 43.000000
3.238167 0.238897 0.583278 40.000000
3.240852 0.229101 0.583611 63.000000
3.242524 0.219224 0.583778 38.000000
3.235310 0.208765 0.582443 45.000000
3.239871 0.199081 0.583111 40.000000
3.257199 0.190123 0.585949 13.000000
3.064897 1.002863 0.539269 50.000000
3.067019 0.993151 0.539115 43.000000
3.070052 0.983737 0.539115 47.000000
3.075881 0.975209 0.539579 59.000000
3.072259 0.963699 0.538495 63.000000
3.070484 0.952805 0.537721 59.000000
3.069661 0.921665 0.536172 87.000000
3.068622 0.900865 0.535088 80.000000
3.071372 0.891447 0.535088 96.000000
3.087387 0.885832 0.537256 143.000000
3.091041 0.876626 0.537411 154.000000
3.094667 0.867405 0.537566 211.000000
3.091601 0.856325 0.536636 218.000000
3.092308 0.846315 0.536327 249.000000
3.093936 0.836566 0.536172 292.000000
3.096488 0.827070 0.536172 243.000000
3.099011 0.817566 0.536172 233.000000
3.100549 0.807806 0.536017 203.000000
3.103969 0.798536 0.536172 228.000000
3.104489 0.788523 0.535862 222.000000
3.106894 0.778995 0.535862 256.000000
3.109269 0.769459 0.535862 262.000000
3.111615 0.759916 0.535862 219.000000
3.116813 0.751061 0.536327 202.000000
3.121025 0.741952 0.536636 221.000000
3.123287 0.732373 0.536636 219.000000
3.125519 0.722787 0.536636 245.000000
3.126758 0.712975 0.536482 226.000000
3.126039 0.702730 0.536017 266.000000
3.128181 0.693136 0.536017 287.000000
3.134153 0.684378 0.536636 224.000000
3.140101 0.675590 0.537256 186.000000
3.140227 0.665544 0.536946 159.000000
3.138385 0.655100 0.536327 120.000000
3.138445 0.645070 0.536017 122.000000
3.140409 0.635439 0.536017 134.000000
3.143313 0.625994 0.536172 88.000000
3.145218 0.616347 0.536172 94.000000
3.151945 0.607630 0.536946 98.000000
3.152824 0.597773 0.536791 74.000000
3.157556 0.588640 0.537256 61.000000
3.158376 0.578772 0.537101 75.000000
3.160136 0.569080 0.537101 61.000000
3.159922 0.559038 0.536791 70.000000
3.161622 0.549341 0.536791 47.000000
3.160371 0.539140 0.536327 73.000000
3.163959 0.529768 0.536636 52.000000
3.167519 0.520379 0.536946 74.000000
3.169101 0.510658 0.536946 58.000000
3.171628 0.501087 0.537101 55.000000
3.173151 0.491355 0.537101 54.000000
3.185207 0.443304 0.537875 58.000000
3.185573 0.433396 0.537721 56.000000
3.186888 0.423621 0.537721 58.000000
3.187192 0.413715 0.537566 50.000000
3.192367 0.404431 0.538185 34.000000
3.193593 0.394635 0.538185 46.000000
3.200674 0.385543 0.539115 55.000000
3.204785 0.376067 0.539579 50.000000
3.211813 0.366905 0.540509 49.000000
3.218815 0.357704 0.541438 42.000000
3.222844 0.348145 0.541902 55.000000
3.224880 0.338359 0.542057 58.000000
3.223937 0.328263 0.541748 46.000000
3.222963 0.318177 0.541438 51.000000
3.220973 0.308006 0.540973 42.000000
3.221903 0.298123 0.540973 47.000000
3.226738 0.288588 0.541593 59.000000
3.229577 0.278857 0.541902 49.000000
3.235340 0.269357 0.542677 54.000000
3.240090 0.259745 0.543296 51.000000
3.241857 0.249879 0.543451 50.000000
3.250490 0.240514 0.544690 54.000000
3.248257 0.230332 0.544226 38.000000
3.244020 0.220031 0.543451 45.000000
3.242707 0.209950 0.543142 31.000000
3.247281 0.200244 0.543761 47.000000
3.235059 0.189530 0.541748 15.000000
3.055132 1.009894 0.498730 26.000000
3.064800 1.002673 0.499731 62.000000
3.064096 0.992045 0.499159 52.000000
3.058643 0.979919 0.497872 34.000000
3.067295 0.972327 0.498730 33.000000
3.062710 0.960540 0.497586 58.000000
3.066587 0.951433 0.497729 44.000000
3.062869 0.939985 0.496728 66.000000
3.066686 0.930871 0.496871 67.000000
3.067631 0.920889 0.496585 65.000000
3.073289 0.912319 0.497014 66.000000
3.074174 0.902328 0.496728 84.000000
3.075977 0.892616 0.496585 85.000000
3.076799 0.882628 0.496299 117.000000
3.088061 0.875618 0.497586 206.000000
3.087874 0.865337 0.497157 215.000000
3.089561 0.855595 0.497014 225.000000
3.092171 0.846113 0.497014 217.000000
3.094752 0.836622 0.497014 203.000000
3.097304 0.827124 0.497014 183.000000
3.100784 0.817870 0.497157 179.000000
3.104237 0.808603 0.497300 194.000000
3.101911 0.797841 0.496585 433.000000
3.112976 0.790516 0.497872 1083.000000
3.138425 0.786746 0.501303 1539.000000
3.132178 0.774972 0.500017 1682.000000
3.144155 0.767710 0.501446 1358.000000
3.117632 0.751095 0.497157 811.000000
3.112220 0.739693 0.496013 399.000000
3.126037 0.732856 0.497729 261.000000
3.129234 0.723486 0.497872 216.000000
3.131439 0.713882 0.497872 219.000000
3.133615 0.704272 0.497872 250.000000
3.134794 0.694440 0.497729 198.000000
3.137877 0.685031 0.497872 210.000000
3.140932 0.675609 0.498015 216.000000
3.144926 0.666381 0.498301 160.000000
3.137267 0.654704 0.496871 101.000000
3.140230 0.645275 0.497014 108.000000
3.139286 0.635048 0.496585 95.000000
3.141219 0.625414 0.496585 89.000000
3.143123 0.615774 0.496585 100.000000
3.145969 0.606316 0.496728 104.000000
3.146842 0.596477 0.496585 81.000000
3.147684 0.586638 0.496442 80.000000
3.152390 0.577514 0.496871 62.000000
3.155121 0.568016 0.497014 63.000000
3.162696 0.559370 0.497872 57.000000
3.170247 0.550682 0.498730 46.000000
3.174849 0.541454 0.499159 33.000000
3.176495 0.531711 0.499159 55.000000
3.180064 0.522285 0.499445 49.000000
3.183606 0.512841 0.499731 43.000000
3.187119 0.503381 0.500017 59.000000
3.188649 0.493601 0.500017 46.000000
3.193084 0.484262 0.500446 43.000000
3.191617 0.474027 0.500017 51.000000
3.197953 0.464946 0.500732 62.000000
3.197405 0.454854 0.500446 59.000000
3.195845 0.444632 0.500017 50.000000
3.194252 0.434424 0.499588 35.000000
3.196551 0.424753 0.499731 53.000000
3.196858 0.414816 0.499588 38.000000
3.200079 0.405256 0.499874 55.000000
3.199342 0.395193 0.499588 43.000000
3.203488 0.385731 0.500017 54.000000
3.205639 0.376017 0.500160 41.000000
3.208744 0.366406 0.500446 57.000000
3.212804 0.356889 0.500875 45.000000
3.214868 0.347137 0.501018 50.000000
3.216902 0.337376 0.501161 50.000000
3.222845 0.328008 0.501875 42.000000
3.220881 0.317826 0.501446 61.000000
3.225782 0.308321 0.502018 57.000000
3.224742 0.298240 0.501732 51.000000
3.222684 0.288080 0.501303 45.000000
3.228483 0.278619 0.502018 59.000000
3.229323 0.268712 0.502018 56.000000
3.230132 0.258804 0.502018 41.000000
3.237818 0.249427 0.503019 58.000000
3.238568 0.239493 0.503019 36.000000
3.248173 0.230189 0.504306 49.000000
3.257751 0.220828 0.505593 43.000000
3.258413 0.210832 0.505593 39.000000
3.265959 0.201263 0.506594 41.000000
3.281382 0.192115 0.508738 25.000000
3.260215 0.180834 0.505593 6.000000
3.086802 1.041575 0.464724 12.000000
3.051429 1.019227 0.459351 42.000000
3.060189 1.011727 0.460137 44.000000
3.068932 1.004183 0.460923 28.000000
3.071999 0.994763 0.460923 45.000000
3.075036 0.985333 0.460923 57.000000
3.082770 0.977392 0.461578 71.000000
3.081024 0.966447 0.460923 80.000000
3.083974 0.956990 0.460923 70.000000
3.081257 0.925145 0.459351 95.000000
3.084081 0.915688 0.459351 103.000000
3.086876 0.906222 0.459351 111.000000
3.092498 0.897576 0.459744 112.000000
3.101908 0.889997 0.460661 126.000000
3.103670 0.880206 0.460530 208.000000
3.102537 0.869610 0.460006 240.000000
3.105191 0.860087 0.460006 216.000000
3.108771 0.850818 0.460137 244.000000
3.111367 0.841277 0.460137 302.000000
3.112975 0.831472 0.460006 245.000000
3.114553 0.821664 0.459875 209.000000
3.116100 0.811855 0.459744 229.000000
3.118576 0.802292 0.459744 232.000000
3.132553 0.795647 0.461316 337.000000
3.114785 0.780972 0.458564 669.000000
3.134489 0.775697 0.460923 841.000000
3.116629 0.761140 0.458171 625.000000
3.130515 0.754361 0.459744 419.000000
3.126063 0.743149 0.458826 299.000000
3.134120 0.734912 0.459613 235.000000
3.138292 0.725739 0.459875 219.000000
3.141470 0.716328 0.460006 221.000000
3.139784 0.705818 0.459482 241.000000
3.139031 0.695539 0.459089 283.000000
3.143087 0.686328 0.459351 243.000000
3.151962 0.678140 0.460268 221.000000
3.158877 0.669494 0.460923 173.000000
3.158005 0.659192 0.460530 130.000000
3.162926 0.650099 0.460923 166.000000
3.153245 0.638034 0.459351 108.000000
3.151298 0.627583 0.458826 111.000000
3.151263 0.617531 0.458564 102.000000
3.154116 0.608048 0.458695 99.000000
3.159863 0.599107 0.459220 69.000000
3.165585 0.590136 0.459744 70.000000
3.167380 0.580421 0.459744 75.000000
3.171097 0.571052 0.460006 70.000000
3.173811 0.561493 0.460137 70.000000
3.172588 0.551245 0.459744 59.000000
3.175242 0.541675 0.459875 61.000000
3.176889 0.531931 0.459875 53.000000
3.180462 0.522503 0.460137 52.000000
3.185965 0.513374 0.460661 51.000000
3.188505 0.503752 0.460792 52.000000
3.193954 0.494573 0.461316 68.000000
3.198397 0.485218 0.461709 59.000000
3.205092 0.446069 0.461841 51.000000
3.208410 0.436501 0.462103 67.000000
3.209735 0.426655 0.462103 58.000000
3.214961 0.417316 0.462627 56.000000
3.216226 0.407451 0.462627 73.000000
3.216477 0.397460 0.462496 49.000000
3.221618 0.388064 0.463020 53.000000
3.225748 0.378524 0.463413 51.000000
3.226894 0.368626 0.463413 55.000000
3.231951 0.359162 0.463937 38.000000
3.232052 0.349138 0.463806 49.000000
3.236066 0.339531 0.464199 56.000000
3.239064 0.329802 0.464461 45.000000
3.239075 0.319766 0.464330 46.000000
3.239053 0.309733 0.464199 59.000000
3.235053 0.299338 0.463544 58.000000
3.232994 0.289147 0.463151 50.000000
3.234853 0.279312 0.463282 47.000000
3.238659 0.269633 0.463675 59.000000
3.244412 0.260091 0.464330 57.000000
3.250137 0.250516 0.464986 53.000000
3.252867 0.240690 0.465248 50.000000
3.262491 0.231339 0.466427 38.000000
3.272087 0.221932 0.467607 50.000000
3.274731 0.212020 0.467869 37.000000
3.276356 0.202033 0.468000 40.000000
3.292795 0.192906 0.470096 26.000000
3.267635 0.181378 0.466689 11.000000
3.062199 1.033713 0.421397 22.000000
3.063473 1.023683 0.421160 33.000000
3.076025 1.017401 0.422349 53.000000
3.078188 1.007650 0.422230 45.000000
3.082209 0.998508 0.422349 42.000000
3.087149 0.989654 0.422587 57.000000
3.097741 0.982583 0.423538 23.000000
3.094110 0.970991 0.422706 34.000000
3.092334 0.960020 0.422111 47.000000
3.089571 0.948777 0.421397 49.000000
3.090567 0.938716 0.421160 58.000000
3.088678 0.927800 0.420565 86.000000
3.090558 0.918037 0.420446 80.000000
3.090503 0.907710 0.420089 95.000000
3.091366 0.897670 0.419851 126.000000
3.094106 0.888182 0.419851 138.000000
3.098726 0.879228 0.420089 139.000000
3.104277 0.870522 0.420446 163.000000
3.106933 0.860994 0.420446 136.000000
3.112432 0.852246 0.420803 196.000000
3.110241 0.841395 0.420208 174.000000
3.114726 0.832362 0.420446 253.000000
3.116305 0.822549 0.420327 211.000000
3.121696 0.813737 0.420684 272.000000
3.126101 0.804651 0.420922 279.000000
3.127592 0.794812 0.420803 243.000000
3.130979 0.785455 0.420922 237.000000
3.132410 0.775606 0.420803 226.000000
3.132846 0.765521 0.420565 262.000000
3.134215 0.755672 0.420446 266.000000
3.135553 0.745823 0.420327 267.000000
3.138793 0.736427 0.420446 289.000000
3.139103 0.726346 0.420208 295.000000
3.141316 0.716712 0.420208 313.000000
3.146406 0.707725 0.420565 272.000000
3.154378 0.699361 0.421279 211.000000
3.157479 0.689892 0.421397 171.000000
3.156669 0.679574 0.421041 155.000000
3.160681 0.670299 0.421279 128.000000
3.159807 0.659989 0.420922 91.000000
3.160845 0.650091 0.420803 108.000000
3.157959 0.639404 0.420208 94.000000
3.156985 0.629129 0.419851 95.000000
3.157926 0.619249 0.419733 96.000000
3.158836 0.609370 0.419614 92.000000
3.166543 0.600788 0.420327 90.000000
3.170323 0.591435 0.420565 82.000000
3.175053 0.582245 0.420922 65.000000
3.179755 0.573030 0.421279 73.000000
3.182476 0.563446 0.421397 53.000000
3.184189 0.553679 0.421397 79.000000
3.180001 0.542903 0.420684 46.000000
3.183610 0.533473 0.420922 78.000000
3.188171 0.524188 0.421279 55.000000
3.186824 0.513929 0.420922 66.000000
3.191327 0.504616 0.421279 50.000000
3.191880 0.494670 0.421160 55.000000
3.196327 0.485324 0.421516 53.000000
3.198783 0.475661 0.421635 62.000000
3.197279 0.465415 0.421279 58.000000
3.198693 0.455604 0.421279 61.000000
3.200075 0.445788 0.421279 53.000000
3.203395 0.436237 0.421516 55.000000
3.204719 0.426407 0.421516 42.000000
3.207981 0.416830 0.421754 45.000000
3.209244 0.406986 0.421754 51.000000
3.213434 0.397505 0.422111 64.000000
3.214638 0.387645 0.422111 54.000000
3.217785 0.378013 0.422349 50.000000
3.218930 0.368139 0.422349 59.000000
3.223004 0.358592 0.422706 55.000000
3.226063 0.348917 0.422944 57.000000
3.233043 0.339642 0.423657 61.000000
3.235058 0.329823 0.423776 65.000000
3.241983 0.320484 0.424489 61.000000
3.243939 0.310632 0.424608 57.000000
3.243888 0.300586 0.424489 68.000000
3.246773 0.290810 0.424727 58.000000
3.244682 0.280590 0.424371 68.000000
3.248496 0.270883 0.424727 52.000000
3.251291 0.261075 0.424965 56.000000
3.251087 0.251022 0.424846 54.000000
3.254812 0.241268 0.425203 76.000000
3.264450 0.231918 0.426273 59.000000
3.268118 0.222105 0.426630 53.000000
3.272748 0.212336 0.427106 54.000000
3.275366 0.202417 0.427344 57.000000
3.281918 0.192719 0.428057 64.000000
3.282494 0.182649 0.428057 32.000000
3.250319 0.170846 0.424133 9.000000
3.072984 1.006099 0.381756 31.000000
3.074165 0.996054 0.381542 49.000000
3.080993 0.987831 0.381970 47.000000
3.081166 0.977473 0.381649 51.000000
3.084151 0.968015 0.381649 55.000000
3.090904 0.959728 0.382076 52.000000
3.103354 0.911642 0.381863 81.000000
3.105181 0.901840 0.381756 87.000000
3.106978 0.892035 0.381649 108.000000
3.104917 0.881142 0.381115 94.000000
3.106649 0.871344 0.381008 94.000000
3.109307 0.861808 0.381008 104.000000
3.110018 0.851740 0.380795 96.000000
3.116456 0.843233 0.381222 85.000000
3.123832 0.834951 0.381756 138.000000
3.124455 0.824856 0.381542 129.000000
3.127934 0.815517 0.381649 162.000000
3.131384 0.806165 0.381756 208.000000
3.134806 0.796799 0.381863 233.000000
3.138200 0.787419 0.381970 237.000000
3.140601 0.777788 0.381970 214.000000
3.142973 0.768149 0.381970 245.000000
3.145315 0.758503 0.381970 205.000000
3.147627 0.748850 0.381970 182.000000
3.146038 0.738281 0.381542 144.000000
3.149256 0.728850 0.381649 160.000000
3.151478 0.719185 0.381649 137.000000
3.152699 0.709294 0.381542 135.000000
3.155831 0.699834 0.381649 101.000000
3.157963 0.690149 0.381649 105.000000
3.160066 0.680457 0.381649 98.000000
3.164084 0.671171 0.381863 101.000000
3.165155 0.661258 0.381756 98.000000
3.167169 0.651544 0.381756 77.000000
3.166229 0.641232 0.381436 107.000000
3.167206 0.631321 0.381329 104.000000
3.170104 0.621793 0.381436 87.000000
3.168092 0.611311 0.381008 88.000000
3.175813 0.602700 0.381649 82.000000
3.177647 0.592954 0.381649 87.000000
3.182386 0.583740 0.381970 78.000000
3.190033 0.575032 0.382610 70.000000
3.194719 0.565762 0.382931 70.000000
3.193501 0.555447 0.382610 76.000000
3.195190 0.545647 0.382610 58.000000
3.196849 0.535842 0.382610 60.000000
3.195534 0.525548 0.382290 51.000000
3.197132 0.515742 0.382290 59.000000
3.195753 0.505465 0.381970 62.000000
3.196306 0.495506 0.381863 62.000000
3.201743 0.486294 0.382290 74.000000
3.201162 0.456105 0.381756 68.000000
3.205500 0.446693 0.382076 50.000000
3.209811 0.437259 0.382397 63.000000
3.212123 0.427540 0.382503 63.000000
3.217364 0.418196 0.382931 66.000000
3.219618 0.408448 0.383037 60.000000
3.225790 0.399178 0.383571 52.000000
3.229961 0.389637 0.383892 61.000000
3.231141 0.379726 0.383892 56.000000
3.232291 0.369811 0.383892 56.000000
3.233410 0.359893 0.383892 72.000000
3.231534 0.349650 0.383571 49.000000
3.233580 0.339838 0.383678 48.000000
3.230650 0.329513 0.383251 49.000000
3.239562 0.320382 0.384105 57.000000
3.241519 0.310536 0.384212 51.000000
3.249387 0.301232 0.384960 57.000000
3.253267 0.291527 0.385280 48.000000
3.255136 0.281631 0.385387 57.000000
3.259949 0.271973 0.385814 50.000000
3.263741 0.262209 0.386134 65.000000
3.258582 0.251736 0.385493 61.000000
3.265289 0.242178 0.386134 55.000000
3.267008 0.232229 0.386241 44.000000
3.267705 0.222205 0.386241 53.000000
3.276309 0.212693 0.387095 68.000000
3.276946 0.202641 0.387095 76.000000
3.280530 0.192761 0.387416 79.000000
3.283092 0.182806 0.387629 53.000000
3.267751 0.171899 0.385921 36.000000
3.235491 0.160253 0.382397 12.000000
3.070454 0.994106 0.342594 49.000000
3.073489 0.984681 0.342594 43.000000
3.077445 0.975548 0.342689 60.000000
3.080423 0.966102 0.342689 58.000000
3.085274 0.957238 0.342879 60.000000
3.092002 0.948937 0.343259 50.000000
3.092994 0.938868 0.343069 72.000000
3.098720 0.930234 0.343354 68.000000
3.103468 0.921290 0.343544 78.000000
3.107235 0.912045 0.343639 82.000000
3.109062 0.902230 0.343544 108.000000
3.107989 0.891588 0.343164 90.000000
3.104964 0.880417 0.342594 95.000000
3.105733 0.870349 0.342404 72.000000
3.107430 0.860551 0.342310 77.000000
3.109095 0.850750 0.342215 87.000000
3.117456 0.842769 0.342784 86.000000
3.121950 0.833715 0.342974 99.000000
3.130268 0.825658 0.343544 101.000000
3.133749 0.816302 0.343639 114.000000
3.134311 0.806187 0.343449 110.000000
3.133876 0.795832 0.343164 123.000000
3.130509 0.784759 0.342594 99.000000
3.126563 0.763407 0.341740 76.000000
3.135664 0.755446 0.342404 99.000000
3.139904 0.746284 0.342594 89.000000
3.142178 0.736647 0.342594 103.000000
3.143454 0.726779 0.342499 95.000000
3.142757 0.716467 0.342215 91.000000
3.142998 0.706384 0.342025 104.000000
3.145151 0.696738 0.342025 90.000000
3.144356 0.686448 0.341740 115.000000
3.147420 0.677007 0.341835 86.000000
3.153378 0.668175 0.342215 117.000000
3.157362 0.658905 0.342404 82.000000
3.157418 0.648814 0.342215 58.000000
3.160369 0.639321 0.342310 77.000000
3.159387 0.629038 0.342025 63.000000
3.162279 0.619534 0.342120 73.000000
3.162210 0.609452 0.341930 60.000000
3.164065 0.599748 0.341930 60.000000
3.166868 0.590220 0.342025 70.000000
3.168664 0.580502 0.342025 69.000000
3.176309 0.571838 0.342594 66.000000
3.182949 0.562959 0.343069 77.000000
3.187603 0.553704 0.343354 62.000000
3.192230 0.544425 0.343639 54.000000
3.195849 0.534958 0.343829 61.000000
3.196493 0.524989 0.343734 72.000000
3.199072 0.515339 0.343829 54.000000
3.200638 0.505522 0.343829 54.000000
3.201190 0.495547 0.343734 58.000000
3.205648 0.486173 0.344019 54.000000
3.203186 0.475749 0.343639 38.000000
3.210541 0.466781 0.344209 64.000000
3.212943 0.457070 0.344304 57.000000
3.214330 0.447210 0.344304 57.000000
3.213714 0.437078 0.344114 41.000000
3.218000 0.427611 0.344399 60.000000
3.216336 0.417351 0.344114 65.000000
3.222538 0.408108 0.344589 60.000000
3.225752 0.398464 0.344779 55.000000
3.228935 0.388805 0.344969 37.000000
3.235056 0.379478 0.345444 82.000000
3.231260 0.368985 0.344969 52.000000
3.239303 0.359842 0.345634 57.000000
3.240391 0.349902 0.345634 68.000000
3.238480 0.339647 0.345349 66.000000
3.237525 0.329507 0.345159 68.000000
3.238521 0.319573 0.345159 90.000000
3.241468 0.309826 0.345349 75.000000
3.242404 0.299880 0.345349 57.000000
3.241325 0.289753 0.345159 66.000000
3.243191 0.279893 0.345254 62.000000
3.243042 0.269859 0.345159 58.000000
3.246832 0.260148 0.345444 62.000000
3.247614 0.250185 0.345444 92.000000
3.251345 0.240442 0.345729 66.000000
3.257032 0.230820 0.346204 63.000000
3.260704 0.221029 0.346489 44.000000
3.268321 0.211477 0.347153 49.000000
3.275909 0.201880 0.347818 56.000000
3.286451 0.192414 0.348768 37.000000
3.364552 0.186658 0.356176 19.000000
3.093604 1.002350 0.303945 41.000000
3.094767 0.992246 0.303780 43.000000
3.094946 0.981843 0.303532 46.000000
3.094140 0.971150 0.303203 40.000000
3.098057 0.961948 0.303285 67.000000
3.124879 0.917963 0.304357 54.000000
3.122895 0.906982 0.303945 60.000000
3.120873 0.896023 0.303532 64.000000
3.119773 0.885356 0.303203 60.000000
3.117676 0.874435 0.302790 81.000000
3.117463 0.864068 0.302543 83.000000
3.118177 0.853973 0.302378 84.000000
3.120782 0.844403 0.302378 81.000000
3.125284 0.835339 0.302543 84.000000
3.129759 0.826255 0.302708 86.000000
3.135172 0.817403 0.302955 77.000000
3.141526 0.808774 0.303285 90.000000
3.145924 0.799623 0.303450 82.000000
3.151263 0.790695 0.303697 67.000000
3.149804 0.780066 0.303367 104.000000
3.150246 0.769926 0.303203 80.000000
3.149687 0.759557 0.302955 79.000000
3.149094 0.749198 0.302708 87.000000
3.151377 0.739534 0.302708 83.000000
3.152660 0.729637 0.302625 70.000000
3.151969 0.719297 0.302378 78.000000
3.154161 0.709623 0.302378 87.000000
3.155350 0.699727 0.302296 69.000000
3.156509 0.689831 0.302213 80.000000
3.158610 0.680144 0.302213 89.000000
3.163607 0.671070 0.302460 73.000000
3.168577 0.661972 0.302708 71.000000
3.173522 0.652850 0.302955 65.000000
3.177464 0.643506 0.303120 68.000000
3.181377 0.634144 0.303285 69.000000
3.184286 0.624573 0.303367 64.000000
3.185208 0.614612 0.303285 79.000000
3.188058 0.605023 0.303367 63.000000
3.185981 0.594508 0.303038 69.000000
3.184849 0.584192 0.302790 65.000000
3.188588 0.574771 0.302955 58.000000
3.193280 0.565507 0.303203 67.000000
3.196964 0.556049 0.303367 61.000000
3.202584 0.546909 0.303697 52.000000
3.206213 0.537410 0.303862 52.000000
3.213747 0.528541 0.304357 53.000000
3.216337 0.518837 0.304439 42.000000
3.217914 0.508967 0.304439 61.000000
3.221430 0.499398 0.304604 49.000000
3.223932 0.489661 0.304687 54.000000
3.225343 0.459547 0.304439 66.000000
3.227725 0.449787 0.304522 72.000000
3.230077 0.440017 0.304604 49.000000
3.233387 0.430368 0.304769 55.000000
3.238645 0.420959 0.305099 53.000000
3.248820 0.412149 0.305841 76.000000
3.251058 0.402302 0.305924 51.000000
3.253266 0.392445 0.306006 43.000000
3.258414 0.382928 0.306336 41.000000
3.257593 0.372703 0.306171 51.000000
3.258722 0.362707 0.306171 55.000000
3.256846 0.352386 0.305924 54.000000
3.256921 0.342289 0.305841 68.000000
3.253990 0.331891 0.305511 48.000000
3.257968 0.322200 0.305759 57.000000
3.263902 0.312678 0.306171 37.000000
3.261868 0.302387 0.305924 57.000000
3.262781 0.292379 0.305924 56.000000
3.262670 0.282281 0.305841 53.000000
3.261534 0.272105 0.305676 62.000000
3.263347 0.262177 0.305759 57.000000
3.260161 0.251857 0.305429 51.000000
3.262907 0.242001 0.305594 41.000000
3.262640 0.231919 0.305511 44.000000
3.266319 0.222111 0.305759 59.000000
3.268974 0.212218 0.305924 37.000000
3.269609 0.202188 0.305924 55.000000
3.272204 0.192273 0.306089 37.000000
3.248897 0.180906 0.304110 9.000000
3.091245 0.999659 0.265096 40.000000
3.093347 0.989866 0.265025 35.000000
3.092566 0.979166 0.264743 42.000000
3.096507 0.969972 0.264813 51.000000
3.098516 0.960171 0.264743 56.000000
3.104308 0.951539 0.264955 60.000000
3.108167 0.942300 0.265025 54.000000
3.111999 0.933047 0.265096 54.000000
3.117715 0.924347 0.265308 62.000000
3.119579 0.914496 0.265237 40.000000
3.121412 0.904643 0.265166 52.000000
3.122256 0.894513 0.265025 67.000000
3.118268 0.883025 0.264531 54.000000
3.120962 0.873454 0.264531 62.000000
3.122666 0.863608 0.264460 54.000000
3.123376 0.853498 0.264319 59.000000
3.125017 0.843651 0.264248 50.000000
3.128554 0.834317 0.264319 59.000000
3.133028 0.825223 0.264460 64.000000
3.137476 0.816110 0.264601 70.000000
3.136101 0.805487 0.264319 58.000000
3.137590 0.795616 0.264248 55.000000
3.150027 0.757754 0.264460 70.000000
3.154278 0.748548 0.264601 53.000000
3.157531 0.739095 0.264672 54.000000
3.161727 0.729854 0.264813 58.000000
3.163951 0.720150 0.264813 51.000000
3.162253 0.709565 0.264531 48.000000
3.165389 0.700076 0.264601 56.000000
3.162649 0.689297 0.264248 52.000000
3.163774 0.679381 0.264178 56.000000
3.163891 0.669258 0.264036 74.000000
3.165929 0.659548 0.264036 47.000000
3.165984 0.649431 0.263895 52.000000
3.166984 0.639517 0.263824 43.000000
3.171865 0.630382 0.264036 60.000000
3.176721 0.621223 0.264248 58.000000
3.178612 0.611474 0.264248 56.000000
3.182434 0.602091 0.264389 56.000000
3.181324 0.591776 0.264178 50.000000
3.188030 0.582912 0.264531 45.000000
3.191767 0.573482 0.264672 62.000000
3.196458 0.564209 0.264884 52.000000
3.200140 0.554741 0.265025 64.000000
3.205760 0.545591 0.265308 54.000000
3.210370 0.536248 0.265520 44.000000
3.214953 0.526881 0.265731 57.000000
3.214585 0.516698 0.265590 45.000000
3.214184 0.506522 0.265449 54.000000
3.212766 0.496201 0.265237 54.000000
3.213287 0.486192 0.265166 49.000000
3.213777 0.476185 0.265096 60.000000
3.218184 0.466754 0.265308 53.000000
3.221576 0.457159 0.265449 45.000000
3.224939 0.447548 0.265590 46.000000
3.228274 0.437921 0.265731 39.000000
3.230591 0.428146 0.265802 47.000000
3.236835 0.418875 0.266155 59.000000
3.246022 0.409945 0.266720 46.000000
3.251225 0.400474 0.267003 46.000000
3.254418 0.390736 0.267144 54.000000
3.258574 0.381098 0.267356 49.000000
3.260719 0.371212 0.267426 62.000000
3.260851 0.361097 0.267356 47.000000
3.257977 0.350662 0.267073 59.000000
3.255069 0.340249 0.266791 70.000000
3.247166 0.329352 0.266155 56.000000
3.249154 0.319486 0.266226 49.000000
3.254091 0.309896 0.266508 46.000000
3.260985 0.300463 0.266932 39.000000
3.262885 0.290546 0.267003 52.000000
3.272706 0.281306 0.267638 40.000000
3.280512 0.271843 0.268133 59.000000
3.283319 0.261937 0.268274 55.000000
3.285102 0.251939 0.268345 39.000000
3.277901 0.241271 0.267780 49.000000
3.270666 0.230649 0.267215 45.000000
3.269367 0.220479 0.267073 45.000000
3.265051 0.210125 0.266720 44.000000
3.261698 0.199862 0.266438 55.000000
3.267275 0.190145 0.266791 32.000000
3.220037 0.177469 0.263401 4.000000
3.094542 0.991581 0.224334 35.000000
3.093763 0.980876 0.224102 52.000000
3.095804 0.971081 0.224044 55.000000
3.102583 0.962762 0.224276 57.000000
3.125607 0.917587 0.224799 65.000000
3.128408 0.907994 0.224799 58.000000
3.127340 0.897291 0.224567 78.000000
3.125276 0.886330 0.224276 53.000000
3.122213 0.875122 0.223928 49.000000
3.121997 0.864740 0.223753 84.000000
3.128487 0.856212 0.223986 52.000000
3.127244 0.845568 0.223753 65.000000
3.132717 0.836742 0.223928 77.000000
3.136235 0.827381 0.223986 51.000000
3.145521 0.819517 0.224392 55.000000
3.148987 0.810111 0.224450 57.000000
3.151458 0.800447 0.224450 55.000000
3.153898 0.790774 0.224450 67.000000
3.156310 0.781094 0.224450 57.000000
3.161601 0.772118 0.224625 57.000000
3.165896 0.762882 0.224741 57.000000
3.162394 0.751781 0.224392 61.000000
3.164685 0.742075 0.224392 53.000000
3.165002 0.731913 0.224276 55.000000
3.167232 0.722199 0.224276 76.000000
3.168459 0.712260 0.224218 68.000000
3.169655 0.702320 0.224160 63.000000
3.172770 0.692805 0.224218 59.000000
3.178784 0.683908 0.224450 51.000000
3.184774 0.674980 0.224683 57.000000
3.187807 0.665410 0.224741 78.000000
3.186900 0.655024 0.224567 58.000000
3.188895 0.645243 0.224567 68.000000
3.194776 0.636236 0.224799 59.000000
3.199652 0.627008 0.224973 54.000000
3.200580 0.616999 0.224915 68.000000
3.201477 0.606991 0.224857 53.000000
3.204306 0.597349 0.224915 40.000000
3.207105 0.587696 0.224973 48.000000
3.210858 0.578207 0.225089 53.000000
3.211634 0.568180 0.225031 57.000000
3.210411 0.557812 0.224857 54.000000
3.212107 0.547960 0.224857 55.000000
3.218697 0.538926 0.225147 56.000000
3.223290 0.529534 0.225322 60.000000
3.224899 0.519643 0.225322 67.000000
3.231409 0.510525 0.225612 50.000000
3.230987 0.500303 0.225496 58.000000
3.231519 0.490239 0.225438 64.000000
3.239270 0.450821 0.225554 57.000000
3.242616 0.441150 0.225670 52.000000
3.246923 0.431594 0.225845 45.000000
3.249222 0.421759 0.225903 51.000000
3.247530 0.411412 0.225728 62.000000
3.246795 0.401203 0.225612 50.000000
3.249001 0.391359 0.225670 48.000000
3.248204 0.381157 0.225554 60.000000
3.249358 0.371190 0.225554 64.000000
3.255442 0.361770 0.225845 63.000000
3.256537 0.351781 0.225845 55.000000
3.260580 0.342100 0.226019 53.000000
3.258634 0.331792 0.225845 70.000000
3.258643 0.321695 0.225786 57.000000
3.262596 0.311981 0.225961 60.000000
3.260556 0.301695 0.225786 34.000000
3.269421 0.292400 0.226251 67.000000
3.276271 0.282883 0.226600 51.000000
3.282097 0.273244 0.226890 43.000000
3.288891 0.263651 0.227239 58.000000
3.295657 0.254019 0.227587 39.000000
3.296420 0.243907 0.227587 53.000000
3.297153 0.233793 0.227587 53.000000
3.293871 0.223407 0.227355 43.000000
3.292548 0.213171 0.227239 58.000000
3.293186 0.203069 0.227239 37.000000
3.291801 0.192848 0.227122 41.000000
3.306332 0.183521 0.227936 8.000000
3.090314 0.988303 0.185620 38.000000
3.096189 0.979722 0.185758 52.000000
3.097274 0.969621 0.185666 29.000000
3.105004 0.961594 0.185897 41.000000
3.111760 0.953235 0.186082 48.000000
3.110846 0.942524 0.185897 56.000000
3.120421 0.934985 0.186221 41.000000
3.122317 0.925123 0.186174 56.000000
3.126099 0.915820 0.186221 63.000000
3.136569 0.908451 0.186591 56.000000
3.136461 0.897998 0.186452 55.000000
3.144006 0.889733 0.186683 36.000000
3.144798 0.879545 0.186591 45.000000
3.144593 0.869093 0.186452 50.000000
3.142426 0.858124 0.186221 52.000000
3.146009 0.848740 0.186267 57.000000
3.142807 0.837538 0.185990 41.000000
3.150191 0.829166 0.186221 55.000000
3.154654 0.820000 0.186313 42.000000
3.154252 0.809572 0.186174 44.000000
3.164357 0.760625 0.186082 40.000000
3.164732 0.750452 0.185990 55.000000
3.168965 0.741195 0.186082 57.000000
3.172197 0.731694 0.186128 44.000000
3.178323 0.722846 0.186313 42.000000
3.180525 0.713092 0.186313 46.000000
3.184649 0.703762 0.186406 43.000000
3.186793 0.693989 0.186406 47.000000
3.189884 0.684418 0.186452 39.000000
3.194900 0.675249 0.186591 50.000000
3.191089 0.664221 0.186313 44.000000
3.194091 0.654629 0.186359 49.000000
3.197063 0.645024 0.186406 29.000000
3.199027 0.635213 0.186406 38.000000
3.200961 0.625395 0.186406 38.000000
3.206788 0.616327 0.186591 48.000000
3.211608 0.607044 0.186729 44.000000
3.217384 0.597919 0.186914 39.000000
3.217238 0.587686 0.186822 41.000000
3.218042 0.577636 0.186776 38.000000
3.215865 0.567065 0.186591 44.000000
3.215621 0.556855 0.186498 45.000000
3.217314 0.546987 0.186498 36.000000
3.216021 0.536619 0.186359 44.000000
3.222581 0.527559 0.186591 46.000000
3.226157 0.517987 0.186683 32.000000
3.228718 0.508243 0.186729 36.000000
3.237172 0.499403 0.187053 46.000000
3.242640 0.490068 0.187238 43.000000
3.243140 0.479971 0.187192 45.000000
3.244597 0.470019 0.187192 56.000000
3.239101 0.459079 0.186868 51.000000
3.237526 0.448727 0.186729 48.000000
3.238887 0.438792 0.186729 41.000000
3.239228 0.428722 0.186683 47.000000
3.237556 0.418397 0.186544 49.000000
3.239815 0.408587 0.186591 48.000000
3.243037 0.398890 0.186683 40.000000
3.252179 0.389893 0.187053 27.000000
3.254352 0.380030 0.187099 52.000000
3.252526 0.369704 0.186960 49.000000
3.257616 0.360165 0.187145 30.000000
3.262678 0.350597 0.187330 43.000000
3.261752 0.340377 0.187238 45.000000
3.259799 0.330066 0.187099 44.000000
3.260797 0.320064 0.187099 41.000000
3.259774 0.309868 0.187007 55.000000
3.262699 0.300050 0.187099 44.000000
3.266589 0.290305 0.187238 38.000000
3.275426 0.280967 0.187608 51.000000
3.278264 0.271083 0.187700 36.000000
3.284059 0.261422 0.187931 43.000000
3.290821 0.251805 0.188209 48.000000
3.289586 0.241560 0.188116 39.000000
3.299279 0.232101 0.188532 47.000000
3.290009 0.221304 0.188070 33.000000
3.293664 0.211402 0.188209 47.000000
3.284326 0.200684 0.187746 36.000000
3.282932 0.190490 0.187654 25.000000
3.279511 0.180197 0.187469 10.000000
3.104817 0.994278 0.146073 43.000000
3.108806 0.985049 0.146107 39.000000
3.105137 0.973415 0.145870 63.000000
3.106200 0.963292 0.145802 35.000000
3.140750 0.921438 0.146513 60.000000
3.149322 0.913468 0.146716 44.000000
3.153070 0.904077 0.146750 66.000000
3.156791 0.894672 0.146784 50.000000
3.154709 0.883635 0.146615 51.000000
3.153552 0.872887 0.146479 56.000000
3.148502 0.861099 0.146209 51.000000
3.148235 0.850654 0.146107 72.000000
3.150830 0.840991 0.146107 62.000000
3.184321 0.839470 0.147190 43.000000
3.247816 0.845553 0.149323 30.000000
3.209740 0.825139 0.147901 43.000000
3.209350 0.814550 0.147800 44.000000
3.224437 0.807856 0.148240 50.000000
3.213317 0.794603 0.147766 48.000000
3.218653 0.785451 0.147867 46.000000
3.214246 0.773936 0.147630 55.000000
3.222439 0.765456 0.147833 40.000000
3.218934 0.754199 0.147630 37.000000
3.239735 0.748593 0.148274 43.000000
3.254684 0.741535 0.148714 45.000000
3.265720 0.733516 0.149018 36.000000
3.282593 0.726732 0.149526 43.000000
3.314101 0.723046 0.150542 26.000000
3.346595 0.719383 0.151591 59.000000
3.336076 0.706422 0.151151 39.000000
3.346055 0.697815 0.151422 37.000000
3.369718 0.691967 0.152167 38.000000
3.371825 0.681625 0.152167 34.000000
3.365078 0.669523 0.151862 31.000000
3.432832 0.672054 0.154130 55.000000
3.448617 0.664164 0.154604 47.000000
3.455549 0.654510 0.154773 55.000000
3.482104 0.648477 0.155620 48.000000
3.457533 0.632935 0.154706 33.000000
3.526348 0.634349 0.157008 19.000000
3.485957 0.616053 0.155552 29.000000
3.523281 0.611504 0.156771 25.000000
3.564550 0.607403 0.158125 23.000000
3.571326 0.597288 0.158294 17.000000
3.563279 0.584712 0.157956 36.000000
3.614393 0.581712 0.159648 17.000000
3.622084 0.571554 0.159851 35.000000
3.628759 0.561203 0.160021 31.000000
3.625523 0.549319 0.159851 36.000000
3.565285 0.939907 0.115648 12.000000
3.567185 0.928712 0.115626 19.000000
3.557430 0.914524 0.115345 18.000000
3.552468 0.901635 0.115172 21.000000
3.536793 0.886110 0.114760 38.000000
3.522027 0.870929 0.114371 35.000000
3.515941 0.857984 0.114176 37.000000
3.511754 0.845553 0.114025 32.000000
3.499742 0.831304 0.113700 52.000000
3.496436 0.819193 0.113570 47.000000
3.485296 0.805307 0.113267 49.000000
3.481902 0.793276 0.113137 52.000000
3.483344 0.782370 0.113116 48.000000
3.481823 0.770814 0.113029 33.000000
3.482219 0.759702 0.112986 44.000000
3.482578 0.748594 0.112943 36.000000
3.475078 0.735832 0.112726 28.000000
3.480255 0.725780 0.112791 32.000000
3.483445 0.715301 0.112813 29.000000
3.472884 0.702031 0.112532 21.000000
3.481885 0.692741 0.112683 35.000000
3.484976 0.682248 0.112705 41.000000
3.493924 0.672879 0.112856 32.000000
3.508741 0.664579 0.113137 37.000000
3.523540 0.656195 0.113419 48.000000
3.531436 0.646464 0.113549 45.000000
3.544226 0.637577 0.113787 48.000000
3.556010 0.628444 0.114003 45.000000
3.568756 0.619415 0.114241 24.000000
3.578524 0.609810 0.114414 42.000000
3.594182 0.601142 0.114717 31.000000
3.613767 0.593032 0.115107 29.000000
3.633336 0.584807 0.115496 16.000000
3.637087 0.573970 0.115540 25.000000
3.645747 0.563881 0.115691 22.000000
3.628680 0.549841 0.115280 9.000000
3.560334 0.926216 0.070065 10.000000
3.552505 0.912553 0.069963 23.000000
3.545594 0.899193 0.069871 23.000000
3.535726 0.885155 0.069750 30.000000
3.522892 0.870468 0.069602 34.000000
3.510002 0.855867 0.069454 39.000000
3.504833 0.843224 0.069380 38.000000
3.503512 0.831544 0.069343 49.000000
3.494363 0.818058 0.069232 46.000000
3.487113 0.805085 0.069140 40.000000
3.481766 0.792608 0.069066 49.000000
3.478327 0.780609 0.069010 53.000000
3.477776 0.769286 0.068983 65.000000
3.475235 0.757549 0.068936 54.000000
3.472654 0.745834 0.068890 66.000000
3.478839 0.736004 0.068927 65.000000
3.480102 0.725124 0.068918 42.000000
3.486229 0.715247 0.068955 58.000000
3.486446 0.704152 0.068936 45.000000
3.491533 0.694037 0.068964 49.000000
3.495608 0.683706 0.068983 48.000000
3.503581 0.674111 0.069038 60.000000
3.505633 0.663359 0.069038 52.000000
3.516499 0.654246 0.069121 47.000000
3.526359 0.644893 0.069195 49.000000
3.535210 0.635308 0.069260 44.000000
3.552899 0.627239 0.069408 30.000000
3.565645 0.618214 0.069510 35.000000
3.575411 0.608614 0.069584 36.000000
3.595015 0.600605 0.069750 29.000000
3.605722 0.591028 0.069834 35.000000
3.622327 0.582342 0.069972 25.000000
3.624097 0.571226 0.069972 13.000000
3.622868 0.559648 0.069945 7.000000
3.562191 0.927410 0.024026 12.000000
3.559209 0.914981 0.024046 16.000000
3.551338 0.901348 0.024082 24.000000
3.539538 0.886799 0.024132 22.000000
3.517975 0.869926 0.024215 37.000000
3.507999 0.856043 0.024258 49.000000
3.497971 0.842229 0.024301 45.000000
3.490810 0.829180 0.024334 45.000000
3.482628 0.815953 0.024371 47.000000
3.476347 0.803236 0.024401 43.000000
3.470021 0.790565 0.024430 51.000000
3.466576 0.778598 0.024450 54.000000
3.466019 0.767310 0.024460 77.000000
3.463472 0.755606 0.024477 56.000000
3.463819 0.744555 0.024483 67.000000
3.467066 0.734132 0.024480 65.000000
3.472238 0.724106 0.024470 54.000000
3.479341 0.714457 0.024454 47.000000
3.482496 0.703977 0.024450 48.000000
3.490524 0.694463 0.024430 68.000000
3.496563 0.684520 0.024417 58.000000
3.502574 0.674548 0.024404 44.000000
3.502663 0.663426 0.024410 37.000000
3.507631 0.653227 0.024401 65.000000
3.511585 0.642823 0.024394 50.000000
3.520430 0.633289 0.024371 40.000000
3.530234 0.623880 0.024344 32.000000
3.545924 0.615445 0.024298 43.000000
3.563567 0.607256 0.024245 40.000000
3.590069 0.600452 0.024162 38.000000
3.608669 0.592194 0.024105 30.000000
3.623303 0.583189 0.024062 31.000000
3.623100 0.571758 0.024069 21.000000
3.628790 0.561253 0.024056 19.000000
3.592926 0.544412 0.024182 7.000000
3.574240 0.931159 -0.021595 13.000000
3.559649 0.915707 -0.021312 14.000000
3.545967 0.900599 -0.021045 31.000000
3.519616 0.882424 -0.020574 31.000000
3.521337 0.871382 -0.020558 18.000000
3.499709 0.854647 -0.020165 28.000000
3.468292 0.835712 -0.019615 51.000000
3.469867 0.824836 -0.019600 38.000000
