ply
format ascii 1.0
element vertex 1257
property float x
property float y
property float z
property float intensity
end_header
2.419871 0.449850 -0.212663 51.000000
2.424176 0.442962 -0.212967 54.000000
2.429440 0.436228 -0.213371 51.000000
2.452319 0.432585 -0.215598 51.000000
2.476179 0.428975 -0.217927 45.000000
2.516712 0.428067 -0.221976 33.000000
2.552355 0.426093 -0.225519 52.000000
2.566413 0.420357 -0.226835 52.000000
2.588316 0.415804 -0.228961 56.000000
2.604320 0.410190 -0.230479 60.000000
2.602617 0.401741 -0.230176 80.000000
2.611706 0.394948 -0.230985 45.000000
2.619794 0.387957 -0.231694 39.000000
2.615065 0.379059 -0.231087 75.000000
2.618186 0.371314 -0.231289 46.000000
2.618327 0.363143 -0.231188 64.000000
2.621400 0.355376 -0.231390 65.000000
2.622478 0.347332 -0.231390 54.000000
2.620572 0.338901 -0.231087 57.000000
2.620612 0.330735 -0.230985 67.000000
2.621614 0.322693 -0.230985 75.000000
2.632469 0.315838 -0.231998 23.000000
2.632438 0.307644 -0.231896 47.000000
2.630404 0.299228 -0.231593 41.000000
2.631310 0.291157 -0.231593 32.000000
2.632191 0.283083 -0.231593 60.000000
2.637004 0.275421 -0.231998 68.000000
2.639817 0.267531 -0.232200 94.000000
2.630724 0.258454 -0.231188 101.000000
2.633485 0.250571 -0.231390 94.000000
2.629289 0.242032 -0.230884 75.000000
2.634973 0.234407 -0.231390 48.000000
2.633698 0.226151 -0.231188 73.000000
2.638345 0.218400 -0.231593 54.000000
2.630078 0.209590 -0.230682 59.000000
2.616821 0.200450 -0.229265 59.000000
2.566824 0.188678 -0.224102 34.000000
2.595177 0.182772 -0.226936 24.000000
2.499445 0.168282 -0.217117 46.000000
2.476122 0.159071 -0.214687 52.000000
2.451774 0.149943 -0.212157 63.000000
2.448251 0.142188 -0.211752 53.000000
2.448675 0.134676 -0.211752 46.000000
2.447090 0.127059 -0.211549 55.000000
2.437531 0.119061 -0.210537 33.000000
2.425960 0.111030 -0.209322 16.000000
2.423307 0.103458 -0.209019 10.000000
2.412886 0.464813 -0.241556 38.000000
2.412348 0.457038 -0.241330 74.000000
2.412762 0.449453 -0.241217 65.000000
2.416085 0.442407 -0.241443 65.000000
2.422320 0.435871 -0.242008 59.000000
2.438323 0.431030 -0.243704 52.000000
2.457255 0.426603 -0.245738 66.000000
2.496753 0.425568 -0.250146 49.000000
2.535286 0.424130 -0.254442 50.000000
2.565990 0.421173 -0.257832 59.000000
2.587872 0.416612 -0.260206 55.000000
2.606804 0.411457 -0.262241 71.000000
2.611981 0.404064 -0.262693 71.000000
2.618121 0.396792 -0.263258 60.000000
2.622274 0.389195 -0.263597 67.000000
2.624439 0.381291 -0.263710 65.000000
2.627564 0.373517 -0.263936 62.000000
2.628698 0.365454 -0.263936 41.000000
2.636698 0.358323 -0.264727 63.000000
2.642710 0.350886 -0.265292 51.000000
2.647716 0.343287 -0.265745 57.000000
2.650728 0.335411 -0.265971 52.000000
2.657661 0.328007 -0.266649 53.000000
2.661615 0.320207 -0.266988 75.000000
2.677387 0.313772 -0.268683 99.000000
2.663529 0.303870 -0.266988 70.000000
2.655561 0.294712 -0.265971 48.000000
2.655465 0.286457 -0.265858 64.000000
2.654355 0.278102 -0.265631 60.000000
2.649264 0.269355 -0.264953 69.000000
2.650078 0.261226 -0.264953 58.000000
2.644933 0.252528 -0.264275 55.000000
2.644706 0.244321 -0.264162 56.000000
2.646432 0.236295 -0.264275 56.000000
2.647145 0.228174 -0.264275 66.000000
2.641891 0.219559 -0.263597 64.000000
2.638591 0.211136 -0.263145 74.000000
2.625357 0.201975 -0.261562 79.000000
2.562546 0.189246 -0.254329 44.000000
2.525452 0.178724 -0.250033 35.000000
2.487326 0.168364 -0.245625 34.000000
2.480890 0.160285 -0.244834 58.000000
2.455585 0.151091 -0.241895 55.000000
2.451078 0.143267 -0.241330 54.000000
2.449522 0.135637 -0.241104 72.000000
2.445957 0.127914 -0.240652 72.000000
2.450308 0.120605 -0.241104 28.000000
2.447689 0.112950 -0.240765 6.000000
2.497134 0.480123 -0.283068 19.000000
2.458631 0.464884 -0.277929 26.000000
2.411279 0.448249 -0.271663 39.000000
2.404836 0.439419 -0.270660 60.000000
2.413008 0.433269 -0.271537 46.000000
2.428980 0.428456 -0.273417 47.000000
2.452765 0.424908 -0.276300 50.000000
2.496111 0.424554 -0.281689 48.000000
2.539477 0.423937 -0.287079 54.000000
2.568177 0.420647 -0.290588 63.000000
2.595902 0.417026 -0.293972 54.000000
2.612849 0.411537 -0.295977 64.000000
2.621942 0.404733 -0.296980 58.000000
2.628077 0.397431 -0.297607 55.000000
2.635171 0.390241 -0.298359 53.000000
2.638320 0.382440 -0.298609 64.000000
2.641445 0.374623 -0.298860 63.000000
2.645530 0.366928 -0.299236 61.000000
2.650575 0.359345 -0.299737 74.000000
2.675269 0.354348 -0.302745 35.000000
2.674376 0.345883 -0.302495 44.000000
2.668534 0.336804 -0.301617 50.000000
2.681370 0.330075 -0.303121 38.000000
2.684340 0.322085 -0.303372 114.000000
2.690243 0.314426 -0.303999 126.000000
2.671481 0.303919 -0.301492 47.000000
2.669442 0.295393 -0.301116 57.000000
2.655540 0.285604 -0.299236 50.000000
2.653444 0.277145 -0.298860 46.000000
2.646386 0.268200 -0.297857 36.000000
2.638310 0.259202 -0.296729 53.000000
2.635142 0.250729 -0.296228 58.000000
2.635899 0.242644 -0.296228 47.000000
2.633667 0.234291 -0.295852 58.000000
2.636350 0.226380 -0.296103 59.000000
2.620224 0.216892 -0.293972 50.000000
2.603077 0.207426 -0.291716 60.000000
2.571058 0.196924 -0.287580 49.000000
2.520200 0.185230 -0.281063 38.000000
2.489088 0.175252 -0.277052 51.000000
2.462888 0.165803 -0.273668 51.000000
2.454475 0.157670 -0.272540 35.000000
2.426231 0.148369 -0.268905 16.000000
2.438559 0.141621 -0.270409 6.000000
2.425114 0.133369 -0.268655 11.000000
2.421549 0.125721 -0.268153 10.000000
2.414987 0.117949 -0.267276 9.000000
2.452945 0.473405 -0.308283 26.000000
2.407675 0.457019 -0.301685 47.000000
2.413934 0.450538 -0.302373 36.000000
2.405562 0.441344 -0.300998 51.000000
2.403980 0.433435 -0.300586 38.000000
2.410176 0.426920 -0.301273 41.000000
2.427088 0.422238 -0.303472 51.000000
2.447900 0.418122 -0.306221 41.000000
2.449171 0.410610 -0.306221 23.000000
2.469967 0.406307 -0.308970 25.000000
2.594416 0.418588 -0.326288 58.000000
2.602537 0.411709 -0.327250 48.000000
2.625322 0.407059 -0.330274 63.000000
2.629496 0.399448 -0.330686 58.000000
2.635608 0.392107 -0.331373 67.000000
2.640719 0.384590 -0.331923 78.000000
2.644829 0.376905 -0.332335 70.000000
2.649897 0.369336 -0.332885 58.000000
2.662795 0.362807 -0.334535 71.000000
2.669786 0.355419 -0.335359 73.000000
2.676758 0.347992 -0.336184 71.000000
2.682726 0.340401 -0.336871 64.000000
2.690639 0.333020 -0.337833 66.000000
2.685748 0.324052 -0.337009 110.000000
2.697551 0.317082 -0.338520 127.000000
2.688670 0.307679 -0.337146 54.000000
2.683694 0.298772 -0.336321 75.000000
2.677705 0.289793 -0.335359 46.000000
2.672671 0.280956 -0.334535 52.000000
2.662681 0.271650 -0.333023 61.000000
2.657587 0.262896 -0.332198 44.000000
2.651479 0.254081 -0.331236 54.000000
2.641397 0.244941 -0.329724 69.000000
2.632270 0.235953 -0.328350 57.000000
2.631995 0.227791 -0.328212 75.000000
2.596159 0.216672 -0.323127 56.000000
2.519800 0.202528 -0.312406 30.000000
2.511521 0.194111 -0.311169 48.000000
2.491361 0.184869 -0.308283 41.000000
2.470179 0.175682 -0.305259 48.000000
2.448966 0.166627 -0.302235 65.000000
2.443535 0.158728 -0.301410 53.000000
2.443022 0.151170 -0.301273 45.000000
2.437541 0.143326 -0.300448 53.000000
2.437970 0.135847 -0.300448 61.000000
2.447277 0.128834 -0.301685 35.000000
2.449639 0.121423 -0.301960 14.000000
2.365200 0.461797 -0.325038 18.000000
2.381171 0.457343 -0.327276 17.000000
2.386448 0.450772 -0.327873 23.000000
2.383932 0.442724 -0.327276 35.000000
2.390142 0.436298 -0.328022 32.000000
2.390496 0.428788 -0.327873 36.000000
2.394722 0.421969 -0.328321 43.000000
2.407696 0.416648 -0.330111 37.000000
2.431382 0.413080 -0.333542 29.000000
2.449218 0.408391 -0.336078 30.000000
2.454362 0.401515 -0.336675 26.000000
2.545397 0.408437 -0.350401 39.000000
2.582778 0.406328 -0.355921 47.000000
2.627008 0.405051 -0.362485 64.000000
2.627261 0.396841 -0.362336 51.000000
2.638247 0.390230 -0.363828 63.000000
2.642367 0.382560 -0.364275 75.000000
2.649403 0.375287 -0.365171 42.000000
2.651521 0.367293 -0.365320 56.000000
2.657534 0.359822 -0.366066 59.000000
2.668428 0.352968 -0.367558 41.000000
2.675382 0.345542 -0.368453 45.000000
2.691144 0.339193 -0.370691 37.000000
2.767737 0.340257 -0.382178 14.000000
2.690230 0.322320 -0.370243 64.000000
2.696116 0.314640 -0.370989 42.000000
2.683315 0.304799 -0.368900 48.000000
2.681289 0.296238 -0.368453 34.000000
2.677269 0.287481 -0.367707 42.000000
2.672238 0.278648 -0.366812 38.000000
2.666194 0.269749 -0.365767 46.000000
2.658153 0.260695 -0.364425 42.000000
2.653034 0.251975 -0.363529 48.000000
2.632133 0.241835 -0.360247 52.000000
2.606271 0.231386 -0.356219 44.000000
2.574458 0.220588 -0.351296 45.000000
2.525852 0.208597 -0.343836 37.000000
2.458469 0.195409 -0.333542 24.000000
2.458071 0.187790 -0.333393 22.000000
2.450747 0.179665 -0.332200 38.000000
2.442409 0.171518 -0.330857 29.000000
2.435031 0.163490 -0.329663 22.000000
2.438482 0.156210 -0.330111 34.000000
2.441911 0.148910 -0.330558 36.000000
2.439394 0.141245 -0.330111 45.000000
2.438829 0.133706 -0.329962 36.000000
2.453052 0.126945 -0.332050 18.000000
2.458368 0.119661 -0.332796 15.000000
2.458724 0.112118 -0.332796 10.000000
2.361429 0.462852 -0.354004 35.000000
2.377374 0.458405 -0.356420 45.000000
2.381679 0.451661 -0.356904 20.000000
2.379172 0.443628 -0.356259 35.000000
2.389259 0.437927 -0.357709 46.000000
2.391563 0.430770 -0.357870 67.000000
2.395789 0.423946 -0.358353 28.000000
2.402912 0.417607 -0.359320 35.000000
2.405155 0.410399 -0.359481 53.000000
2.434632 0.407741 -0.364153 46.000000
2.444637 0.401709 -0.365602 23.000000
2.545245 0.410209 -0.382033 50.000000
2.584512 0.408401 -0.388316 52.000000
2.629642 0.407261 -0.395565 61.000000
2.644541 0.401262 -0.397820 89.000000
2.642831 0.392712 -0.397337 59.000000
2.645976 0.384886 -0.397659 67.000000
2.659847 0.378572 -0.399753 58.000000
2.664906 0.370954 -0.400397 68.000000
2.670922 0.363441 -0.401203 56.000000
2.684742 0.356934 -0.403297 55.000000
2.694634 0.349838 -0.404747 55.000000
2.718214 0.344420 -0.408452 32.000000
2.694803 0.316285 -0.404102 36.000000
2.681052 0.306337 -0.401686 53.000000
2.684922 0.298437 -0.402169 35.000000
2.674050 0.288928 -0.400236 52.000000
2.668053 0.280003 -0.399109 45.000000
2.666935 0.271616 -0.398786 55.000000
2.659899 0.262658 -0.397498 54.000000
2.655780 0.254027 -0.396692 64.000000
2.650650 0.245333 -0.395726 71.000000
2.634679 0.235708 -0.392987 63.000000
2.563610 0.221434 -0.381228 30.000000
2.531820 0.210870 -0.375912 27.000000
2.531471 0.203023 -0.375751 31.000000
2.513385 0.193816 -0.372690 24.000000
2.470660 0.182905 -0.365602 48.000000
2.463334 0.174767 -0.364314 43.000000
2.439242 0.165542 -0.360287 65.000000
2.442693 0.158248 -0.360770 32.000000
2.443167 0.150754 -0.360770 38.000000
2.437706 0.142912 -0.359803 34.000000
2.435177 0.135269 -0.359320 51.000000
2.436566 0.127849 -0.359481 40.000000
2.437932 0.120421 -0.359642 25.000000
2.436319 0.112850 -0.359320 10.000000
2.436654 0.105375 -0.359320 9.000000
2.354559 0.467218 -0.382591 27.000000
2.369514 0.462641 -0.385013 23.000000
2.387364 0.458536 -0.387953 21.000000
2.383920 0.450293 -0.387088 36.000000
2.380449 0.442076 -0.386223 27.000000
2.399233 0.437962 -0.389337 60.000000
2.407351 0.431820 -0.390547 34.000000
2.417394 0.425975 -0.392104 33.000000
2.463329 0.426303 -0.400060 23.000000
2.414136 0.410141 -0.391066 43.000000
2.439670 0.406794 -0.395390 56.000000
2.533240 0.414457 -0.411822 32.000000
2.553948 0.409813 -0.415281 38.000000
2.599946 0.409036 -0.423237 32.000000
2.608975 0.402262 -0.424621 43.000000
2.621883 0.396026 -0.426696 41.000000
2.629906 0.388992 -0.427907 37.000000
2.638885 0.382055 -0.429291 42.000000
2.644920 0.374650 -0.430155 54.000000
2.656788 0.368025 -0.432058 29.000000
2.662784 0.360535 -0.432923 45.000000
2.666807 0.352753 -0.433442 44.000000
2.662016 0.343810 -0.432404 27.000000
2.644493 0.333293 -0.429118 8.000000
2.682634 0.304721 -0.435171 35.000000
2.666914 0.294644 -0.432231 18.000000
2.676619 0.287411 -0.433788 44.000000
2.677488 0.279198 -0.433788 32.000000
2.657755 0.268891 -0.430155 58.000000
2.664448 0.261315 -0.431193 78.000000
2.657394 0.252391 -0.429809 45.000000
2.654233 0.243875 -0.429118 42.000000
2.642215 0.234593 -0.426869 36.000000
2.632128 0.225556 -0.424967 52.000000
2.596490 0.214463 -0.418567 51.000000
2.569646 0.204298 -0.413724 46.000000
2.529015 0.193243 -0.406460 37.000000
2.509951 0.184034 -0.403001 31.000000
2.495766 0.175291 -0.400406 34.000000
2.494327 0.167500 -0.400060 53.000000
2.462394 0.157753 -0.394353 43.000000
2.458934 0.149956 -0.393661 31.000000
2.448567 0.141780 -0.391758 25.000000
2.439156 0.133724 -0.390029 37.000000
2.431686 0.125829 -0.388645 34.000000
2.428126 0.118175 -0.387953 28.000000
2.395025 0.109184 -0.382072 13.000000
2.378620 0.101116 -0.379132 7.000000
2.384556 0.451349 -0.416351 28.000000
2.408154 0.448164 -0.420594 19.000000
2.441423 0.446604 -0.426681 33.000000
2.399250 0.431294 -0.418380 50.000000
2.418952 0.427176 -0.421885 34.000000
2.400882 0.416397 -0.418196 29.000000
2.439937 0.415457 -0.425390 35.000000
2.366554 0.395507 -0.411186 79.000000
2.434681 0.399207 -0.423914 39.000000
2.508674 0.403428 -0.437749 37.000000
2.508929 0.395577 -0.437564 42.000000
2.568411 0.396874 -0.448632 51.000000
2.604600 0.394283 -0.455273 76.000000
2.614548 0.387586 -0.456933 70.000000
2.609889 0.378717 -0.455827 56.000000
2.615904 0.371398 -0.456749 59.000000
2.607296 0.362021 -0.454904 48.000000
2.628847 0.356793 -0.458778 60.000000
2.605571 0.345500 -0.454166 40.000000
2.607593 0.337631 -0.454351 46.000000
2.625194 0.331721 -0.457487 7.000000
2.655433 0.302480 -0.462467 47.000000
2.661233 0.294873 -0.463390 56.000000
2.678738 0.288494 -0.466526 58.000000
2.611184 0.273127 -0.453613 34.000000
2.623743 0.266304 -0.455827 37.000000
2.613788 0.257196 -0.453797 49.000000
2.621414 0.249827 -0.455089 54.000000
2.615317 0.241153 -0.453797 51.000000
2.622898 0.233738 -0.455089 59.000000
2.624582 0.225774 -0.455273 77.000000
2.619385 0.217234 -0.454166 68.000000
2.613181 0.208651 -0.452875 72.000000
2.550111 0.195753 -0.440885 52.000000
2.515413 0.185334 -0.434244 47.000000
2.484596 0.175406 -0.428341 34.000000
2.496890 0.168575 -0.430555 43.000000
2.473856 0.159401 -0.426128 40.000000
2.442941 0.149889 -0.420225 42.000000
2.451239 0.142850 -0.421700 22.000000
2.435964 0.134465 -0.418749 26.000000
2.402994 0.125257 -0.412477 37.000000
2.398458 0.117644 -0.411555 40.000000
2.415499 0.111050 -0.414691 22.000000
2.423683 0.103974 -0.416166 10.000000
2.273655 0.726807 -0.438070 38.000000
2.274004 0.719236 -0.437677 42.000000
2.278072 0.712842 -0.438070 46.000000
2.283994 0.707012 -0.438854 39.000000
2.282403 0.698851 -0.438070 26.000000
2.282659 0.691276 -0.437677 36.000000
2.283830 0.683988 -0.437481 32.000000
2.285918 0.676978 -0.437481 35.000000
2.288925 0.670238 -0.437677 43.000000
2.289087 0.662666 -0.437285 30.000000
2.286396 0.654289 -0.436305 48.000000
2.289336 0.647539 -0.436501 51.000000
2.289423 0.639983 -0.436108 57.000000
2.293267 0.633479 -0.436501 41.000000
2.295199 0.626441 -0.436501 34.000000
2.295217 0.618885 -0.436108 51.000000
2.299947 0.612599 -0.436697 33.000000
2.298023 0.604540 -0.435912 52.000000
2.302714 0.598228 -0.436501 33.000000
2.310236 0.592625 -0.437677 40.000000
2.308242 0.584570 -0.436893 55.000000
2.309073 0.577247 -0.436697 35.000000
2.304170 0.568513 -0.435324 40.000000
2.308761 0.562138 -0.435912 46.000000
2.310475 0.555053 -0.435912 43.000000
2.310259 0.547508 -0.435520 40.000000
2.310973 0.540194 -0.435324 44.000000
2.311664 0.532881 -0.435128 49.000000
2.317112 0.526658 -0.435912 46.000000
2.323501 0.520621 -0.436893 34.000000
2.320300 0.512430 -0.435912 41.000000
2.321862 0.505309 -0.435912 45.000000
2.323401 0.498183 -0.435912 46.000000
2.323959 0.490850 -0.435716 45.000000
2.325454 0.483718 -0.435716 33.000000
2.324045 0.475989 -0.435128 32.000000
2.318767 0.467497 -0.433755 33.000000
2.324037 0.461147 -0.434540 43.000000
2.326403 0.454203 -0.434736 49.000000
2.325860 0.446692 -0.434343 36.000000
2.329146 0.439920 -0.434736 51.000000
2.328557 0.432413 -0.434343 44.000000
2.330837 0.425443 -0.434540 45.000000
2.336957 0.419158 -0.435520 46.000000
2.337266 0.411816 -0.435324 43.000000
2.338519 0.404644 -0.435324 48.000000
2.342649 0.397961 -0.435912 50.000000
2.341925 0.390449 -0.435520 54.000000
2.342144 0.383103 -0.435324 58.000000
2.340404 0.375448 -0.434736 46.000000
2.339607 0.367961 -0.434343 33.000000
2.336849 0.360182 -0.433559 38.000000
2.335035 0.352570 -0.432971 46.000000
2.338045 0.345693 -0.433363 43.000000
2.340065 0.338659 -0.433559 40.000000
2.342064 0.331616 -0.433755 52.000000
2.350840 0.325509 -0.435324 51.000000
2.354743 0.318691 -0.435912 46.000000
2.355710 0.311465 -0.435912 45.000000
2.360544 0.304741 -0.436697 41.000000
2.355631 0.296759 -0.435520 47.000000
2.358476 0.289771 -0.435912 35.000000
2.364222 0.283119 -0.436893 53.000000
2.362158 0.275522 -0.436305 44.000000
2.360069 0.267940 -0.435716 24.000000
2.368677 0.261563 -0.437285 49.000000
2.366544 0.253980 -0.436697 35.000000
2.372188 0.247229 -0.437677 42.000000
2.376837 0.240346 -0.438462 48.000000
2.373660 0.232669 -0.437677 56.000000
2.373387 0.225292 -0.437481 51.000000
2.376019 0.218190 -0.437874 34.000000
2.372771 0.210551 -0.437089 48.000000
2.382198 0.204028 -0.438854 45.000000
2.386722 0.197043 -0.439639 56.000000
2.380473 0.189172 -0.438266 44.000000
2.383975 0.182094 -0.438854 51.000000
2.384523 0.174779 -0.438854 32.000000
2.384070 0.167393 -0.438658 48.000000
2.388485 0.160343 -0.439443 49.000000
2.386030 0.152825 -0.438854 44.000000
2.385509 0.145444 -0.438658 40.000000
2.386923 0.138182 -0.438854 42.000000
2.384398 0.130696 -0.438266 47.000000
2.387726 0.123533 -0.438854 42.000000
2.387115 0.116159 -0.438658 57.000000
2.385500 0.108745 -0.438266 47.000000
2.388762 0.101552 -0.438854 37.000000
2.387102 0.094145 -0.438462 49.000000
2.389340 0.086893 -0.438854 50.000000
2.395476 0.079761 -0.440031 60.000000
2.391788 0.072291 -0.439246 47.000000
2.392979 0.064980 -0.439443 48.000000
2.392187 0.057614 -0.439246 33.000000
2.390392 0.050232 -0.438854 45.000000
2.398378 0.043043 -0.440423 41.000000
2.399479 0.035700 -0.440619 43.000000
2.400558 0.028350 -0.440815 49.000000
2.405536 0.021030 -0.441796 49.000000
2.411473 0.013686 -0.442973 37.000000
2.411504 0.006288 -0.442973 44.000000
2.416414 -0.001110 -0.443953 46.000000
2.414438 -0.008518 -0.443561 55.000000
2.415381 -0.015931 -0.443757 46.000000
2.418263 -0.023368 -0.444345 39.000000
2.417199 -0.030775 -0.444149 51.000000
2.420035 -0.038236 -0.444738 35.000000
2.420887 -0.045679 -0.444934 35.000000
2.421715 -0.053127 -0.445130 38.000000
2.424482 -0.060628 -0.445718 36.000000
2.425265 -0.068093 -0.445914 42.000000
2.427005 -0.075594 -0.446307 44.000000
2.436562 -0.083370 -0.448268 30.000000
2.427475 -0.090520 -0.446503 49.000000
2.458539 -0.099217 -0.452778 12.000000
2.277315 0.722128 -0.467840 38.000000
2.278586 0.714846 -0.467632 51.000000
2.279834 0.707562 -0.467424 46.000000
2.276384 0.698843 -0.466178 60.000000
2.282261 0.692992 -0.467009 49.000000
2.278755 0.684300 -0.465763 59.000000
2.284595 0.678418 -0.466593 34.000000
2.288542 0.671957 -0.467009 49.000000
2.291533 0.665205 -0.467217 52.000000
2.293563 0.658172 -0.467217 52.000000
2.294630 0.650865 -0.467009 57.000000
2.295674 0.643559 -0.466801 54.000000
2.296695 0.636252 -0.466593 63.000000
2.299580 0.629460 -0.466801 58.000000
2.302444 0.622658 -0.467009 65.000000
2.304344 0.615591 -0.467009 65.000000
2.306221 0.608518 -0.467009 63.000000
2.308077 0.601440 -0.467009 74.000000
2.311806 0.594844 -0.467424 53.000000
2.312673 0.587507 -0.467217 67.000000
2.310669 0.579458 -0.466386 52.000000
2.306738 0.570957 -0.465139 58.000000
2.308479 0.563878 -0.465139 54.000000
2.307345 0.556106 -0.464516 61.000000
2.309040 0.549024 -0.464516 63.000000
2.307857 0.541268 -0.463893 44.000000
2.309506 0.534185 -0.463893 53.000000
2.313042 0.527532 -0.464308 65.000000
2.321330 0.521934 -0.465763 60.000000
2.324831 0.515233 -0.466178 62.000000
2.327356 0.508306 -0.466386 48.000000
2.332730 0.501986 -0.467217 45.000000
2.331388 0.494219 -0.466593 77.000000
2.331936 0.486864 -0.466386 46.000000
2.331502 0.479314 -0.465970 51.000000
2.327209 0.470996 -0.464724 60.000000
2.328643 0.463854 -0.464724 56.000000
2.331015 0.456895 -0.464932 53.000000
2.334327 0.450112 -0.465347 49.000000
2.339541 0.443677 -0.466178 47.000000
2.342815 0.436855 -0.466593 51.000000
2.344144 0.429665 -0.466593 66.000000
2.344488 0.422298 -0.466386 46.000000
2.346736 0.415274 -0.466593 44.000000
2.347035 0.407905 -0.466386 57.000000
2.342490 0.399716 -0.465139 64.000000
2.342741 0.392366 -0.464932 55.000000
2.340072 0.384543 -0.464101 62.000000
2.340276 0.377207 -0.463893 53.000000
2.347219 0.370940 -0.465139 66.000000
2.347379 0.363588 -0.464932 62.000000
2.349451 0.356531 -0.465139 56.000000
2.357306 0.350327 -0.466593 48.000000
2.357402 0.342952 -0.466386 57.000000
2.361349 0.336131 -0.467009 44.000000
2.365276 0.329289 -0.467632 59.000000
2.361428 0.321372 -0.466593 47.000000
2.364342 0.314384 -0.467009 46.000000
2.365296 0.307129 -0.467009 46.000000
2.360404 0.299134 -0.465763 57.000000
2.364223 0.292250 -0.466386 53.000000
2.365109 0.284995 -0.466386 63.000000
2.367915 0.277966 -0.466801 68.000000
2.373616 0.271254 -0.467840 59.000000
2.369576 0.263431 -0.466801 44.000000
2.370373 0.256160 -0.466801 49.000000
2.376985 0.249499 -0.468048 64.000000
2.375793 0.242007 -0.467632 45.000000
2.376524 0.234717 -0.467632 45.000000
2.380154 0.227704 -0.468255 51.000000
2.374997 0.219860 -0.467009 37.000000
2.378584 0.212834 -0.467632 48.000000
2.383124 0.205872 -0.468463 60.000000
2.383744 0.198560 -0.468463 68.000000
2.383367 0.191167 -0.468255 58.000000
2.383942 0.183854 -0.468255 51.000000
2.385471 0.176612 -0.468463 52.000000
2.386001 0.169292 -0.468463 59.000000
2.388461 0.162104 -0.468879 63.000000
2.386019 0.154586 -0.468255 62.000000
2.383553 0.147085 -0.467632 52.000000
2.385946 0.139886 -0.468048 53.000000
2.385387 0.132511 -0.467840 66.000000
2.384806 0.125141 -0.467632 57.000000
2.391041 0.118112 -0.468879 65.000000
2.391392 0.110776 -0.468879 67.000000
2.393675 0.103523 -0.469294 75.000000
2.400823 0.096453 -0.470748 52.000000
2.400130 0.089051 -0.470541 66.000000
2.404303 0.081819 -0.471372 52.000000
2.404542 0.074442 -0.471372 59.000000
2.404759 0.067065 -0.471372 68.000000
2.405931 0.059711 -0.471579 65.000000
2.405125 0.052309 -0.471372 47.000000
2.409187 0.045002 -0.472202 56.000000
2.407357 0.037580 -0.471787 54.000000
2.410395 0.030231 -0.472410 63.000000
2.407542 0.022808 -0.471787 54.000000
2.405645 0.015410 -0.471372 48.000000
2.405681 0.008029 -0.471372 62.000000
2.408628 0.000649 -0.471995 63.000000
2.410576 -0.006746 -0.472410 70.000000
2.411522 -0.014148 -0.472618 55.000000
2.417336 -0.021600 -0.473864 57.000000
2.419214 -0.029040 -0.474280 55.000000
2.420092 -0.036476 -0.474488 60.000000
2.423881 -0.043973 -0.475319 71.000000
2.416889 -0.051262 -0.473864 38.000000
2.419654 -0.058749 -0.474488 44.000000
2.423374 -0.066279 -0.475319 44.000000
2.423159 -0.073714 -0.475319 33.000000
2.424876 -0.081214 -0.475734 50.000000
2.428526 -0.088796 -0.476565 42.000000
2.471248 -0.097958 -0.485706 14.000000
2.279603 0.720575 -0.497310 35.000000
2.274354 0.711244 -0.495557 26.000000
2.277457 0.704552 -0.495776 27.000000
2.274944 0.696132 -0.494680 44.000000
2.276135 0.688866 -0.494461 31.000000
2.274499 0.680759 -0.493585 34.000000
2.278448 0.674332 -0.494023 48.000000
2.280506 0.667339 -0.494023 41.000000
2.287228 0.661697 -0.495119 61.000000
2.290186 0.654946 -0.495338 40.000000
2.291245 0.647651 -0.495119 48.000000
2.291342 0.640092 -0.494680 51.000000
2.297057 0.634100 -0.495557 41.000000
2.300874 0.627564 -0.495995 54.000000
2.300905 0.619993 -0.495557 47.000000
2.304681 0.613434 -0.495995 47.000000
2.304665 0.605864 -0.495557 57.000000
2.306513 0.598790 -0.495557 52.000000
2.308340 0.591711 -0.495557 51.000000
2.301632 0.582468 -0.493585 49.000000
2.303408 0.575404 -0.493585 40.000000
2.307057 0.568802 -0.494023 33.000000
2.305948 0.561028 -0.493365 61.000000
2.306709 0.553723 -0.493146 40.000000
2.309347 0.546869 -0.493365 48.000000
2.308163 0.539114 -0.492708 52.000000
2.312659 0.532689 -0.493365 58.000000
2.310477 0.524725 -0.492489 46.000000
2.312076 0.517634 -0.492489 46.000000
2.319369 0.511802 -0.493804 49.000000
2.320928 0.504684 -0.493804 44.000000
2.323420 0.497766 -0.494023 52.000000
2.327799 0.491241 -0.494680 44.000000
2.335027 0.485292 -0.495995 55.000000
2.335549 0.477929 -0.495776 53.000000
2.336048 0.470569 -0.495557 58.000000
2.333652 0.462639 -0.494680 47.000000
2.335061 0.455477 -0.494680 47.000000
2.339322 0.448864 -0.495338 52.000000
2.340688 0.441685 -0.495338 46.000000
2.340113 0.434145 -0.494900 52.000000
2.341434 0.426963 -0.494900 65.000000
2.338892 0.419088 -0.494023 57.000000
2.340166 0.411910 -0.494023 49.000000
2.340458 0.404562 -0.493804 54.000000
2.339764 0.397052 -0.493365 44.000000
2.340009 0.389711 -0.493146 55.000000
2.341194 0.382531 -0.493146 39.000000
2.346210 0.375966 -0.494023 45.000000
2.350243 0.369221 -0.494680 50.000000
2.352329 0.362158 -0.494900 46.000000
2.351500 0.354648 -0.494461 42.000000
2.352577 0.347432 -0.494461 43.000000
2.357494 0.340773 -0.495338 52.000000
2.359494 0.333675 -0.495557 54.000000
2.361473 0.326569 -0.495776 64.000000
2.362464 0.319323 -0.495776 56.000000
2.361498 0.311817 -0.495338 56.000000
2.365347 0.304946 -0.495995 46.000000
2.366271 0.297688 -0.495995 53.000000
2.366205 0.290308 -0.495776 47.000000
2.362241 0.282465 -0.494680 63.000000
2.359220 0.274763 -0.493804 47.000000
2.362960 0.267855 -0.494461 51.000000
2.361831 0.260390 -0.494023 43.000000
2.359709 0.252829 -0.493365 48.000000
2.363384 0.245893 -0.494023 55.000000
2.366069 0.238838 -0.494461 63.000000
2.371646 0.232055 -0.495557 45.000000
2.376232 0.225148 -0.496434 65.000000
2.376911 0.217857 -0.496434 36.000000
2.378540 0.210650 -0.496653 54.000000
2.382092 0.203602 -0.497310 45.000000
2.379788 0.196052 -0.496653 50.000000
2.375515 0.188362 -0.495557 54.000000
2.378028 0.181222 -0.495995 50.000000
2.378572 0.173925 -0.495995 41.000000
2.379095 0.166627 -0.495995 45.000000
2.382515 0.159524 -0.496653 56.000000
2.383967 0.152277 -0.496872 51.000000
2.388319 0.145201 -0.497749 49.000000
2.389727 0.137930 -0.497968 53.000000
2.391113 0.130651 -0.498187 47.000000
2.390528 0.123264 -0.497968 52.000000
2.389920 0.115882 -0.497749 53.000000
2.394164 0.108728 -0.498625 52.000000
2.391562 0.101257 -0.497968 70.000000
2.396735 0.094113 -0.499064 41.000000
2.397013 0.086760 -0.499064 42.000000
2.393367 0.079274 -0.498187 52.000000
2.399451 0.072110 -0.499502 44.000000
2.401611 0.064801 -0.499940 40.000000
2.396922 0.057314 -0.498845 45.000000
2.400988 0.050043 -0.499721 63.000000
2.398204 0.042624 -0.499064 35.000000
2.402226 0.035325 -0.499940 45.000000
2.403298 0.027967 -0.500160 64.000000
2.403373 0.020594 -0.500160 49.000000
2.406352 0.013237 -0.500817 47.000000
2.408332 0.005861 -0.501255 45.000000
2.408339 -0.001528 -0.501255 41.000000
2.407347 -0.008914 -0.501036 40.000000
2.411211 -0.016324 -0.501913 56.000000
2.412125 -0.023730 -0.502132 44.000000
2.413017 -0.031143 -0.502351 35.000000
2.418763 -0.038636 -0.503666 43.000000
2.420584 -0.046093 -0.504104 44.000000
2.421407 -0.053540 -0.504324 49.000000
2.423182 -0.061017 -0.504762 42.000000
2.420058 -0.068369 -0.504104 42.000000
2.420812 -0.075824 -0.504324 52.000000
2.417642 -0.083151 -0.503666 41.000000
2.418351 -0.090604 -0.503885 35.000000
2.396614 -0.097164 -0.499064 12.000000
2.283918 0.724221 -0.528228 49.000000
2.284272 0.716629 -0.527767 39.000000
2.288319 0.710194 -0.528228 49.000000
2.287696 0.702314 -0.527536 62.000000
2.287978 0.694727 -0.527074 39.000000
2.289167 0.687424 -0.526844 48.000000
2.294063 0.681228 -0.527536 57.000000
2.296143 0.674187 -0.527536 39.000000
2.298200 0.667140 -0.527536 49.000000
2.299301 0.659817 -0.527305 56.000000
2.296633 0.651433 -0.526152 50.000000
2.298621 0.644384 -0.526152 54.000000
2.297774 0.636550 -0.525459 57.000000
2.294085 0.627957 -0.524075 49.000000
2.298819 0.621678 -0.524767 51.000000
2.296015 0.613367 -0.523614 41.000000
2.294122 0.605328 -0.522691 53.000000
2.298794 0.599023 -0.523383 59.000000
2.295909 0.590756 -0.522229 59.000000
2.292052 0.582273 -0.520845 52.000000
2.295715 0.575711 -0.521306 48.000000
2.294636 0.567964 -0.520614 45.000000
2.296368 0.560922 -0.520614 41.000000
2.299971 0.554330 -0.521075 53.000000
2.303554 0.547721 -0.521537 61.000000
2.304276 0.540429 -0.521306 41.000000
2.307819 0.533795 -0.521768 39.000000
2.309446 0.526712 -0.521768 46.000000
2.308203 0.518985 -0.521075 58.000000
2.310734 0.512111 -0.521306 63.000000
2.311344 0.504812 -0.521075 66.000000
2.309077 0.496900 -0.520153 37.000000
2.318205 0.491427 -0.521998 54.000000
2.323512 0.485107 -0.522921 65.000000
2.323083 0.477585 -0.522460 52.000000
2.326445 0.470841 -0.522921 61.000000
2.329787 0.464081 -0.523383 57.000000
2.334065 0.457493 -0.524075 61.000000
2.338324 0.450882 -0.524767 65.000000
2.338740 0.443525 -0.524536 44.000000
2.338176 0.435991 -0.524075 52.000000
2.339503 0.428816 -0.524075 58.000000
2.337934 0.421119 -0.523383 47.000000
2.332509 0.412759 -0.521768 56.000000
2.334723 0.405767 -0.521998 49.000000
2.335957 0.398602 -0.521998 44.000000
2.332370 0.390631 -0.520845 38.000000
2.335478 0.383789 -0.521306 57.000000
2.335684 0.376467 -0.521075 51.000000
2.340672 0.369907 -0.521998 48.000000
2.344681 0.363170 -0.522691 51.000000
2.342897 0.355538 -0.521998 54.000000
2.342052 0.348062 -0.521537 67.000000
2.345998 0.341295 -0.522229 45.000000
2.350887 0.334644 -0.523152 47.000000
2.357685 0.328234 -0.524536 54.000000
2.355789 0.320606 -0.523844 60.000000
2.358690 0.313633 -0.524306 56.000000
2.363501 0.306896 -0.525229 74.000000
2.366362 0.299888 -0.525690 69.000000
2.365340 0.292388 -0.525229 46.000000
2.366226 0.285130 -0.525229 41.000000
2.366123 0.277756 -0.524998 56.000000
2.369864 0.270826 -0.525690 64.000000
2.374552 0.263984 -0.526613 52.000000
2.374384 0.256593 -0.526382 54.000000
2.375160 0.249307 -0.526382 60.000000
2.378817 0.242315 -0.527074 60.000000
2.382455 0.235302 -0.527767 52.000000
2.385103 0.228176 -0.528228 39.000000
2.384822 0.220768 -0.527997 53.000000
2.383550 0.213278 -0.527536 48.000000
2.386132 0.206131 -0.527997 57.000000
2.381905 0.198407 -0.526844 67.000000
2.384442 0.191253 -0.527305 48.000000
2.385018 0.183937 -0.527305 49.000000
2.385571 0.176619 -0.527305 66.000000
2.386101 0.169299 -0.527305 57.000000
2.385639 0.161913 -0.527074 62.000000
2.389037 0.154781 -0.527767 66.000000
2.392415 0.147630 -0.528459 63.000000
2.390913 0.140176 -0.527997 43.000000
2.389389 0.132732 -0.527536 57.000000
2.390757 0.125452 -0.527767 48.000000
2.393074 0.118213 -0.528228 67.000000
2.397314 0.111050 -0.529151 51.000000
2.396671 0.103652 -0.528920 69.000000
2.396978 0.096299 -0.528920 61.000000
2.397262 0.088945 -0.528920 64.000000
2.399468 0.081655 -0.529382 41.000000
2.399707 0.074294 -0.529382 47.000000
2.403815 0.067039 -0.530305 53.000000
2.400118 0.059568 -0.529382 58.000000
2.400290 0.052204 -0.529382 50.000000
2.406276 0.044948 -0.530766 56.000000
2.408348 0.037595 -0.531228 58.000000
2.409425 0.030219 -0.531458 59.000000
2.411452 0.022845 -0.531920 67.000000
2.406646 0.015416 -0.530766 62.000000
2.408628 0.008039 -0.531228 41.000000
2.408641 0.000649 -0.531228 49.000000
2.409605 -0.006744 -0.531458 53.000000
2.410546 -0.014142 -0.531689 69.000000
2.412437 -0.021555 -0.532150 52.000000
2.415279 -0.028992 -0.532843 68.000000
2.420043 -0.036476 -0.533996 64.000000
2.423811 -0.043971 -0.534919 59.000000
2.424637 -0.051428 -0.535150 45.000000
2.418632 -0.058724 -0.533766 36.000000
2.417468 -0.066117 -0.533535 50.000000
2.418226 -0.073563 -0.533766 47.000000
2.417989 -0.080982 -0.533766 44.000000
2.411895 -0.088185 -0.532381 30.000000
2.455364 -0.097326 -0.542764 14.000000
2.503660 -0.106942 -0.554300 6.000000
2.263732 0.723630 -0.552875 24.000000
2.278891 0.720784 -0.556264 32.000000
2.282943 0.714369 -0.556748 31.000000
2.285124 0.707362 -0.556748 27.000000
2.290066 0.701202 -0.557475 40.000000
2.285707 0.692201 -0.555780 36.000000
2.287821 0.685185 -0.555780 31.000000
2.288982 0.677887 -0.555538 44.000000
2.290120 0.670588 -0.555296 44.000000
2.292166 0.663559 -0.555296 47.000000
2.291393 0.655722 -0.554570 39.000000
2.295261 0.649218 -0.555054 46.000000
2.298177 0.642434 -0.555296 43.000000
2.298266 0.634863 -0.554812 38.000000
2.298331 0.627297 -0.554327 42.000000
2.297435 0.619484 -0.553601 47.000000
2.294638 0.611182 -0.552391 35.000000
2.296502 0.604139 -0.552391 50.000000
2.294589 0.596113 -0.551422 43.000000
2.296407 0.589070 -0.551422 48.000000
2.300084 0.582500 -0.551907 51.000000
2.303743 0.575912 -0.552391 41.000000
2.305499 0.568841 -0.552391 44.000000
2.306291 0.561536 -0.552149 35.000000
2.307059 0.554230 -0.551907 47.000000
2.309693 0.547374 -0.552149 42.000000
2.312306 0.540507 -0.552391 59.000000
2.309226 0.532318 -0.551180 50.000000
2.308957 0.524800 -0.550696 36.000000
2.314342 0.518564 -0.551664 39.000000
2.313081 0.510832 -0.550938 49.000000
2.313689 0.503527 -0.550696 46.000000
2.316171 0.496630 -0.550938 58.000000
2.316735 0.489320 -0.550696 41.000000
2.319175 0.482409 -0.550938 48.000000
2.320644 0.475291 -0.550938 49.000000
2.324944 0.468746 -0.551664 60.000000
2.329226 0.462179 -0.552391 55.000000
2.334442 0.455776 -0.553359 40.000000
2.337735 0.448979 -0.553843 50.000000
2.335288 0.441083 -0.552875 53.000000
2.338538 0.434271 -0.553359 48.000000
2.339859 0.427095 -0.553359 46.000000
2.335429 0.418884 -0.551907 48.000000
2.332881 0.411041 -0.550938 50.000000
2.331264 0.403385 -0.550212 47.000000
2.330577 0.395904 -0.549728 52.000000
2.334652 0.389233 -0.550454 39.000000
2.337750 0.382382 -0.550938 42.000000
2.338912 0.375208 -0.550938 44.000000
2.337177 0.367577 -0.550212 48.000000
2.341170 0.360850 -0.550938 40.000000
2.343226 0.353811 -0.551180 47.000000
2.343340 0.346478 -0.550938 38.000000
2.341512 0.338869 -0.550212 56.000000
2.339658 0.331274 -0.549486 49.000000
2.341625 0.324228 -0.549728 51.000000
2.346454 0.317565 -0.550696 50.000000
2.349341 0.310620 -0.551180 40.000000
2.352207 0.303660 -0.551664 46.000000
2.353128 0.296442 -0.551664 43.000000
2.354989 0.289340 -0.551907 31.000000
2.361646 0.282809 -0.553359 51.000000
2.361539 0.275449 -0.553117 33.000000
2.364300 0.268423 -0.553601 46.000000
2.366077 0.261275 -0.553843 45.000000
2.363974 0.253703 -0.553117 53.000000
2.366671 0.246651 -0.553601 45.000000
2.365486 0.239193 -0.553117 49.000000
2.369106 0.232220 -0.553843 47.000000
2.369807 0.224951 -0.553843 42.000000
2.369519 0.217590 -0.553601 37.000000
2.371142 0.210405 -0.553843 42.000000
2.374677 0.203380 -0.554570 58.000000
2.372389 0.195852 -0.553843 48.000000
2.379749 0.189114 -0.555538 48.000000
2.382252 0.181961 -0.556022 43.000000
2.386670 0.174937 -0.556990 46.000000
2.387196 0.167614 -0.556990 36.000000
2.389635 0.160421 -0.557475 40.000000
2.391084 0.153151 -0.557717 46.000000
2.389606 0.145696 -0.557233 33.000000
2.388104 0.138251 -0.556748 53.000000
2.386580 0.130816 -0.556264 57.000000
2.386000 0.123443 -0.556022 44.000000
2.386368 0.116122 -0.556022 45.000000
2.385744 0.108756 -0.555780 54.000000
2.389944 0.101603 -0.556748 53.000000
2.389275 0.094231 -0.556506 55.000000
2.389553 0.086901 -0.556506 57.000000
2.389808 0.079569 -0.556506 43.000000
2.389071 0.072207 -0.556264 43.000000
2.395100 0.065038 -0.557717 44.000000
2.397229 0.057738 -0.558201 41.000000
2.394485 0.050320 -0.557475 47.000000
2.402388 0.043117 -0.559411 67.000000
2.404449 0.035776 -0.559896 52.000000
2.404548 0.028399 -0.559896 35.000000
2.408505 0.021058 -0.560864 41.000000
2.406617 0.013656 -0.560380 43.000000
2.412469 0.006291 -0.561832 51.000000
2.413448 -0.001110 -0.562074 53.000000
2.413433 -0.008515 -0.562074 47.000000
2.415336 -0.015931 -0.562559 45.000000
2.416246 -0.023350 -0.562801 44.000000
2.416163 -0.030763 -0.562801 47.000000
2.417997 -0.038205 -0.563285 39.000000
2.414959 -0.045570 -0.562559 45.000000
2.420628 -0.053103 -0.564011 40.000000
2.420453 -0.060529 -0.564011 26.000000
2.418316 -0.067901 -0.563527 36.000000
2.422946 -0.075469 -0.564737 42.000000
2.424642 -0.082968 -0.565222 30.000000
2.422437 -0.090335 -0.564737 39.000000
2.473531 -0.099815 -0.577568 6.000000
2.281266 0.731527 -0.587283 30.000000
2.276123 0.722185 -0.585256 42.000000
2.282020 0.716357 -0.586269 57.000000
2.281436 0.708492 -0.585509 43.000000
2.284523 0.701773 -0.585763 28.000000
2.281112 0.693075 -0.584242 37.000000
2.284154 0.686352 -0.584495 40.000000
2.289958 0.680442 -0.585509 51.000000
2.296676 0.674776 -0.586776 39.000000
2.299664 0.667997 -0.587030 59.000000
2.300773 0.660671 -0.586776 43.000000
2.304650 0.654138 -0.587283 52.000000
2.304784 0.646542 -0.586776 58.000000
2.303959 0.638693 -0.586016 54.000000
2.300310 0.630089 -0.584495 52.000000
2.300364 0.622524 -0.583989 48.000000
2.298525 0.614465 -0.582975 62.000000
2.300400 0.607410 -0.582975 50.000000
2.303189 0.600593 -0.583228 63.000000
2.305020 0.593525 -0.583228 63.000000
2.304018 0.585735 -0.582468 55.000000
2.304865 0.578429 -0.582215 54.000000
2.303812 0.570657 -0.581454 56.000000
2.302733 0.562898 -0.580694 45.000000
2.304449 0.555831 -0.580694 48.000000
2.308025 0.549206 -0.581201 66.000000
2.310642 0.542343 -0.581454 51.000000
2.310409 0.534816 -0.580948 55.000000
2.313926 0.528155 -0.581454 45.000000
2.319310 0.521903 -0.582468 55.000000
2.319956 0.514575 -0.582215 53.000000
2.321524 0.507455 -0.582215 46.000000
2.322124 0.500127 -0.581961 64.000000
2.322701 0.492800 -0.581708 61.000000
2.323255 0.485474 -0.581454 62.000000
2.326629 0.478734 -0.581961 57.000000
2.327138 0.471401 -0.581708 55.000000
2.333317 0.465205 -0.582975 49.000000
2.332835 0.457672 -0.582468 55.000000
2.336128 0.450879 -0.582975 53.000000
2.335599 0.443349 -0.582468 62.000000
2.335997 0.436004 -0.582215 57.000000
2.337324 0.428835 -0.582215 57.000000
2.336725 0.421320 -0.581708 50.000000
2.337054 0.413980 -0.581454 56.000000
2.339266 0.406974 -0.581708 58.000000
2.338596 0.399470 -0.581201 51.000000
2.339811 0.392293 -0.581201 47.000000
2.347685 0.386211 -0.582975 57.000000
2.348859 0.379006 -0.582975 55.000000
2.349055 0.371647 -0.582722 68.000000
2.349228 0.364291 -0.582468 46.000000
2.350335 0.357082 -0.582468 57.000000
2.355247 0.350438 -0.583482 56.000000
2.355354 0.343071 -0.583228 44.000000
2.349691 0.334889 -0.581454 63.000000
2.350708 0.327679 -0.581454 54.000000
2.351702 0.320466 -0.581454 34.000000
2.359386 0.314142 -0.583228 50.000000
2.361298 0.307026 -0.583482 60.000000
2.363189 0.299902 -0.583735 64.000000
2.364098 0.292651 -0.583735 45.000000
2.365945 0.285512 -0.583989 51.000000
2.365849 0.278139 -0.583735 54.000000
2.364769 0.270660 -0.583228 60.000000
2.361742 0.262976 -0.582215 58.000000
2.362538 0.255729 -0.582215 57.000000
2.363312 0.248480 -0.582215 52.000000
2.367912 0.241620 -0.583228 58.000000
2.372493 0.234735 -0.584242 60.000000
2.371276 0.227271 -0.583735 66.000000
2.371962 0.219995 -0.583735 57.000000
2.372626 0.212717 -0.583735 59.000000
2.370376 0.205187 -0.582975 71.000000
2.370031 0.197833 -0.582722 56.000000
2.368698 0.190406 -0.582215 63.000000
2.375058 0.183585 -0.583735 60.000000
2.381398 0.176726 -0.585256 52.000000
2.384824 0.169625 -0.586016 55.000000
2.389194 0.162569 -0.587030 54.000000
2.391612 0.155364 -0.587537 50.000000
2.394008 0.148145 -0.588043 42.000000
2.395417 0.140856 -0.588297 54.000000
2.391009 0.133238 -0.587030 52.000000
2.390440 0.125851 -0.586776 39.000000
2.388883 0.118421 -0.586269 64.000000
2.386336 0.110957 -0.585509 47.000000
2.386665 0.103636 -0.585509 70.000000
2.387938 0.096352 -0.585763 62.000000
2.386289 0.088954 -0.585256 55.000000
2.389452 0.081731 -0.586016 51.000000
2.393558 0.074520 -0.587030 46.000000
2.398611 0.067311 -0.588297 41.000000
2.401707 0.060024 -0.589057 57.000000
2.401880 0.052655 -0.589057 55.000000
2.408800 0.045413 -0.590831 61.000000
2.410863 0.038052 -0.591338 48.000000
2.409034 0.030632 -0.590831 54.000000
2.409116 0.023241 -0.590831 37.000000
2.405307 0.015825 -0.589817 68.000000
2.415018 0.008478 -0.592351 32.000000
2.413098 0.001068 -0.591845 51.000000
2.408253 -0.006322 -0.590578 63.000000
2.409189 -0.013716 -0.590831 51.000000
2.414940 -0.021159 -0.592351 55.000000
2.415831 -0.028579 -0.592605 56.000000
2.422503 -0.036093 -0.594379 46.000000
2.419479 -0.043472 -0.593619 47.000000
2.425137 -0.051018 -0.595139 44.000000
2.431739 -0.058622 -0.596913 40.000000
2.430580 -0.066056 -0.596660 49.000000
2.439068 -0.073777 -0.598940 31.000000
2.433030 -0.081066 -0.597420 42.000000
2.435670 -0.088636 -0.598180 37.000000
2.461484 -0.097142 -0.605022 13.000000
2.272238 0.726788 -0.613035 28.000000
2.277215 0.720687 -0.613827 35.000000
2.282176 0.714563 -0.614620 27.000000
2.279752 0.706129 -0.613299 24.000000
2.279141 0.698283 -0.612506 33.000000
2.282196 0.691568 -0.612770 31.000000
2.280612 0.683453 -0.611714 19.000000
2.291944 0.679198 -0.614356 34.000000
2.300495 0.674065 -0.616205 57.000000
2.294216 0.664585 -0.613827 45.000000
2.297171 0.657809 -0.614091 49.000000
2.290827 0.648390 -0.611714 33.000000
2.292806 0.641359 -0.611714 39.000000
2.290115 0.633035 -0.610392 38.000000
2.290186 0.625497 -0.609864 39.000000
2.287439 0.617209 -0.608543 35.000000
2.286526 0.609442 -0.607750 34.000000
2.288385 0.602424 -0.607750 28.000000
2.296756 0.597102 -0.609600 35.000000
2.299511 0.590293 -0.609864 34.000000
2.300377 0.582998 -0.609600 45.000000
2.303090 0.576173 -0.609864 35.000000
2.304847 0.569104 -0.609864 37.000000
2.304708 0.561573 -0.609336 31.000000
2.305482 0.554273 -0.609071 45.000000
2.303419 0.546306 -0.608015 29.000000
2.305084 0.539236 -0.608015 42.000000
2.305788 0.531945 -0.607750 38.000000
2.307409 0.524868 -0.607750 50.000000
2.309009 0.517786 -0.607750 52.000000
2.310586 0.510700 -0.607750 36.000000
2.315911 0.504432 -0.608807 47.000000
2.314619 0.496716 -0.608015 33.000000
2.315189 0.489412 -0.607750 39.000000
2.322344 0.483489 -0.609336 33.000000
2.325706 0.476751 -0.609864 38.000000
2.327157 0.469613 -0.609864 40.000000
2.331425 0.463036 -0.610657 49.000000
2.330942 0.455511 -0.610128 42.000000
2.335169 0.448905 -0.610921 29.000000
2.340326 0.442457 -0.611978 49.000000
2.337880 0.434568 -0.610921 40.000000
2.341099 0.427741 -0.611449 38.000000
2.343350 0.420728 -0.611714 51.000000
2.347479 0.414040 -0.612506 38.000000
2.351588 0.407332 -0.613299 58.000000
2.354729 0.400440 -0.613827 47.000000
2.349288 0.392099 -0.611978 42.000000
2.353335 0.385358 -0.612770 41.000000
2.353554 0.377983 -0.612506 38.000000
2.349939 0.370008 -0.611185 39.000000
2.351063 0.362797 -0.611185 40.000000
2.350258 0.355293 -0.610657 49.000000
2.347521 0.347514 -0.609600 48.000000
2.351439 0.340727 -0.610392 38.000000
2.351519 0.333375 -0.610128 33.000000
2.348709 0.325628 -0.609071 41.000000
2.353520 0.318940 -0.610128 41.000000
2.352575 0.311464 -0.609600 43.000000
2.355433 0.304493 -0.610128 48.000000
2.356355 0.297266 -0.610128 30.000000
2.360128 0.290390 -0.610921 39.000000
2.362923 0.283378 -0.611449 38.000000
2.365697 0.276352 -0.611978 29.000000
2.362701 0.268655 -0.610921 45.000000
2.363514 0.261405 -0.610921 37.000000
2.367182 0.254464 -0.611714 35.000000
2.366992 0.247100 -0.611449 47.000000
2.375415 0.240618 -0.613563 33.000000
2.383820 0.234087 -0.615677 26.000000
2.378767 0.226222 -0.614091 30.000000
2.385211 0.219456 -0.615677 30.000000
2.387795 0.212309 -0.616205 48.000000
2.385553 0.204733 -0.615412 48.000000
2.385208 0.197333 -0.615148 34.000000
2.380996 0.189630 -0.613827 47.000000
2.382528 0.182398 -0.614091 39.000000
2.385962 0.175301 -0.614884 45.000000
2.386488 0.167980 -0.614884 37.000000
2.386992 0.160658 -0.614884 26.000000
2.392286 0.153645 -0.616205 43.000000
2.396597 0.146542 -0.617262 46.000000
2.399924 0.139358 -0.618055 42.000000
2.397451 0.131834 -0.617262 54.000000
2.397844 0.124479 -0.617262 44.000000
2.398215 0.117121 -0.617262 27.000000
2.397599 0.109719 -0.616998 42.000000
2.396961 0.102321 -0.616733 48.000000
2.394372 0.094851 -0.615941 45.000000
2.396580 0.087576 -0.616469 59.000000
2.404549 0.080485 -0.618583 32.000000
2.408640 0.073226 -0.619640 46.000000
2.410782 0.065890 -0.620168 45.000000
2.411937 0.058517 -0.620432 49.000000
2.411141 0.051096 -0.620168 40.000000
2.412250 0.043717 -0.620432 44.000000
2.415266 0.036361 -0.621225 42.000000
2.409580 0.028879 -0.619640 34.000000
2.405800 0.021450 -0.618583 34.000000
2.405854 0.014069 -0.618583 38.000000
2.409744 0.006700 -0.619640 37.000000
2.413611 -0.000692 -0.620697 34.000000
2.417455 -0.008108 -0.621753 43.000000
2.415490 -0.015513 -0.621225 36.000000
2.419289 -0.022958 -0.622282 35.000000
2.418243 -0.030369 -0.622018 28.000000
2.428746 -0.037948 -0.624924 29.000000
2.433440 -0.045487 -0.626245 46.000000
2.433289 -0.052953 -0.626245 48.000000
2.435043 -0.060465 -0.626773 29.000000
2.431954 -0.067856 -0.625981 31.000000
2.434626 -0.075405 -0.626773 28.000000
2.434383 -0.082874 -0.626773 27.000000
2.434118 -0.090342 -0.626773 28.000000
2.442502 -0.098154 -0.629151 11.000000
2.440263 -0.105564 -0.628623 6.000000
2.298468 0.736600 -0.650476 25.000000
2.294302 0.727512 -0.648549 28.000000
2.300192 0.721620 -0.649650 32.000000
2.299641 0.713705 -0.648824 38.000000
2.293548 0.704109 -0.646347 24.000000
2.296617 0.697348 -0.646622 40.000000
2.298746 0.690299 -0.646622 46.000000
2.302696 0.683790 -0.647173 56.000000
2.302016 0.675911 -0.646347 48.000000
2.303155 0.668577 -0.646071 43.000000
2.305196 0.661508 -0.646071 42.000000
2.307214 0.654433 -0.646071 52.000000
2.307360 0.646832 -0.645521 59.000000
2.302848 0.637955 -0.643594 51.000000
2.299231 0.629365 -0.641942 40.000000
2.296510 0.621054 -0.640565 61.000000
2.295618 0.613261 -0.639739 40.000000
2.292841 0.604990 -0.638363 48.000000
2.295617 0.598195 -0.638638 46.000000
2.295579 0.590671 -0.638088 38.000000
2.300176 0.584335 -0.638913 47.000000
2.299160 0.576574 -0.638088 40.000000
2.303718 0.570210 -0.638913 44.000000
2.308258 0.563824 -0.639739 44.000000
2.311846 0.557190 -0.640290 42.000000
2.311674 0.549650 -0.639739 63.000000
2.317094 0.543433 -0.640841 58.000000
2.317813 0.536105 -0.640565 44.000000
2.321322 0.529419 -0.641116 46.000000
2.321059 0.521873 -0.640565 57.000000
2.318895 0.513918 -0.639464 40.000000
2.318582 0.506392 -0.638913 65.000000
2.321065 0.499478 -0.639189 63.000000
2.321645 0.492155 -0.638913 41.000000
2.323145 0.485030 -0.638913 40.000000
2.324622 0.477901 -0.638913 39.000000
2.327019 0.470957 -0.639189 48.000000
2.327510 0.463628 -0.638913 37.000000
2.329865 0.456670 -0.639189 50.000000
2.335031 0.450248 -0.640290 48.000000
2.336401 0.443082 -0.640290 55.000000
2.336805 0.435735 -0.640015 56.000000
2.337185 0.428391 -0.639739 48.000000
2.341327 0.421729 -0.640565 48.000000
2.343556 0.414712 -0.640841 63.000000
2.346712 0.407849 -0.641391 43.000000
2.347952 0.400647 -0.641391 43.000000
2.346326 0.392966 -0.640565 38.000000
2.348469 0.385921 -0.640841 58.000000
2.350591 0.378868 -0.641116 36.000000
2.348893 0.371204 -0.640290 48.000000
2.350021 0.363996 -0.640290 50.000000
2.348276 0.356353 -0.639464 51.000000
2.347456 0.348864 -0.638913 57.000000
2.349467 0.341799 -0.639189 46.000000
2.346697 0.334048 -0.638088 46.000000
2.353424 0.327641 -0.639739 42.000000
2.357276 0.320808 -0.640565 42.000000
2.357296 0.313448 -0.640290 49.000000
2.359200 0.306338 -0.640565 43.000000
2.360129 0.299099 -0.640565 58.000000
2.360081 0.291739 -0.640290 55.000000
2.362874 0.284726 -0.640841 37.000000
2.361827 0.277252 -0.640290 59.000000
2.359801 0.269678 -0.639464 53.000000
2.364439 0.262861 -0.640565 60.000000
2.370013 0.256121 -0.641942 58.000000
2.371744 0.248949 -0.642217 45.000000
2.380148 0.242450 -0.644419 55.000000
2.381837 0.235241 -0.644695 45.000000
2.382548 0.227932 -0.644695 38.000000
2.387065 0.220976 -0.645796 43.000000
2.387732 0.213651 -0.645796 38.000000
2.388376 0.206325 -0.645796 38.000000
