ply
format ascii 1.0
element vertex 1279
property float x
property float y
property float z
property float intensity
end_header
3.227041 0.169762 0.381542 50.000000
3.227546 0.159861 0.381542 60.000000
3.232988 0.150188 0.382076 57.000000
3.231446 0.140183 0.381863 65.000000
3.238816 0.130548 0.382610 50.000000
3.242182 0.120721 0.382931 59.000000
3.245518 0.110875 0.383251 42.000000
3.245843 0.100918 0.383251 53.000000
3.248125 0.091014 0.383465 60.000000
3.246401 0.081000 0.383251 41.000000
3.247628 0.071061 0.383358 57.000000
3.247831 0.061097 0.383358 53.000000
3.251980 0.051195 0.383785 56.000000
3.253116 0.041230 0.383892 55.000000
3.256209 0.031278 0.384212 67.000000
3.254302 0.021275 0.383998 60.000000
3.254352 0.011291 0.383998 51.000000
3.258348 0.001308 0.384426 41.000000
3.265297 -0.008708 0.385173 43.000000
3.265255 -0.018726 0.385173 38.000000
3.270153 -0.028788 0.385707 35.000000
3.266073 -0.038773 0.385280 20.000000
3.258979 -0.048688 0.384532 12.000000
3.091888 0.775063 0.338795 29.000000
3.105847 0.768446 0.339935 41.000000
3.106256 0.758441 0.339745 39.000000
3.113407 0.750075 0.340220 52.000000
3.113756 0.740059 0.340030 35.000000
3.116012 0.730503 0.340030 58.000000
3.122118 0.721838 0.340410 46.000000
3.122377 0.711813 0.340220 49.000000
3.120661 0.701355 0.339840 42.000000
3.122798 0.691778 0.339840 42.000000
3.121988 0.681556 0.339555 39.000000
3.126011 0.672394 0.339745 50.000000
3.128059 0.662801 0.339745 44.000000
3.130078 0.653201 0.339745 58.000000
3.132067 0.643595 0.339745 42.000000
3.134027 0.633983 0.339745 46.000000
3.134005 0.623975 0.339555 45.000000
3.134928 0.614165 0.339460 45.000000
3.138752 0.604922 0.339650 56.000000
3.141571 0.595475 0.339745 48.000000
3.140447 0.585286 0.339460 42.000000
3.143207 0.575828 0.339555 53.000000
3.144959 0.566182 0.339555 57.000000
3.146682 0.556531 0.339555 36.000000
3.147393 0.546704 0.339460 42.000000
3.145131 0.536375 0.339080 51.000000
3.146761 0.526723 0.339080 39.000000
3.151309 0.517551 0.339365 41.000000
3.153865 0.508040 0.339460 46.000000
3.158359 0.498828 0.339745 59.000000
3.163809 0.489747 0.340125 53.000000
3.164313 0.479888 0.340030 60.000000
3.165770 0.470178 0.340030 51.000000
3.167197 0.460463 0.340030 40.000000
3.167610 0.450604 0.339935 54.000000
3.169963 0.441021 0.340030 45.000000
3.168342 0.430890 0.339745 46.000000
3.165702 0.420642 0.339365 51.000000
3.170926 0.411442 0.339745 58.000000
3.171186 0.401586 0.339650 54.000000
3.169440 0.391488 0.339365 56.000000
3.170626 0.381762 0.339365 58.000000
3.172771 0.372149 0.339460 46.000000
3.175876 0.362640 0.339650 47.000000
3.177963 0.353006 0.339745 61.000000
3.182000 0.343576 0.340030 57.000000
3.182049 0.333708 0.339935 56.000000
3.184048 0.324045 0.340030 50.000000
3.187008 0.314471 0.340220 67.000000
3.184985 0.304407 0.339935 59.000000
3.186895 0.294726 0.340030 67.000000
3.190759 0.285214 0.340315 70.000000
3.191619 0.275424 0.340315 52.000000
3.198401 0.266128 0.340885 69.000000
3.202180 0.256554 0.341170 46.000000
3.200966 0.246575 0.340980 57.000000
3.203694 0.236901 0.341170 59.000000
3.207384 0.227283 0.341455 57.000000
3.208066 0.217442 0.341455 53.000000
3.209712 0.207663 0.341550 55.000000
3.209340 0.197754 0.341455 51.000000
3.214900 0.188199 0.341930 53.000000
3.219438 0.178557 0.342310 57.000000
3.216989 0.168522 0.342025 47.000000
3.219479 0.158750 0.342215 60.000000
3.224923 0.149104 0.342689 40.000000
3.222382 0.139080 0.342404 49.000000
3.226772 0.129354 0.342784 57.000000
3.228148 0.119491 0.342879 60.000000
3.228500 0.109586 0.342879 61.000000
3.226831 0.099619 0.342689 53.000000
3.226126 0.089690 0.342594 60.000000
3.224396 0.079742 0.342404 52.000000
3.226616 0.069894 0.342594 51.000000
3.226815 0.059994 0.342594 42.000000
3.232956 0.050189 0.343164 56.000000
3.236081 0.040309 0.343449 65.000000
3.234198 0.030361 0.343259 43.000000
3.237263 0.020458 0.343544 47.000000
3.235319 0.010519 0.343354 46.000000
3.232350 0.000592 0.343069 31.000000
3.234327 -0.009330 0.343259 33.000000
3.226320 -0.019208 0.342499 35.000000
3.224255 -0.029089 0.342310 31.000000
3.235100 -0.039109 0.343354 21.000000
3.099063 0.777604 0.299244 35.000000
3.101434 0.768093 0.299244 34.000000
3.103776 0.758574 0.299244 43.000000
3.109964 0.749982 0.299574 39.000000
3.111281 0.740207 0.299492 56.000000
3.112567 0.730431 0.299409 46.000000
3.114793 0.720878 0.299409 42.000000
3.113103 0.710432 0.299080 47.000000
3.115268 0.700878 0.299080 60.000000
3.116431 0.691102 0.298997 45.000000
3.118536 0.681537 0.298997 65.000000
3.122561 0.672386 0.299162 62.000000
3.126559 0.663216 0.299327 47.000000
3.130531 0.654028 0.299492 50.000000
3.140332 0.646026 0.300152 56.000000
3.143276 0.636587 0.300234 58.000000
3.141304 0.626162 0.299904 59.000000
3.143211 0.616521 0.299904 49.000000
3.143130 0.606498 0.299739 62.000000
3.140080 0.595923 0.299327 54.000000
3.140914 0.586104 0.299244 50.000000
3.136816 0.575387 0.298750 44.000000
3.138566 0.565761 0.298750 56.000000
3.139306 0.555955 0.298667 59.000000
3.139033 0.545980 0.298502 49.000000
3.139711 0.536180 0.298420 53.000000
3.140359 0.526380 0.298337 41.000000
3.140975 0.516581 0.298255 42.000000
3.144513 0.507260 0.298420 54.000000
3.147039 0.497766 0.298502 48.000000
3.144612 0.487498 0.298173 28.000000
3.154960 0.479194 0.298915 39.000000
3.158387 0.469806 0.299080 63.000000
3.158827 0.459970 0.298997 58.000000
3.160224 0.450277 0.298997 63.000000
3.158629 0.440167 0.298750 47.000000
3.159965 0.430474 0.298750 56.000000
3.161271 0.420778 0.298750 71.000000
3.162546 0.411077 0.298750 56.000000
3.164781 0.401498 0.298832 40.000000
3.169954 0.392276 0.299162 69.000000
3.172133 0.382668 0.299244 54.000000
3.174281 0.373050 0.299327 47.000000
3.174421 0.363197 0.299244 65.000000
3.177501 0.353676 0.299409 49.000000
3.176590 0.343712 0.299244 51.000000
3.177629 0.333965 0.299244 47.000000
3.182605 0.324618 0.299574 51.000000
3.181602 0.314657 0.299409 47.000000
3.180568 0.304705 0.299244 55.000000
3.181488 0.294945 0.299244 46.000000
3.179400 0.284917 0.298997 51.000000
3.183238 0.275418 0.299244 50.000000
3.184068 0.265651 0.299244 46.000000
3.184868 0.255881 0.299244 42.000000
3.185638 0.246109 0.299244 49.000000
3.190354 0.236629 0.299574 44.000000
3.194047 0.227052 0.299822 57.000000
3.199700 0.217589 0.300234 56.000000
3.202342 0.207900 0.300399 59.000000
3.207938 0.198381 0.300811 58.000000
3.205547 0.188364 0.300564 35.000000
3.214070 0.178971 0.301224 60.000000
3.216594 0.169214 0.301388 64.000000
3.221080 0.159541 0.301718 53.000000
3.219563 0.149566 0.301553 68.000000
3.224985 0.139903 0.301966 44.000000
3.225399 0.130008 0.301966 48.000000
3.228770 0.120223 0.302213 45.000000
3.228128 0.110283 0.302131 52.000000
3.228451 0.100379 0.302131 62.000000
3.219778 0.090223 0.301388 60.000000
3.221036 0.080370 0.301471 56.000000
3.222264 0.070509 0.301553 59.000000
3.221469 0.060604 0.301471 48.000000
3.223632 0.050752 0.301636 53.000000
3.230749 0.040949 0.302213 42.000000
3.230859 0.031037 0.302213 49.000000
3.233929 0.021144 0.302460 52.000000
3.231985 0.011216 0.302296 54.000000
3.229015 0.001299 0.302048 64.000000
3.228007 -0.008604 0.301966 44.000000
3.222983 -0.018479 0.301553 52.000000
3.221914 -0.028358 0.301471 42.000000
3.228787 -0.038326 0.302048 32.000000
3.326310 -0.049702 0.310129 11.000000
3.089250 0.783340 0.260717 38.000000
3.085833 0.772403 0.260293 30.000000
3.082378 0.761495 0.259869 24.000000
3.087607 0.752744 0.260081 25.000000
3.094751 0.744436 0.260434 37.000000
3.094109 0.734246 0.260222 33.000000
3.101203 0.725889 0.260576 42.000000
3.100499 0.715697 0.260364 43.000000
3.103653 0.706403 0.260434 50.000000
3.106779 0.697096 0.260505 59.000000
3.105007 0.686699 0.260222 41.000000
3.107100 0.677169 0.260222 52.000000
3.112088 0.668263 0.260434 44.000000
3.112172 0.658299 0.260293 47.000000
3.116130 0.649155 0.260434 51.000000
3.119084 0.639793 0.260505 32.000000
3.121032 0.630220 0.260505 51.000000
3.120016 0.620058 0.260293 39.000000
3.118967 0.609908 0.260081 32.000000
3.117885 0.599769 0.259869 36.000000
3.121670 0.590573 0.260011 37.000000
3.123467 0.580993 0.260011 36.000000
3.124254 0.571228 0.259940 43.000000
3.124028 0.561286 0.259799 45.000000
3.127701 0.552047 0.259940 28.000000
3.128397 0.542278 0.259869 45.000000
3.128079 0.532342 0.259728 46.000000
3.130681 0.522907 0.259799 40.000000
3.132271 0.513300 0.259799 40.000000
3.133831 0.503688 0.259799 39.000000
3.134376 0.493916 0.259728 38.000000
3.133905 0.483992 0.259587 40.000000
3.131430 0.473777 0.259304 34.000000
3.133856 0.464314 0.259375 37.000000
3.133291 0.454410 0.259234 39.000000
3.132695 0.444514 0.259092 39.000000
3.137009 0.435313 0.259304 39.000000
3.139318 0.425822 0.259375 42.000000
3.144565 0.416714 0.259658 52.000000
3.147807 0.407321 0.259799 64.000000
3.149042 0.397662 0.259799 49.000000
3.151237 0.388121 0.259869 52.000000
3.145480 0.377617 0.259375 30.000000
3.158512 0.369360 0.260222 48.000000
3.158639 0.359554 0.260152 38.000000
3.157745 0.349642 0.260011 52.000000
3.158803 0.339952 0.260011 30.000000
3.161815 0.330468 0.260152 36.000000
3.161821 0.320665 0.260081 51.000000
3.164776 0.311159 0.260222 39.000000
3.161744 0.301069 0.259940 33.000000
3.166625 0.291735 0.260222 43.000000
3.170486 0.282285 0.260434 52.000000
3.169350 0.272385 0.260293 37.000000
3.169176 0.262577 0.260222 57.000000
3.170961 0.252933 0.260293 47.000000
3.169734 0.243050 0.260152 36.000000
3.180412 0.234060 0.260858 67.000000
3.181115 0.224302 0.260858 57.000000
3.181788 0.214541 0.260858 29.000000
3.192386 0.205423 0.261564 49.000000
3.193997 0.195689 0.261635 46.000000
3.193586 0.185831 0.261564 51.000000
3.191153 0.175866 0.261353 46.000000
3.191678 0.166075 0.261353 41.000000
3.195161 0.156430 0.261564 36.000000
3.195626 0.146626 0.261564 42.000000
3.202040 0.137080 0.261988 50.000000
3.204439 0.127335 0.262129 38.000000
3.207805 0.117615 0.262341 51.000000
3.213135 0.107942 0.262694 41.000000
3.209464 0.097960 0.262412 42.000000
3.208752 0.088086 0.262341 47.000000
3.200032 0.078019 0.261706 31.000000
3.206240 0.068331 0.262129 42.000000
3.205437 0.058475 0.262059 33.000000
3.203607 0.048610 0.261918 36.000000
3.208728 0.038843 0.262271 38.000000
3.216812 0.029074 0.262836 40.000000
3.218881 0.019217 0.262977 54.000000
3.219922 0.009345 0.263048 47.000000
3.220933 -0.000533 0.263118 37.000000
3.218921 -0.010409 0.262977 33.000000
3.225857 -0.020326 0.263471 29.000000
3.225779 -0.030223 0.263471 32.000000
3.224674 -0.040107 0.263401 33.000000
3.293355 -0.051043 0.268274 12.000000
3.059974 0.807273 0.219397 21.000000
3.062437 0.797881 0.219397 51.000000
3.069705 0.789725 0.219687 45.000000
3.065340 0.778584 0.219281 23.000000
3.076429 0.771360 0.219803 42.000000
3.080720 0.762398 0.219920 49.000000
3.084014 0.753179 0.219978 45.000000
3.091163 0.744883 0.220268 50.000000
3.095376 0.735857 0.220384 48.000000
3.097619 0.726357 0.220384 45.000000
3.097888 0.716401 0.220268 49.000000
3.100071 0.706893 0.220268 53.000000
3.102225 0.697379 0.220268 46.000000
3.104350 0.687858 0.220268 50.000000
3.100594 0.677054 0.219920 55.000000
3.101680 0.667329 0.219862 48.000000
3.103713 0.657810 0.219862 58.000000
3.100830 0.647265 0.219571 66.000000
3.102801 0.637749 0.219571 55.000000
3.102786 0.627831 0.219455 49.000000
3.103719 0.618114 0.219397 47.000000
3.111479 0.609740 0.219745 48.000000
3.110394 0.599625 0.219571 42.000000
3.110257 0.589707 0.219455 45.000000
3.116959 0.581077 0.219745 46.000000
3.119709 0.571691 0.219803 44.000000
3.120466 0.561941 0.219745 53.000000
3.121192 0.552191 0.219687 55.000000
3.120904 0.542271 0.219571 55.000000
3.121569 0.532526 0.219513 57.000000
3.121219 0.522617 0.219397 68.000000
3.122807 0.513039 0.219397 63.000000
3.121409 0.502980 0.219223 62.000000
3.122938 0.493401 0.219223 56.000000
3.127397 0.484275 0.219397 41.000000
3.126894 0.474379 0.219281 49.000000
3.128334 0.464784 0.219281 46.000000
3.131721 0.455471 0.219397 53.000000
3.133104 0.445861 0.219397 53.000000
3.134457 0.436247 0.219397 70.000000
3.135781 0.426628 0.219397 53.000000
3.138065 0.417137 0.219455 47.000000
3.141309 0.407765 0.219571 51.000000
3.144527 0.398376 0.219687 66.000000
3.146725 0.388849 0.219745 53.000000
3.147903 0.379193 0.219745 53.000000
3.152026 0.369883 0.219920 62.000000
3.153146 0.360211 0.219920 56.000000
3.152252 0.350315 0.219803 57.000000
3.154305 0.340749 0.219862 59.000000
3.156328 0.331174 0.219920 58.000000
3.158322 0.321590 0.219978 65.000000
3.161281 0.312095 0.220094 52.000000
3.161230 0.302300 0.220036 47.000000
3.161149 0.292508 0.219978 40.000000
3.162031 0.282809 0.219978 58.000000
3.158905 0.272763 0.219745 53.000000
3.154752 0.262657 0.219455 52.000000
3.154549 0.252898 0.219397 57.000000
3.155310 0.243218 0.219397 42.000000
3.162014 0.233978 0.219745 45.000000
3.166701 0.224558 0.219978 64.000000
3.169367 0.214977 0.220094 49.000000
3.175989 0.205639 0.220442 66.000000
3.179594 0.196078 0.220617 58.000000
3.180180 0.186322 0.220617 65.000000
3.177747 0.176399 0.220442 61.000000
3.177276 0.166597 0.220384 51.000000
3.175778 0.156750 0.220268 46.000000
3.180233 0.147190 0.220501 57.000000
3.184659 0.137605 0.220733 56.000000
3.187062 0.127913 0.220849 39.000000
3.188436 0.118172 0.220907 39.000000
3.192775 0.108524 0.221139 52.000000
3.196087 0.098821 0.221314 36.000000
3.198370 0.089070 0.221430 61.000000
3.199627 0.079282 0.221488 53.000000
3.199855 0.069465 0.221488 58.000000
3.202049 0.059685 0.221604 58.000000
3.205212 0.049907 0.221778 65.000000
3.206348 0.040086 0.221837 60.000000
3.213444 0.030314 0.222243 66.000000
3.212524 0.020449 0.222185 46.000000
3.214568 0.010599 0.222301 53.000000
3.218578 0.000737 0.222534 55.000000
3.218565 -0.009137 0.222534 44.000000
3.222515 -0.019036 0.222766 39.000000
3.224438 -0.028940 0.222882 35.000000
3.218345 -0.038760 0.222534 28.000000
3.225198 -0.048740 0.222940 36.000000
3.063783 0.796345 0.181967 25.000000
3.057504 0.784704 0.181551 30.000000
3.061834 0.775811 0.181643 34.000000
3.059355 0.765200 0.181412 53.000000
3.062657 0.756051 0.181459 42.000000
3.066903 0.747124 0.181551 30.000000
3.069181 0.737712 0.181551 32.000000
3.070458 0.728061 0.181505 36.000000
3.070732 0.718182 0.181412 46.000000
3.076814 0.709657 0.181597 33.000000
3.073133 0.698883 0.181320 60.000000
3.079161 0.690327 0.181505 47.000000
3.086141 0.681957 0.181736 42.000000
3.087243 0.672273 0.181690 38.000000
3.094174 0.663847 0.181921 42.000000
3.091310 0.653317 0.181690 39.000000
3.092322 0.643626 0.181643 31.000000
3.092325 0.633734 0.181551 45.000000
3.089359 0.623254 0.181320 50.000000
3.090277 0.613578 0.181274 43.000000
3.088223 0.603327 0.181089 36.000000
3.092022 0.594228 0.181181 42.000000
3.094812 0.584924 0.181227 47.000000
3.094628 0.575061 0.181135 39.000000
3.097360 0.565744 0.181181 38.000000
3.092199 0.555001 0.180857 49.000000
3.091920 0.545164 0.180765 40.000000
3.092593 0.535505 0.180719 52.000000
3.095206 0.526182 0.180765 26.000000
3.097791 0.516849 0.180811 38.000000
3.098377 0.507180 0.180765 38.000000
3.103863 0.498307 0.180950 43.000000
3.112284 0.489872 0.181274 50.000000
3.115747 0.480627 0.181366 51.000000
3.118195 0.471215 0.181412 45.000000
3.117649 0.461353 0.181320 44.000000
3.120039 0.451930 0.181366 49.000000
3.120422 0.442215 0.181320 47.000000
3.117806 0.432090 0.181135 60.000000
3.121096 0.422791 0.181227 44.000000
3.123369 0.413345 0.181274 63.000000
3.128585 0.404275 0.181459 47.000000
3.126837 0.394298 0.181320 31.000000
3.128032 0.384703 0.181320 34.000000
3.129198 0.375105 0.181320 47.000000
3.130334 0.365503 0.181320 36.000000
3.131441 0.355897 0.181320 39.000000
3.133511 0.346399 0.181366 32.000000
3.134559 0.336784 0.181366 42.000000
3.142532 0.327894 0.181690 42.000000
3.143523 0.318251 0.181690 54.000000
3.145479 0.308703 0.181736 52.000000
3.146411 0.299052 0.181736 57.000000
3.145324 0.289213 0.181643 46.000000
3.146196 0.279562 0.181643 42.000000
3.146044 0.269823 0.181597 59.000000
3.144866 0.260004 0.181505 48.000000
3.144653 0.250275 0.181459 45.000000
3.145406 0.240626 0.181459 42.000000
3.152107 0.231416 0.181736 41.000000
3.155792 0.221956 0.181875 52.000000
3.160444 0.212543 0.182060 56.000000
3.161082 0.202846 0.182060 56.000000
3.162686 0.193208 0.182106 52.000000
3.167253 0.183737 0.182291 34.000000
3.167802 0.174019 0.182291 50.000000
3.166326 0.164195 0.182198 34.000000
3.167812 0.154529 0.182245 43.000000
3.169269 0.144856 0.182291 58.000000
3.173691 0.135304 0.182476 37.000000
3.175089 0.125606 0.182522 37.000000
3.178454 0.115975 0.182661 38.000000
3.179793 0.106257 0.182707 39.000000
3.185097 0.096654 0.182938 28.000000
3.187376 0.086937 0.183030 51.000000
3.188626 0.077183 0.183077 34.000000
3.192842 0.067485 0.183262 35.000000
3.189039 0.057616 0.183077 37.000000
3.184207 0.047755 0.182846 35.000000
3.175349 0.037875 0.182429 33.000000
3.179446 0.028170 0.182614 41.000000
3.181515 0.018428 0.182707 39.000000
3.183554 0.008673 0.182799 38.000000
3.181568 -0.001094 0.182707 27.000000
3.190540 -0.010882 0.183123 23.000000
3.193488 -0.020689 0.183262 29.000000
3.193410 -0.030486 0.183262 31.000000
3.189306 -0.040234 0.183077 22.000000
3.183175 -0.049927 0.182799 12.000000
3.174017 -0.059527 0.182383 7.000000
3.047990 0.763671 0.142078 31.000000
3.047408 0.753597 0.141977 46.000000
3.047764 0.743770 0.141909 46.000000
3.051003 0.734650 0.141943 34.000000
3.048380 0.724132 0.141774 48.000000
3.050588 0.714776 0.141774 52.000000
3.050818 0.704964 0.141706 45.000000
3.052967 0.695601 0.141706 55.000000
3.053136 0.685793 0.141638 44.000000
3.059129 0.677287 0.141774 51.000000
3.060216 0.667686 0.141740 42.000000
3.065181 0.658924 0.141842 43.000000
3.067189 0.649517 0.141842 54.000000
3.070146 0.640307 0.141875 55.000000
3.069158 0.630283 0.141774 49.000000
3.074996 0.621655 0.141909 42.000000
3.076889 0.612218 0.141909 44.000000
3.078753 0.602776 0.141909 54.000000
3.078624 0.592950 0.141842 48.000000
3.079447 0.583316 0.141808 42.000000
3.079257 0.573500 0.141740 43.000000
3.084935 0.564770 0.141875 50.000000
3.083702 0.554772 0.141774 44.000000
3.086374 0.545482 0.141808 53.000000
3.089017 0.536182 0.141842 46.000000
3.091633 0.526870 0.141875 37.000000
3.095206 0.517712 0.141943 48.000000
3.095794 0.508052 0.141909 59.000000
3.096351 0.498393 0.141875 44.000000
3.099840 0.489203 0.141943 49.000000
3.101326 0.479690 0.141943 44.000000
3.100807 0.469874 0.141875 59.000000
3.101245 0.460212 0.141842 43.000000
3.100665 0.450408 0.141774 53.000000
3.103021 0.441034 0.141808 53.000000
3.105350 0.431649 0.141842 64.000000
3.109631 0.422524 0.141943 51.000000
3.109921 0.412850 0.141909 54.000000
3.115138 0.403820 0.142045 42.000000
3.118345 0.394512 0.142112 45.000000
3.123509 0.385432 0.142248 45.000000
3.124676 0.375848 0.142248 51.000000
3.122837 0.365911 0.142146 57.000000
3.122952 0.356215 0.142112 61.000000
3.127010 0.346963 0.142214 45.000000
3.127066 0.337261 0.142180 34.000000
3.131068 0.327977 0.142282 57.000000
3.130071 0.318168 0.142214 42.000000
3.134016 0.308857 0.142315 60.000000
3.135944 0.299336 0.142349 51.000000
3.136847 0.289713 0.142349 51.000000
3.137722 0.280088 0.142349 47.000000
3.136575 0.270289 0.142282 53.000000
3.134401 0.260417 0.142180 44.000000
3.137178 0.250959 0.142248 67.000000
3.135940 0.241180 0.142180 44.000000
3.138659 0.231705 0.142248 42.000000
3.143342 0.222356 0.142383 41.000000
3.145007 0.212779 0.142417 54.000000
3.146642 0.203193 0.142451 49.000000
3.148248 0.193600 0.142485 48.000000
3.153816 0.184231 0.142654 56.000000
3.157360 0.174720 0.142756 52.000000
3.160876 0.165188 0.142857 56.000000
3.161368 0.155490 0.142857 60.000000
3.164825 0.145928 0.142959 52.000000
3.170250 0.136432 0.143128 61.000000
3.174648 0.126864 0.143263 48.000000
3.175022 0.117124 0.143263 68.000000
3.175367 0.107383 0.143263 49.000000
3.176680 0.097671 0.143297 49.000000
3.173968 0.087842 0.143196 53.000000
3.175222 0.078128 0.143229 62.000000
3.176445 0.068408 0.143263 60.000000
3.170645 0.058553 0.143060 42.000000
3.170810 0.048825 0.143060 44.000000
3.173943 0.039133 0.143162 52.000000
3.169051 0.029350 0.142993 33.000000
3.178121 0.019682 0.143297 44.000000
3.180165 0.009937 0.143365 38.000000
3.179181 0.000181 0.143331 56.000000
3.183164 -0.009585 0.143466 43.000000
3.189116 -0.019388 0.143670 39.000000
3.192040 -0.029200 0.143771 50.000000
3.194934 -0.039030 0.143873 55.000000
3.200794 -0.048924 0.144076 47.000000
3.197632 -0.058688 0.143974 56.000000
3.208427 -0.068735 0.144347 51.000000
3.200209 -0.078381 0.144076 22.000000
3.117033 -0.085903 0.141266 5.000000
3.030197 0.768903 0.103507 36.000000
3.025753 0.757900 0.103356 31.000000
3.030005 0.749094 0.103399 42.000000
3.032289 0.739794 0.103399 36.000000
3.031629 0.729785 0.103334 57.000000
3.038717 0.721637 0.103443 32.000000
3.037996 0.711626 0.103378 48.000000
3.041139 0.702528 0.103399 52.000000
3.048154 0.694306 0.103507 43.000000
3.048319 0.684513 0.103464 53.000000
3.048452 0.674725 0.103421 45.000000
3.049531 0.665155 0.103399 52.000000
3.051558 0.655797 0.103399 39.000000
3.050622 0.645809 0.103334 71.000000
3.049652 0.635834 0.103269 37.000000
3.050610 0.626273 0.103248 45.000000
3.053496 0.617109 0.103269 39.000000
3.060277 0.608715 0.103378 38.000000
3.065074 0.599901 0.103443 43.000000
3.065918 0.590305 0.103421 50.000000
3.069680 0.581269 0.103464 38.000000
3.074397 0.572399 0.103529 46.000000
3.076138 0.562964 0.103529 56.000000
3.071948 0.552460 0.103399 35.000000
3.070675 0.542510 0.103334 37.000000
3.072325 0.533087 0.103334 37.000000
3.080844 0.524836 0.103486 40.000000
3.083426 0.515547 0.103507 36.000000
3.084007 0.505923 0.103486 31.000000
3.087518 0.496777 0.103529 42.000000
3.093965 0.488083 0.103637 38.000000
3.096436 0.478742 0.103659 49.000000
3.094925 0.468789 0.103594 46.000000
3.093382 0.458851 0.103529 43.000000
3.090818 0.448782 0.103443 34.000000
3.090200 0.439016 0.103399 51.000000
3.091533 0.429533 0.103399 49.000000
3.092836 0.420046 0.103399 58.000000
3.094110 0.410556 0.103399 50.000000
3.097338 0.401319 0.103443 53.000000
3.101530 0.392192 0.103507 65.000000
3.106688 0.383166 0.103594 52.000000
3.104871 0.373274 0.103529 55.000000
3.108980 0.364096 0.103594 42.000000
3.109089 0.354443 0.103572 41.000000
3.109169 0.344792 0.103551 60.000000
3.112199 0.335466 0.103594 45.000000
3.112220 0.325812 0.103572 49.000000
3.113205 0.316263 0.103572 56.000000
3.116150 0.306907 0.103616 43.000000
3.117077 0.297345 0.103616 43.000000
3.119966 0.287965 0.103659 37.000000
3.121830 0.278481 0.103681 55.000000
3.120678 0.268730 0.103637 37.000000
3.122484 0.259237 0.103659 42.000000
3.127251 0.249977 0.103746 39.000000
3.129996 0.240535 0.103789 61.000000
3.131717 0.231005 0.103810 45.000000
3.134405 0.221538 0.103854 41.000000
3.132078 0.211717 0.103789 59.000000
3.135706 0.202302 0.103854 49.000000
3.133318 0.192495 0.103789 45.000000
3.131898 0.182764 0.103746 57.000000
3.136437 0.173377 0.103832 38.000000
3.136954 0.163754 0.103832 53.000000
3.135444 0.154030 0.103789 51.000000
3.138898 0.144549 0.103854 34.000000
3.135331 0.134745 0.103767 39.000000
3.139726 0.125286 0.103854 57.000000
3.141094 0.115691 0.103875 34.000000
3.141435 0.106053 0.103875 37.000000
3.147741 0.096601 0.104005 50.000000
3.150021 0.087000 0.104048 34.000000
3.159269 0.077559 0.104243 42.000000
3.160491 0.067888 0.104265 34.000000
3.162684 0.058229 0.104308 28.000000
3.163847 0.048542 0.104330 40.000000
3.165981 0.038860 0.104373 43.000000
3.164085 0.029128 0.104330 35.000000
3.168159 0.019446 0.104416 47.000000
3.169203 0.009730 0.104438 34.000000
3.172217 0.000008 0.104503 39.000000
3.175202 -0.009732 0.104568 33.000000
3.180156 -0.019503 0.104676 37.000000
3.182081 -0.029277 0.104719 52.000000
3.185975 -0.039087 0.104806 55.000000
3.184840 -0.048846 0.104784 60.000000
3.183676 -0.058599 0.104763 46.000000
3.174485 -0.068176 0.104568 19.000000
3.016357 0.765034 0.064820 37.000000
3.010930 0.753835 0.064746 41.000000
3.015170 0.745073 0.064765 41.000000
3.019385 0.736293 0.064783 38.000000
3.022602 0.727260 0.064792 43.000000
3.024819 0.717983 0.064792 46.000000
3.029928 0.709383 0.064820 60.000000
3.035013 0.700759 0.064848 56.000000
3.043974 0.692997 0.064913 69.000000
3.043159 0.682999 0.064885 59.000000
3.043287 0.673227 0.064866 38.000000
3.043384 0.663462 0.064848 49.000000
3.043450 0.653702 0.064829 54.000000
3.042506 0.643741 0.064802 56.000000
3.040551 0.633588 0.064765 50.000000
3.039542 0.623654 0.064737 39.000000
3.045362 0.615118 0.064774 37.000000
3.047235 0.605772 0.064774 46.000000
3.051041 0.596804 0.064792 58.000000
3.053840 0.587629 0.064802 58.000000
3.056611 0.578443 0.064811 48.000000
3.062304 0.569794 0.064848 52.000000
3.066005 0.560756 0.064866 55.000000
3.069679 0.551701 0.064885 57.000000
3.069388 0.541933 0.064866 53.000000
3.072021 0.532684 0.064876 52.000000
3.073641 0.523257 0.064876 62.000000
3.074245 0.513660 0.064866 42.000000
3.075807 0.504226 0.064866 62.000000
3.077339 0.494787 0.064866 66.000000
3.078843 0.485344 0.064866 44.000000
3.079329 0.475743 0.064857 51.000000
3.080774 0.466294 0.064857 57.000000
3.080212 0.456547 0.064839 45.000000
3.081598 0.447095 0.064839 50.000000
3.079985 0.437217 0.064811 47.000000
3.083293 0.428041 0.064829 52.000000
3.084592 0.418579 0.064829 58.000000
3.088835 0.409508 0.064857 48.000000
3.091069 0.400158 0.064866 48.000000
3.094266 0.390923 0.064885 46.000000
3.096443 0.381550 0.064894 56.000000
3.096606 0.371929 0.064885 53.000000
3.097733 0.362427 0.064885 46.000000
3.098830 0.352922 0.064885 50.000000
3.100893 0.343523 0.064894 52.000000
3.097955 0.333581 0.064857 60.000000
3.099958 0.324178 0.064866 60.000000
3.099943 0.314566 0.064857 42.000000
3.103879 0.305347 0.064885 49.000000
3.107788 0.296107 0.064913 56.000000
3.108681 0.286571 0.064913 56.000000
3.113530 0.277387 0.064950 43.000000
3.119348 0.268261 0.064996 50.000000
3.120156 0.258690 0.064996 36.000000
3.122929 0.249275 0.065014 44.000000
3.124676 0.239769 0.065024 58.000000
3.125397 0.230182 0.065024 50.000000
3.128083 0.220733 0.065042 43.000000
3.123757 0.210799 0.064996 46.000000
3.129379 0.201535 0.065042 56.000000
3.127986 0.191811 0.065024 40.000000
3.124567 0.181982 0.064987 49.000000
3.128106 0.172559 0.065014 45.000000
3.127622 0.162910 0.065005 54.000000
3.130104 0.153411 0.065024 51.000000
3.134556 0.143991 0.065061 51.000000
3.135982 0.134416 0.065070 59.000000
3.140376 0.124953 0.065107 57.000000
3.147740 0.115574 0.065172 46.000000
3.148080 0.105916 0.065172 55.000000
3.146391 0.096196 0.065153 32.000000
3.150670 0.086652 0.065190 37.000000
3.149921 0.076962 0.065181 34.000000
3.157140 0.067446 0.065246 50.000000
3.157333 0.057760 0.065246 47.000000
3.155495 0.048043 0.065227 59.000000
3.160627 0.038422 0.065273 47.000000
3.161730 0.028734 0.065283 57.000000
3.163803 0.019046 0.065301 50.000000
3.163847 0.009339 0.065301 48.000000
3.163861 -0.000368 0.065301 55.000000
3.168844 -0.010091 0.065347 54.000000
3.170798 -0.019825 0.065366 34.000000
3.169723 -0.029544 0.065357 43.000000
3.169617 -0.039268 0.065357 52.000000
3.167482 -0.048961 0.065338 35.000000
3.183313 -0.058977 0.065486 20.000000
3.009564 0.763659 0.025936 28.000000
3.008013 0.753449 0.025949 44.000000
3.013222 0.744938 0.025939 39.000000
3.019380 0.736640 0.025926 48.000000
3.025514 0.728310 0.025913 59.000000
3.022870 0.717868 0.025929 44.000000
3.025058 0.708590 0.025929 47.000000
3.032089 0.700433 0.025913 35.000000
3.029349 0.690016 0.025929 44.000000
3.029500 0.680280 0.025936 50.000000
3.030597 0.670766 0.025939 49.000000
3.029709 0.660824 0.025949 45.000000
3.037588 0.652789 0.025929 44.000000
3.038599 0.643259 0.025933 58.000000
3.037621 0.633320 0.025942 37.000000
3.039550 0.623998 0.025942 37.000000
3.039490 0.614273 0.025949 46.000000
3.039398 0.604554 0.025956 56.000000
3.051052 0.597151 0.025923 35.000000
3.049924 0.587220 0.025933 45.000000
3.061536 0.579724 0.025899 39.000000
3.063300 0.570329 0.025899 41.000000
3.065035 0.560928 0.025899 39.000000
3.065758 0.551344 0.025903 41.000000
3.061527 0.540890 0.025923 39.000000
3.060216 0.530981 0.025933 44.000000
3.062816 0.521758 0.025929 56.000000
3.063416 0.512194 0.025933 48.000000
3.065960 0.502955 0.025929 51.000000
3.064527 0.493069 0.025939 38.000000
3.067013 0.483821 0.025936 42.000000
3.066507 0.474103 0.025942 45.000000
3.064981 0.464242 0.025952 40.000000
3.063423 0.454396 0.025962 42.000000
3.063813 0.444851 0.025966 56.000000
3.065164 0.435449 0.025966 56.000000
3.068466 0.426319 0.025959 42.000000
3.068769 0.416769 0.025962 52.000000
3.076972 0.408275 0.025939 50.000000
3.078210 0.398833 0.025939 43.000000
3.083387 0.389891 0.025926 57.000000
3.085561 0.380552 0.025923 36.000000
3.084728 0.370844 0.025929 62.000000
3.087838 0.361612 0.025923 45.000000
3.087940 0.352023 0.025926 41.000000
3.088011 0.342438 0.025929 40.000000
3.086064 0.332639 0.025939 34.000000
3.084087 0.322857 0.025949 33.000000
3.091032 0.314002 0.025929 52.000000
3.092976 0.304616 0.025926 41.000000
3.097878 0.295506 0.025913 41.000000
3.100761 0.286185 0.025906 60.000000
3.103616 0.276849 0.025899 52.000000
3.107440 0.267585 0.025889 45.000000
3.108247 0.258050 0.025889 46.000000
3.109024 0.248513 0.025889 56.000000
3.112762 0.239204 0.025879 42.000000
3.112484 0.229580 0.025883 49.000000
3.111179 0.219888 0.025889 58.000000
3.111839 0.210342 0.025889 45.000000
3.120453 0.201312 0.025863 39.000000
3.119060 0.191614 0.025870 47.000000
3.121630 0.182161 0.025863 40.000000
3.122174 0.172583 0.025863 50.000000
3.119693 0.162846 0.025873 41.000000
3.126170 0.153571 0.025853 42.000000
3.127625 0.144026 0.025850 59.000000
3.123057 0.134213 0.025866 38.000000
3.126452 0.124752 0.025856 44.000000
3.132816 0.115383 0.025836 37.000000
3.134154 0.105805 0.025833 49.000000
3.137463 0.096282 0.025823 45.000000
3.138743 0.086684 0.025820 42.000000
3.136995 0.077004 0.025826 36.000000
3.137216 0.067380 0.025826 50.000000
3.139408 0.057792 0.025820 37.000000
3.135571 0.048097 0.025833 37.000000
3.133704 0.038452 0.025840 47.000000
3.140807 0.028905 0.025816 49.000000
3.136881 0.019243 0.025830 34.000000
3.140925 0.009633 0.025816 37.000000
3.145940 -0.000002 0.025800 44.000000
3.145925 -0.009653 0.025800 39.000000
3.146881 -0.019311 0.025797 33.000000
3.154806 -0.029036 0.025770 34.000000
3.157702 -0.038750 0.025760 23.000000
3.154569 -0.048393 0.025770 36.000000
3.178401 -0.058503 0.025690 15.000000
3.002282 0.762576 -0.012233 52.000000
3.004607 0.753361 -0.012233 48.000000
3.005934 0.743900 -0.012217 49.000000
3.007231 0.734437 -0.012202 39.000000
3.011414 0.725676 -0.012233 37.000000
3.012653 0.716202 -0.012217 51.000000
3.010942 0.706044 -0.012154 57.000000
3.012120 0.696578 -0.012139 66.000000
3.014243 0.687333 -0.012139 54.000000
3.016338 0.678083 -0.012139 63.000000
3.015475 0.668177 -0.012092 54.000000
3.020442 0.659562 -0.012139 71.000000
3.019518 0.649662 -0.012092 63.000000
3.022475 0.640602 -0.012107 74.000000
3.023448 0.631122 -0.012092 63.000000
3.022431 0.621240 -0.012045 80.000000
3.024323 0.611964 -0.012045 55.000000
3.027167 0.602878 -0.012060 58.000000
3.029983 0.593780 -0.012076 69.000000
3.029827 0.584103 -0.012045 56.000000
3.032588 0.574991 -0.012060 66.000000
3.034337 0.565685 -0.012060 61.000000
3.035075 0.556193 -0.012045 52.000000
3.033815 0.546347 -0.011997 71.000000
3.037446 0.537385 -0.012029 51.000000
3.040065 0.528235 -0.012045 46.000000
3.044629 0.519410 -0.012092 66.000000
3.051138 0.510891 -0.012170 63.000000
3.052692 0.501528 -0.012170 78.000000
3.051254 0.491684 -0.012123 63.000000
3.052748 0.482320 -0.012123 45.000000
3.052238 0.472646 -0.012092 53.000000
3.053674 0.463280 -0.012092 76.000000
3.055081 0.453909 -0.012092 56.000000
3.056459 0.444534 -0.012092 58.000000
3.059788 0.435437 -0.012123 52.000000
3.065070 0.426598 -0.012186 68.000000
3.071319 0.417866 -0.012264 56.000000
3.076551 0.408968 -0.012327 48.000000
3.079775 0.399784 -0.012359 49.000000
3.081978 0.390460 -0.012374 43.000000
3.081177 0.380757 -0.012343 52.000000
3.085309 0.371661 -0.012390 50.000000
3.085442 0.362077 -0.012374 56.000000
3.083558 0.352269 -0.012327 51.000000
3.086612 0.343028 -0.012359 57.000000
3.091626 0.333986 -0.012421 41.000000
3.091641 0.324395 -0.012406 52.000000
3.098591 0.315516 -0.012500 53.000000
3.098549 0.305910 -0.012484 42.000000
3.098478 0.296307 -0.012469 62.000000
3.098377 0.286708 -0.012453 64.000000
3.094262 0.276756 -0.012374 72.000000
3.087127 0.266574 -0.012249 50.000000
3.086934 0.257019 -0.012233 57.000000
3.084718 0.247308 -0.012186 67.000000
3.090446 0.238227 -0.012264 53.000000
3.095151 0.229039 -0.012327 71.000000
3.098832 0.219754 -0.012374 39.000000
3.099491 0.210246 -0.012374 47.000000
3.105111 0.201058 -0.012453 59.000000
3.106711 0.191592 -0.012469 54.000000
3.108282 0.182118 -0.012484 59.000000
3.110823 0.172692 -0.012516 66.000000
3.108343 0.162991 -0.012469 63.000000
3.113822 0.153699 -0.012547 65.000000
3.118274 0.144330 -0.012610 53.000000
3.118702 0.134763 -0.012610 51.000000
3.119101 0.125194 -0.012610 61.000000
3.122468 0.115735 -0.012657 57.000000
3.124807 0.106222 -0.012689 48.000000
3.127117 0.096697 -0.012720 49.000000
3.128398 0.087130 -0.012736 63.000000
3.130650 0.077581 -0.012767 63.000000
3.128874 0.067933 -0.012736 49.000000
3.128067 0.058315 -0.012720 54.000000
3.130231 0.048749 -0.012751 67.000000
3.128367 0.039120 -0.012720 38.000000
3.132471 0.029560 -0.012783 41.000000
3.133547 0.019955 -0.012798 65.000000
3.132594 0.010339 -0.012783 38.000000
3.139610 0.000729 -0.012893 55.000000
3.143597 -0.008915 -0.012956 59.000000
3.139555 -0.018536 -0.012893 56.000000
3.141483 -0.028186 -0.012924 41.000000
3.142382 -0.037836 -0.012940 46.000000
3.145250 -0.047522 -0.012987 38.000000
3.148089 -0.057226 -0.013034 30.000000
3.174889 -0.067461 -0.013458 9.000000
2.990989 0.758938 -0.049037 40.000000
2.993304 0.749759 -0.049037 25.000000
2.994619 0.740331 -0.049009 34.000000
2.999790 0.731853 -0.049092 37.000000
3.000077 0.722177 -0.049037 35.000000
2.998389 0.712044 -0.048926 39.000000
3.000559 0.702842 -0.048926 46.000000
2.999780 0.692957 -0.048843 39.000000
3.004815 0.684418 -0.048926 43.000000
3.002025 0.674099 -0.048787 42.000000
3.003103 0.664669 -0.048759 49.000000
3.002198 0.654813 -0.048676 67.000000
3.001261 0.644968 -0.048593 40.000000
2.998336 0.634720 -0.048454 55.000000
3.001248 0.625723 -0.048482 48.000000
3.002175 0.616311 -0.048454 48.000000
3.003072 0.606899 -0.048427 40.000000
3.010802 0.598855 -0.048593 45.000000
3.017529 0.590577 -0.048732 32.000000
3.012456 0.579991 -0.048538 44.000000
3.016186 0.571119 -0.048593 50.000000
3.020872 0.562413 -0.048676 50.000000
3.029466 0.554404 -0.048870 33.000000
3.027217 0.544398 -0.048759 37.000000
3.033795 0.535980 -0.048898 29.000000
3.033455 0.526327 -0.048843 47.000000
3.037026 0.517355 -0.048898 56.000000
3.041556 0.508530 -0.048981 53.000000
3.044089 0.499359 -0.049009 32.000000
3.042646 0.489540 -0.048926 46.000000
3.044133 0.480203 -0.048926 56.000000
3.042629 0.470402 -0.048843 41.000000
3.043070 0.460915 -0.048815 36.000000
3.040514 0.450989 -0.048704 43.000000
3.043862 0.441946 -0.048759 45.000000
3.047183 0.432888 -0.048815 52.000000
3.049486 0.423675 -0.048843 46.000000
3.058696 0.415397 -0.049065 37.000000
3.059956 0.406011 -0.049065 40.000000
3.062178 0.396750 -0.049092 49.000000
3.067348 0.387857 -0.049203 45.000000
3.063563 0.377831 -0.049065 58.000000
3.065700 0.368550 -0.049092 40.000000
3.067809 0.359259 -0.049120 48.000000
3.067904 0.349732 -0.049092 36.000000
3.074923 0.340981 -0.049259 46.000000
3.072973 0.331223 -0.049176 40.000000
3.073975 0.321794 -0.049176 29.000000
3.073954 0.312260 -0.049148 48.000000
3.069923 0.302336 -0.049009 41.000000
3.072826 0.293107 -0.049065 37.000000
3.071720 0.283494 -0.049009 43.000000
3.072576 0.274069 -0.049009 58.000000
3.071410 0.264469 -0.048954 33.000000
3.068223 0.254712 -0.048843 67.000000
3.070982 0.245458 -0.048898 49.000000
3.069728 0.235881 -0.048843 37.000000
3.067447 0.226241 -0.048759 54.000000
3.076103 0.217395 -0.048981 52.000000
3.071769 0.207618 -0.048843 50.000000
3.081369 0.198776 -0.049092 51.000000
3.088948 0.189753 -0.049287 47.000000
3.089516 0.180275 -0.049287 48.000000
3.094047 0.171018 -0.049398 52.000000
3.090564 0.161315 -0.049287 42.000000
3.089047 0.151734 -0.049231 47.000000
3.090497 0.142302 -0.049259 59.000000
3.093915 0.132950 -0.049342 52.000000
3.094308 0.123457 -0.049342 44.000000
3.092674 0.113889 -0.049287 54.000000
3.096007 0.104503 -0.049370 41.000000
3.107303 0.095345 -0.049675 41.000000
3.110579 0.085896 -0.049758 61.000000
3.113825 0.076427 -0.049842 37.000000
3.114045 0.066873 -0.049842 46.000000
3.111237 0.057263 -0.049758 44.000000
3.115397 0.047780 -0.049869 45.000000
3.117527 0.038247 -0.049925 53.000000
3.116631 0.028673 -0.049897 41.000000
3.116704 0.019111 -0.049897 49.000000
3.116748 0.009549 -0.049897 44.000000
3.120761 -0.000011 -0.050008 44.000000
3.123745 -0.009594 -0.050091 40.000000
3.124701 -0.019183 -0.050119 27.000000
3.120629 -0.028734 -0.050008 29.000000
3.120526 -0.038308 -0.050008 38.000000
3.122393 -0.047911 -0.050064 36.000000
3.120232 -0.057454 -0.050008 35.000000
3.084063 -0.066267 -0.049009 10.000000
2.976979 0.756153 -0.087084 38.000000
2.988008 0.749202 -0.087447 46.000000
2.988353 0.739551 -0.087366 45.000000
2.992549 0.730853 -0.087447 47.000000
2.993806 0.721435 -0.087407 41.000000
2.996977 0.712478 -0.087447 48.000000
3.000122 0.703508 -0.087487 41.000000
3.000319 0.693850 -0.087407 33.000000
2.998537 0.683754 -0.087245 35.000000
2.999645 0.674332 -0.087205 45.000000
3.002676 0.665343 -0.087245 38.000000
3.004703 0.656127 -0.087245 50.000000
3.005725 0.646696 -0.087205 33.000000
3.007695 0.637471 -0.087205 54.000000
3.007680 0.627833 -0.087124 56.000000
3.010571 0.618804 -0.087165 34.000000
3.012455 0.609564 -0.087165 41.000000
3.011371 0.599734 -0.087044 42.000000
3.014178 0.590685 -0.087084 40.000000
3.010089 0.580300 -0.086842 49.000000
3.010873 0.570877 -0.086802 49.000000
3.021451 0.563284 -0.087165 45.000000
3.040856 0.557251 -0.087890 40.000000
3.049435 0.549158 -0.088172 43.000000
3.043234 0.538409 -0.087850 50.000000
3.088188 0.536590 -0.089623 30.000000
3.048450 0.520061 -0.087931 51.000000
3.102262 0.519445 -0.090067 30.000000
3.041724 0.499728 -0.087527 55.000000
3.049162 0.491347 -0.087769 55.000000
3.051642 0.482145 -0.087810 51.000000
3.053107 0.472781 -0.087810 52.000000
3.081216 0.467455 -0.088898 39.000000
3.059904 0.454625 -0.087971 55.000000
3.081060 0.448109 -0.088777 45.000000
3.102205 0.441468 -0.089583 41.000000
3.067917 0.426994 -0.088132 52.000000
3.090004 0.420406 -0.088979 37.000000
3.059584 0.406715 -0.087689 54.000000
3.054872 0.396555 -0.087447 57.000000
3.097708 0.392450 -0.089140 38.000000
3.086997 0.381476 -0.088656 43.000000
3.097081 0.373078 -0.089019 36.000000
3.095234 0.363225 -0.088898 41.000000
3.113210 0.355653 -0.089583 40.000000
3.115280 0.346211 -0.089623 36.000000
3.127255 0.337831 -0.090067 37.000000
3.084553 0.323652 -0.088293 58.000000
3.118335 0.317524 -0.089623 49.000000
3.134210 0.309426 -0.090228 38.000000
3.131166 0.299429 -0.090067 39.000000
3.092272 0.286144 -0.088455 55.000000
3.140906 0.280922 -0.090389 33.000000
3.086005 0.266478 -0.088132 60.000000
3.079838 0.256429 -0.087850 57.000000
3.113478 0.249610 -0.089180 37.000000
3.099286 0.238907 -0.088575 49.000000
3.089043 0.228588 -0.088132 39.000000
3.101690 0.219956 -0.088616 35.000000
3.091384 0.209697 -0.088172 51.000000
3.091016 0.200147 -0.088132 33.000000
3.088624 0.190479 -0.088011 40.000000
3.094181 0.181294 -0.088213 32.000000
3.092727 0.171690 -0.088132 50.000000
3.091243 0.162096 -0.088051 38.000000
3.088732 0.152464 -0.087931 40.000000
3.087189 0.142895 -0.087850 41.000000
3.094601 0.133724 -0.088132 35.000000
3.084014 0.123790 -0.087689 45.000000
3.084380 0.114328 -0.087689 56.000000
3.083717 0.104831 -0.087648 43.000000
3.094012 0.095677 -0.088051 52.000000
3.100284 0.086350 -0.088293 37.000000
3.103530 0.076912 -0.088414 40.000000
3.112742 0.067585 -0.088777 32.000000
3.113934 0.058053 -0.088817 42.000000
3.113098 0.048484 -0.088777 44.000000
3.123224 0.039057 -0.089180 28.000000
3.117334 0.029419 -0.088938 49.000000
3.118409 0.019861 -0.088979 48.000000
3.125449 0.010316 -0.089261 28.000000
3.115474 0.000726 -0.088858 37.000000
3.117460 -0.008838 -0.088938 39.000000
3.121415 -0.018426 -0.089099 44.000000
3.125340 -0.028039 -0.089261 37.000000
3.130235 -0.037688 -0.089462 31.000000
3.128107 -0.047261 -0.089382 35.000000
3.120954 -0.056729 -0.089099 24.000000
3.088799 -0.065621 -0.087810 5.000000
3.501123 0.628553 -0.149413 16.000000
3.491234 0.615723 -0.148785 27.000000
3.493107 0.605010 -0.148785 36.000000
3.491993 0.593787 -0.148628 37.000000
3.490844 0.582577 -0.148471 41.000000
3.483745 0.570409 -0.148000 59.000000
3.482521 0.559242 -0.147843 61.000000
3.486194 0.548867 -0.147948 46.000000
3.482926 0.537406 -0.147686 50.000000
3.469748 0.524474 -0.146901 36.000000
3.465414 0.512947 -0.146587 40.000000
3.455112 0.500591 -0.145959 47.000000
3.451689 0.489286 -0.145698 62.000000
3.437347 0.476495 -0.144860 52.000000
3.432856 0.465140 -0.144546 42.000000
3.434267 0.454606 -0.144546 51.000000
3.433664 0.443811 -0.144442 41.000000
3.439964 0.433901 -0.144703 59.000000
3.441279 0.423346 -0.144703 36.000000
3.439587 0.412428 -0.144546 41.000000
3.438852 0.401641 -0.144442 45.000000
3.435107 0.390524 -0.144180 43.000000
3.431326 0.379432 -0.143918 44.000000
3.433467 0.369011 -0.143971 39.000000
3.434583 0.358475 -0.143971 44.000000
3.441628 0.348542 -0.144285 47.000000
3.444669 0.338177 -0.144389 42.000000
3.449667 0.327987 -0.144599 39.000000
3.464578 0.318687 -0.145331 48.000000
3.471508 0.308589 -0.145645 45.000000
3.484377 0.298966 -0.146273 38.000000
3.491249 0.288770 -0.146587 38.000000
3.504064 0.279013 -0.147215 32.000000
3.522826 0.269639 -0.148157 33.000000
3.537580 0.259859 -0.148890 36.000000
3.545333 0.249498 -0.149256 29.000000
3.477334 0.233971 -0.145645 9.000000
3.528744 0.646596 -0.195417 16.000000
3.514014 0.632762 -0.194317 27.000000
3.508078 0.620589 -0.193799 24.000000
3.496201 0.607433 -0.192893 28.000000
3.496080 0.596369 -0.192764 23.000000
3.492972 0.584817 -0.192441 28.000000
3.490811 0.573451 -0.192182 20.000000
3.483687 0.561311 -0.191599 40.000000
3.481450 0.549998 -0.191341 32.000000
3.479177 0.538704 -0.191082 45.000000
3.471933 0.526682 -0.190499 27.000000
3.468597 0.515295 -0.190176 40.000000
3.471149 0.504794 -0.190241 36.000000
3.468730 0.493581 -0.189982 39.000000
3.470228 0.482937 -0.189982 50.000000
3.466749 0.471616 -0.189658 63.000000
3.464222 0.460452 -0.189399 42.000000
3.462650 0.449437 -0.189205 27.000000
3.469953 0.439563 -0.189593 26.000000
3.469304 0.428671 -0.189464 38.000000
3.472585 0.418264 -0.189593 51.000000
3.479798 0.408305 -0.189982 43.000000
3.476077 0.397062 -0.189658 37.000000
3.479263 0.386616 -0.189788 32.000000
3.477456 0.375618 -0.189593 42.000000
3.476607 0.364740 -0.189464 56.000000
3.482673 0.354577 -0.189788 50.000000
3.487717 0.344282 -0.190046 42.000000
3.496704 0.334340 -0.190564 30.000000
3.500695 0.323886 -0.190758 52.000000
3.510617 0.313943 -0.191341 30.000000
3.522500 0.304114 -0.192052 36.000000
3.522422 0.293223 -0.191988 22.000000
3.537231 0.283530 -0.192893 45.000000
3.553009 0.273825 -0.193864 43.000000
3.566769 0.263879 -0.194705 52.000000
3.579507 0.253781 -0.195482 36.000000
3.570313 0.242124 -0.194835 28.000000
3.488385 0.225827 -0.189464 9.000000
3.514295 0.653207 -0.237024 20.000000
3.506475 0.640627 -0.236259 19.000000
3.510386 0.630219 -0.236412 16.000000
3.480884 0.613894 -0.233962 35.000000
3.465068 0.600144 -0.232584 41.000000
3.462961 0.588840 -0.232278 34.000000
3.458851 0.577227 -0.231819 30.000000
3.452734 0.565321 -0.231207 37.000000
3.449531 0.553933 -0.230824 53.000000
3.446289 0.542571 -0.230441 36.000000
3.442025 0.531081 -0.229982 33.000000
3.444624 0.520668 -0.230058 35.000000
3.451137 0.510829 -0.230441 35.000000
3.452688 0.500239 -0.230441 34.000000
3.458155 0.490205 -0.230747 31.000000
3.470506 0.481102 -0.231589 39.000000
3.471966 0.470453 -0.231589 52.000000
3.480311 0.460717 -0.232125 105.000000
3.470832 0.448628 -0.231283 26.000000
3.468235 0.437477 -0.230977 44.000000
3.477478 0.427811 -0.231589 81.000000
3.472834 0.416426 -0.231130 37.000000
3.467163 0.404958 -0.230594 32.000000
3.470371 0.394544 -0.230747 37.000000
3.476520 0.384445 -0.231130 60.000000
3.484622 0.374526 -0.231666 25.000000
3.490713 0.364353 -0.232049 49.000000
3.490822 0.353541 -0.231972 52.000000
3.495860 0.343220 -0.232278 44.000000
3.500866 0.332872 -0.232584 41.000000
3.502864 0.322222 -0.232661 29.000000
3.507808 0.311828 -0.232967 33.000000
3.508749 0.301065 -0.232967 45.000000
3.521579 0.291289 -0.233886 44.000000
3.537365 0.281676 -0.235034 38.000000
3.550142 0.271739 -0.235952 26.000000
3.562892 0.261727 -0.236871 28.000000
3.568651 0.251146 -0.237254 26.000000
3.591290 0.241676 -0.238938 47.000000
3.584054 0.230144 -0.238325 19.000000
3.514529 0.665041 -0.281013 28.000000
3.509697 0.652981 -0.280392 16.000000
3.501886 0.640420 -0.279505 20.000000
3.501873 0.629321 -0.279327 28.000000
3.479265 0.614248 -0.277109 33.000000
3.464448 0.600680 -0.275601 32.000000
3.455474 0.588211 -0.274625 53.000000
3.452350 0.576787 -0.274181 34.000000
3.446239 0.564904 -0.273472 31.000000
3.445006 0.553855 -0.273205 36.000000
3.441770 0.542508 -0.272762 30.000000
3.447355 0.532554 -0.273117 20.000000
3.449958 0.522124 -0.273205 31.000000
3.450558 0.511392 -0.273117 64.000000
3.457039 0.501517 -0.273560 40.000000
3.455603 0.490490 -0.273294 38.000000
3.458078 0.480022 -0.273383 37.000000
3.465457 0.470214 -0.273915 34.000000
3.479720 0.461280 -0.275069 77.000000
3.471240 0.449325 -0.274181 31.000000
3.475567 0.439047 -0.274448 38.000000
3.475909 0.428260 -0.274359 38.000000
3.479185 0.417832 -0.274536 28.000000
3.479461 0.407040 -0.274448 31.000000
3.477724 0.396026 -0.274181 26.000000
3.481893 0.385683 -0.274448 34.000000
3.488011 0.375531 -0.274891 33.000000
3.483203 0.364208 -0.274359 101.000000
3.493223 0.354424 -0.275157 39.000000
3.491320 0.343413 -0.274891 46.000000
3.496324 0.333077 -0.275246 38.000000
3.497329 0.322349 -0.275246 39.000000
3.496317 0.311441 -0.275069 45.000000
3.500233 0.300969 -0.275335 52.000000
3.505111 0.290558 -0.275690 54.000000
3.515915 0.280594 -0.276577 34.000000
3.521725 0.270187 -0.277020 52.000000
3.529491 0.259892 -0.277641 35.000000
3.528284 0.248922 -0.277464 24.000000
3.534994 0.238498 -0.277996 25.000000
3.538691 0.227844 -0.278262 20.000000
3.501501 0.662575 -0.324826 15.000000
3.492759 0.649824 -0.323712 20.000000
3.485929 0.637492 -0.322801 24.000000
3.477098 0.624855 -0.321687 30.000000
3.465283 0.611759 -0.320270 27.000000
3.464204 0.600614 -0.319967 16.000000
3.454262 0.587976 -0.318752 50.000000
3.448199 0.576061 -0.317942 31.000000
3.443078 0.564351 -0.317233 35.000000
3.449705 0.554576 -0.317739 45.000000
3.453356 0.544301 -0.317942 35.000000
3.457958 0.534160 -0.318246 35.000000
3.458597 0.523399 -0.318144 40.000000
3.458219 0.512494 -0.317942 38.000000
3.459775 0.501882 -0.317942 26.000000
3.467208 0.492106 -0.318549 46.000000
3.468701 0.481466 -0.318549 48.000000
3.470162 0.470822 -0.318549 57.000000
3.480466 0.461353 -0.319460 49.000000
3.479892 0.450417 -0.319258 25.000000
3.485205 0.440238 -0.319663 59.000000
3.496413 0.430764 -0.320675 65.000000
3.485865 0.418607 -0.319460 30.000000
3.490098 0.408259 -0.319764 44.000000
3.488369 0.397211 -0.319460 30.000000
3.489571 0.386507 -0.319460 39.000000
3.494696 0.376226 -0.319865 46.000000
3.484950 0.364361 -0.318752 88.000000
3.497929 0.354877 -0.319967 39.000000
3.501971 0.344437 -0.320270 43.000000
3.498060 0.333218 -0.319764 24.000000
3.501047 0.322668 -0.319967 43.000000
3.502020 0.311925 -0.319967 53.000000
3.507917 0.301607 -0.320473 60.000000
3.513783 0.291256 -0.320979 46.000000
3.520610 0.280952 -0.321586 43.000000
3.530382 0.270837 -0.322497 41.000000
3.532189 0.260078 -0.322599 42.000000
3.539917 0.249733 -0.323307 36.000000
