ply
format ascii 1.0
element vertex 1289
property float x
property float y
property float z
property float intensity
end_header
3.297570 0.783212 0.773582 22.000000
3.307566 0.774877 0.775290 35.000000
3.305169 0.763625 0.774222 45.000000
3.307496 0.753481 0.774222 17.000000
3.318371 0.745260 0.776144 27.000000
3.320641 0.735076 0.776144 31.000000
3.318109 0.723842 0.775077 54.000000
3.315538 0.712631 0.774009 34.000000
3.312931 0.701442 0.772941 30.000000
3.307417 0.689677 0.771233 38.000000
3.299948 0.677558 0.769097 23.000000
3.302011 0.667431 0.769097 27.000000
3.305960 0.657679 0.769524 26.000000
3.314673 0.648850 0.771019 37.000000
3.287870 0.633126 0.764613 9.000000
3.305114 0.818510 0.733723 39.000000
3.298094 0.806041 0.731707 31.000000
3.303408 0.796608 0.732312 39.000000
3.300119 0.785110 0.731103 27.000000
3.299651 0.774311 0.730498 27.000000
3.296286 0.762859 0.729288 31.000000
3.298610 0.752743 0.729288 33.000000
3.303771 0.743264 0.729893 46.000000
3.307949 0.733549 0.730296 52.000000
3.311141 0.723606 0.730498 39.000000
3.309515 0.712619 0.729691 48.000000
3.309769 0.702056 0.729288 41.000000
3.311907 0.691899 0.729288 33.000000
3.306339 0.680157 0.727676 55.000000
3.306490 0.669621 0.727272 48.000000
3.312372 0.660239 0.728079 40.000000
3.309576 0.649132 0.727071 53.000000
3.313475 0.639346 0.727474 29.000000
3.312534 0.628630 0.726869 43.000000
3.308670 0.617387 0.725660 42.000000
3.311512 0.607410 0.725861 32.000000
3.306612 0.596032 0.724450 32.000000
3.278797 0.853533 0.690469 35.000000
3.287104 0.844938 0.691612 34.000000
3.289681 0.834849 0.691612 32.000000
3.289370 0.824036 0.691040 34.000000
3.288071 0.812997 0.690278 40.000000
3.287689 0.802206 0.689707 35.000000
3.288226 0.791656 0.689326 55.000000
3.290639 0.781564 0.689326 48.000000
3.288243 0.770343 0.688374 50.000000
3.289635 0.760030 0.688183 41.000000
3.291951 0.749934 0.688183 56.000000
3.299025 0.740908 0.689136 57.000000
3.302241 0.730996 0.689326 29.000000
3.304468 0.720861 0.689326 47.000000
3.306664 0.710720 0.689326 43.000000
3.309789 0.700776 0.689516 57.000000
3.311924 0.690618 0.689516 47.000000
3.312104 0.680059 0.689136 39.000000
3.310326 0.669115 0.688374 48.000000
3.309475 0.658380 0.687802 51.000000
3.310516 0.648035 0.687612 42.000000
3.308633 0.637131 0.686850 45.000000
3.305749 0.626062 0.685898 38.000000
3.304760 0.615377 0.685326 38.000000
3.303735 0.604704 0.684755 22.000000
3.307507 0.594914 0.685136 25.000000
3.307383 0.584422 0.684755 32.000000
3.309160 0.574272 0.684755 32.000000
3.309939 0.563952 0.684564 30.000000
3.313590 0.554119 0.684945 30.000000
3.302682 0.541880 0.682469 13.000000
3.315641 0.523138 0.684374 20.000000
3.325961 0.514316 0.686088 35.000000
3.306171 0.500868 0.681898 20.000000
3.258063 0.892266 0.646595 33.000000
3.262685 0.882780 0.646952 26.000000
3.265378 0.872766 0.646952 34.000000
3.268991 0.862995 0.647131 30.000000
3.272576 0.853210 0.647310 26.000000
3.276131 0.843411 0.647488 34.000000
3.278703 0.833356 0.647488 38.000000
3.279335 0.822815 0.647131 50.000000
3.278979 0.812041 0.646595 36.000000
3.284323 0.802677 0.647131 44.000000
3.284857 0.792136 0.646774 50.000000
3.280571 0.780462 0.645523 30.000000
3.286781 0.771292 0.646238 62.000000
3.288173 0.760983 0.646059 31.000000
3.290493 0.750891 0.646059 40.000000
3.296621 0.741656 0.646774 41.000000
3.299841 0.731752 0.646952 63.000000
3.300148 0.721205 0.646595 40.000000
3.308117 0.712318 0.647667 52.000000
3.307399 0.701554 0.647131 45.000000
3.306646 0.690800 0.646595 54.000000
3.305859 0.680058 0.646059 47.000000
3.304072 0.669132 0.645345 48.000000
3.302249 0.658223 0.644630 38.000000
3.306185 0.648467 0.644987 40.000000
3.306226 0.637948 0.644630 48.000000
3.306235 0.627435 0.644273 37.000000
3.309111 0.617469 0.644451 44.000000
3.310990 0.607314 0.644451 48.000000
3.310901 0.596804 0.644094 41.000000
3.311748 0.586473 0.643916 37.000000
3.312562 0.576141 0.643737 45.000000
3.313344 0.565810 0.643558 41.000000
3.315064 0.555642 0.643558 49.000000
3.311898 0.544671 0.642665 30.000000
3.314526 0.534664 0.642844 43.000000
3.321981 0.525415 0.643916 49.000000
3.323578 0.515221 0.643916 42.000000
3.328061 0.505464 0.644451 59.000000
3.333489 0.495830 0.645166 67.000000
3.334021 0.485459 0.644987 35.000000
3.342313 0.476199 0.646238 26.000000
3.337911 0.465129 0.645166 12.000000
3.263400 0.924792 0.607818 34.000000
3.265273 0.914509 0.607651 28.000000
3.268063 0.904487 0.607651 33.000000
3.267970 0.893675 0.607150 26.000000
3.274503 0.884675 0.607818 23.000000
3.274344 0.873861 0.607317 26.000000
3.270336 0.862050 0.606148 43.000000
3.271057 0.851515 0.605815 43.000000
3.274609 0.841722 0.605981 37.000000
3.278132 0.831914 0.606148 40.000000
3.277800 0.821133 0.605648 40.000000
3.283175 0.811784 0.606148 45.000000
3.283734 0.801240 0.605815 63.000000
3.283302 0.790468 0.605314 43.000000
3.281874 0.779479 0.604646 48.000000
3.283290 0.769181 0.604479 46.000000
3.281793 0.758216 0.603811 42.000000
3.288909 0.749240 0.604646 44.000000
3.292155 0.739363 0.604813 45.000000
3.293445 0.729046 0.604646 42.000000
3.297592 0.719359 0.604980 50.000000
3.301712 0.709654 0.605314 33.000000
3.302909 0.699317 0.605147 44.000000
3.305039 0.689180 0.605147 47.000000
3.301343 0.677845 0.604145 39.000000
3.300508 0.667127 0.603644 46.000000
3.302539 0.656998 0.603644 43.000000
3.298734 0.645724 0.602643 38.000000
3.299732 0.635414 0.602476 48.000000
3.299728 0.624920 0.602142 45.000000
3.298722 0.614251 0.601641 54.000000
3.300591 0.604128 0.601641 45.000000
3.299518 0.593474 0.601140 49.000000
3.301323 0.583349 0.601140 40.000000
3.304069 0.573387 0.601307 42.000000
3.303869 0.562915 0.600973 39.000000
3.307525 0.553102 0.601307 35.000000
3.308233 0.542792 0.601140 43.000000
3.307936 0.532326 0.600806 40.000000
3.318318 0.523561 0.602309 31.000000
3.322832 0.513831 0.602810 30.000000
3.326342 0.503931 0.603143 32.000000
3.326898 0.493578 0.602977 41.000000
3.333274 0.484079 0.603811 29.000000
3.334744 0.473851 0.603811 39.000000
3.338135 0.463890 0.604145 27.000000
3.331727 0.452582 0.602810 16.000000
3.254318 0.966210 0.565909 45.000000
3.255371 0.955665 0.565600 33.000000
3.260185 0.946224 0.565909 36.000000
3.264022 0.936490 0.566064 38.000000
3.265930 0.926202 0.565909 47.000000
3.265902 0.915378 0.565445 51.000000
3.262982 0.903773 0.564515 44.000000
3.268598 0.894540 0.564980 61.000000
3.267513 0.883477 0.564360 46.000000
3.265435 0.872174 0.563586 47.000000
3.270961 0.862907 0.564051 56.000000
3.273593 0.852868 0.564051 38.000000
3.275238 0.842575 0.563896 52.000000
3.279722 0.833009 0.564206 59.000000
3.270763 0.820061 0.562347 43.000000
3.275181 0.810497 0.562657 42.000000
3.279572 0.800913 0.562967 40.000000
3.274330 0.788997 0.561727 41.000000
3.275774 0.778720 0.561573 43.000000
3.278148 0.768666 0.561573 52.000000
3.274715 0.757271 0.560643 44.000000
3.283766 0.748757 0.561727 34.000000
3.283156 0.738029 0.561263 36.000000
3.280582 0.726885 0.560488 57.000000
3.289553 0.718292 0.561573 54.000000
3.291741 0.708196 0.561573 41.000000
3.294865 0.698299 0.561727 40.000000
3.299893 0.688792 0.562192 43.000000
3.297152 0.677671 0.561418 35.000000
3.298247 0.667356 0.561263 34.000000
3.299310 0.657041 0.561108 56.000000
3.290646 0.644828 0.559404 27.000000
3.292609 0.634729 0.559404 44.000000
3.293570 0.624441 0.559249 40.000000
3.293527 0.613971 0.558940 40.000000
3.296367 0.604042 0.559094 53.000000
3.300150 0.594276 0.559404 45.000000
3.304876 0.584664 0.559869 56.000000
3.307627 0.574691 0.560024 45.000000
3.307427 0.564209 0.559714 38.000000
3.313040 0.554711 0.560333 27.000000
3.308877 0.543584 0.559404 53.000000
3.310529 0.533430 0.559404 54.000000
3.312150 0.523271 0.559404 40.000000
3.310811 0.512654 0.558940 50.000000
3.315299 0.502938 0.559404 38.000000
3.316826 0.492765 0.559404 54.000000
3.317344 0.482445 0.559249 45.000000
3.319787 0.472404 0.559404 52.000000
3.321221 0.462217 0.559404 27.000000
3.323602 0.452158 0.559559 48.000000
3.323994 0.441829 0.559404 33.000000
3.324354 0.431502 0.559249 37.000000
3.324683 0.421177 0.559094 41.000000
3.324979 0.410854 0.558940 31.000000
3.231047 1.002523 0.522607 32.000000
3.236945 0.993478 0.523036 38.000000
3.240925 0.983830 0.523179 39.000000
3.241085 0.973028 0.522750 35.000000
3.245003 0.963362 0.522893 26.000000
3.248893 0.953681 0.523036 34.000000
3.252754 0.943985 0.523179 48.000000
3.256586 0.934274 0.523322 45.000000
3.258485 0.924009 0.523179 38.000000
3.260352 0.913740 0.523036 35.000000
3.262186 0.903469 0.522893 43.000000
3.263033 0.892933 0.522607 41.000000
3.264802 0.882659 0.522464 46.000000
3.262714 0.871360 0.521749 29.000000
3.266329 0.861599 0.521892 40.000000
3.268957 0.851574 0.521892 37.000000
3.263887 0.839566 0.520748 45.000000
3.264529 0.829061 0.520462 44.000000
3.259377 0.817113 0.519318 43.000000
3.260908 0.806872 0.519175 51.000000
3.263368 0.796864 0.519175 49.000000
3.262911 0.786152 0.518746 40.000000
3.266271 0.776367 0.518889 36.000000
3.273455 0.767473 0.519604 57.000000
3.276758 0.757650 0.519747 41.000000
3.278102 0.747373 0.519604 38.000000
3.279414 0.737095 0.519461 38.000000
3.281660 0.727031 0.519461 53.000000
3.285809 0.717382 0.519747 45.000000
3.287027 0.707090 0.519604 36.000000
3.287244 0.696591 0.519318 36.000000
3.290335 0.686705 0.519461 50.000000
3.293395 0.676807 0.519604 43.000000
3.292547 0.666110 0.519175 40.000000
3.289721 0.655037 0.518460 45.000000
3.289773 0.644560 0.518174 38.000000
3.289792 0.634089 0.517889 37.000000
3.294639 0.624547 0.518317 38.000000
3.291674 0.613528 0.517603 46.000000
3.291595 0.603069 0.517317 34.000000
3.294403 0.593143 0.517460 49.000000
3.297182 0.583206 0.517603 51.000000
3.295055 0.572409 0.517031 39.000000
3.297772 0.562464 0.517174 41.000000
3.297529 0.552016 0.516888 34.000000
3.302137 0.542379 0.517317 51.000000
3.303786 0.532246 0.517317 47.000000
3.307358 0.522417 0.517603 48.000000
3.307967 0.512116 0.517460 47.000000
3.313437 0.502560 0.518032 28.000000
3.312026 0.491955 0.517603 36.000000
3.317437 0.482362 0.518174 32.000000
3.317922 0.472043 0.518032 39.000000
3.319355 0.461861 0.518032 52.000000
3.316833 0.451140 0.517460 35.000000
3.318202 0.440962 0.517460 33.000000
3.317576 0.430525 0.517174 41.000000
3.319863 0.420469 0.517317 31.000000
3.317209 0.409795 0.516745 38.000000
3.320415 0.399854 0.517031 45.000000
3.326541 0.390243 0.517746 36.000000
3.328707 0.380148 0.517889 25.000000
3.322972 0.369167 0.516888 44.000000
3.313265 0.357798 0.515315 14.000000
3.231762 1.035532 0.482677 42.000000
3.233033 1.025013 0.482415 37.000000
3.236163 1.015090 0.482415 39.000000
3.237368 1.004569 0.482153 41.000000
3.236644 0.993469 0.481628 41.000000
3.236830 0.982671 0.481235 41.000000
3.236981 0.971881 0.480842 41.000000
3.238997 0.961663 0.480711 53.000000
3.242884 0.952001 0.480842 37.000000
3.240077 0.940390 0.480056 51.000000
3.242946 0.930445 0.480056 50.000000
3.247693 0.921032 0.480318 48.000000
3.248594 0.910529 0.480056 39.000000
3.252328 0.900823 0.480187 60.000000
3.253164 0.890318 0.479925 53.000000
3.254923 0.880074 0.479794 59.000000
3.265270 0.872130 0.480842 34.000000
3.267931 0.862108 0.480842 61.000000
3.267682 0.851328 0.480449 43.000000
3.269318 0.841053 0.480318 32.000000
3.272844 0.831262 0.480449 37.000000
3.270571 0.820013 0.479794 56.000000
3.269222 0.809023 0.479270 48.000000
3.266873 0.797814 0.478614 40.000000
3.265450 0.786859 0.478090 60.000000
3.265919 0.776378 0.477828 38.000000
3.268286 0.766355 0.477828 57.000000
3.270622 0.756324 0.477828 47.000000
3.270027 0.745626 0.477435 49.000000
3.272299 0.735590 0.477435 50.000000
3.271637 0.724904 0.477042 44.000000
3.273845 0.714864 0.477042 46.000000
3.277961 0.705233 0.477304 52.000000
3.275260 0.694146 0.476649 51.000000
3.276404 0.683892 0.476518 44.000000
3.278487 0.673837 0.476518 56.000000
3.280539 0.663775 0.476518 43.000000
3.280615 0.653321 0.476256 34.000000
3.283577 0.643443 0.476387 37.000000
3.285536 0.633366 0.476387 46.000000
3.292333 0.624206 0.477042 51.000000
3.294233 0.614103 0.477042 55.000000
3.298052 0.604350 0.477304 46.000000
3.299890 0.594229 0.477304 31.000000
3.304627 0.584620 0.477697 58.000000
3.308358 0.574818 0.477959 76.000000
3.305220 0.563833 0.477304 53.000000
3.305956 0.553526 0.477173 63.000000
3.300791 0.542257 0.476256 35.000000
3.304396 0.532443 0.476518 43.000000
3.305035 0.522148 0.476387 42.000000
3.307601 0.512157 0.476518 36.000000
3.307197 0.501710 0.476256 42.000000
3.309701 0.491707 0.476387 53.000000
3.309232 0.481266 0.476124 61.000000
3.313637 0.471530 0.476518 59.000000
3.317032 0.461634 0.476780 51.000000
3.318433 0.451456 0.476780 40.000000
3.323733 0.441795 0.477304 50.000000
3.328022 0.431978 0.477697 31.000000
3.328349 0.421641 0.477566 47.000000
3.328642 0.411307 0.477435 47.000000
3.328904 0.400974 0.477304 52.000000
3.327165 0.390413 0.476911 46.000000
3.322437 0.379529 0.476124 57.000000
3.319644 0.368897 0.475600 50.000000
3.317804 0.358391 0.475207 42.000000
3.318888 0.348211 0.475207 35.000000
3.313036 0.337325 0.474290 27.000000
3.317015 0.327451 0.474683 42.000000
3.317018 0.317179 0.474552 40.000000
3.216012 1.074717 0.440425 34.000000
3.216467 1.063909 0.440069 32.000000
3.216885 1.053109 0.439712 38.000000
3.220101 1.043234 0.439712 35.000000
3.227068 1.034564 0.440187 48.000000
3.229280 1.024358 0.440069 43.000000
3.229566 1.013553 0.439712 34.000000
3.232661 1.003640 0.439712 49.000000
3.233826 0.993134 0.439474 55.000000
3.235908 0.982919 0.439355 52.000000
3.238909 0.972987 0.439355 43.000000
3.239975 0.962480 0.439117 38.000000
3.241007 0.951975 0.438879 57.000000
3.244866 0.942304 0.438998 47.000000
3.242970 0.930973 0.438404 60.000000
3.244856 0.920748 0.438285 41.000000
3.246710 0.910520 0.438166 49.000000
3.247575 0.900024 0.437928 51.000000
3.246490 0.889006 0.437452 45.000000
3.244411 0.877744 0.436858 54.000000
3.249007 0.868299 0.437095 35.000000
3.249735 0.857820 0.436858 40.000000
3.250430 0.847344 0.436620 58.000000
3.254938 0.837864 0.436858 62.000000
3.257493 0.827874 0.436858 62.000000
3.259054 0.817634 0.436739 47.000000
3.263475 0.808110 0.436977 49.000000
3.264010 0.797621 0.436739 49.000000
3.263546 0.786905 0.436382 45.000000
3.264979 0.776658 0.436263 46.000000
3.263480 0.765729 0.435787 44.000000
3.263880 0.755265 0.435549 60.000000
3.263278 0.744585 0.435193 48.000000
3.261672 0.733696 0.434717 79.000000
3.262938 0.723471 0.434598 39.000000
3.265143 0.713457 0.434598 59.000000
3.266346 0.703227 0.434479 50.000000
3.269459 0.693409 0.434598 53.000000
3.272543 0.683579 0.434717 50.000000
3.273652 0.673335 0.434598 57.000000
3.273756 0.662894 0.434360 49.000000
3.273827 0.652458 0.434122 57.000000
3.274839 0.642220 0.434003 60.000000
3.279719 0.632735 0.434360 43.000000
3.281644 0.622670 0.434360 35.000000
3.283539 0.612599 0.434360 42.000000
3.288333 0.603061 0.434717 42.000000
3.296030 0.594028 0.435430 47.000000
3.303703 0.584954 0.436144 49.000000
3.305482 0.574815 0.436144 53.000000
3.307230 0.564672 0.436144 63.000000
3.307967 0.554358 0.436025 48.000000
3.310632 0.544368 0.436144 58.000000
3.309346 0.533733 0.435787 58.000000
3.302142 0.522179 0.434717 55.000000
3.303729 0.512046 0.434717 48.000000
3.300376 0.501161 0.434122 40.000000
3.297970 0.490447 0.433647 54.000000
3.298476 0.480184 0.433528 57.000000
3.301900 0.470343 0.433766 49.000000
3.306278 0.460622 0.434122 46.000000
3.314562 0.451417 0.434955 53.000000
3.315931 0.441246 0.434955 52.000000
3.317269 0.431071 0.434955 38.000000
3.319561 0.421017 0.435074 51.000000
3.315910 0.410219 0.434479 47.000000
3.313210 0.399567 0.434003 53.000000
3.311462 0.389052 0.433647 54.000000
3.307708 0.378325 0.433052 60.000000
3.310827 0.368396 0.433290 65.000000
3.317864 0.358879 0.434003 47.000000
3.318950 0.348698 0.434003 52.000000
3.320004 0.338514 0.434003 43.000000
3.321027 0.328327 0.434003 50.000000
3.321030 0.318042 0.433885 31.000000
3.317047 0.307392 0.433290 43.000000
3.316986 0.297125 0.433171 32.000000
3.193872 1.111155 0.397667 30.000000
3.200086 1.102323 0.397987 34.000000
3.212864 1.095708 0.399055 41.000000
3.217153 1.086164 0.399162 59.000000
3.221413 1.076604 0.399269 53.000000
3.226589 1.067340 0.399482 41.000000
3.226068 1.056199 0.399055 42.000000
3.227402 1.045684 0.398842 47.000000
3.230595 1.035777 0.398842 52.000000
3.230914 1.024959 0.398521 45.000000
3.231197 1.014149 0.398201 50.000000
3.233344 1.003937 0.398094 43.000000
3.234507 0.993428 0.397880 40.000000
3.237540 0.983501 0.397880 46.000000
3.243399 0.974421 0.398201 48.000000
3.247326 0.964749 0.398308 67.000000
3.243593 0.952821 0.397560 38.000000
3.246501 0.942865 0.397560 52.000000
3.246511 0.932078 0.397240 50.000000
3.244573 0.920757 0.396706 52.000000
3.248339 0.911067 0.396813 42.000000
3.249203 0.900566 0.396599 54.000000
3.249074 0.889805 0.396279 47.000000
3.246029 0.878276 0.395638 45.000000
3.246787 0.867800 0.395424 47.000000
3.245589 0.856820 0.394997 53.000000
3.245316 0.846106 0.394677 50.000000
3.242119 0.834659 0.394036 43.000000
3.244665 0.824709 0.394036 45.000000
3.246215 0.814508 0.393929 45.000000
3.254489 0.805979 0.394570 45.000000
3.255981 0.795754 0.394463 61.000000
3.257440 0.785528 0.394357 60.000000
3.262737 0.776221 0.394677 44.000000
3.267039 0.766662 0.394890 48.000000
3.266469 0.755963 0.394570 38.000000
3.269743 0.746159 0.394677 42.000000
3.266196 0.734815 0.394036 45.000000
3.268435 0.724791 0.394036 49.000000
3.267730 0.714124 0.393716 45.000000
3.266989 0.703467 0.393396 52.000000
3.266214 0.692823 0.393075 44.000000
3.266377 0.682392 0.392862 59.000000
3.268456 0.672368 0.392862 64.000000
3.271477 0.662535 0.392968 47.000000
3.272519 0.652300 0.392862 47.000000
3.273529 0.642066 0.392755 41.000000
3.274508 0.631832 0.392648 43.000000
3.279361 0.622339 0.392968 39.000000
3.283210 0.612639 0.393182 44.000000
3.283118 0.602205 0.392968 59.000000
3.286907 0.592482 0.393182 62.000000
3.292626 0.583089 0.393609 59.000000
3.296358 0.573325 0.393823 59.000000
3.297122 0.563042 0.393716 64.000000
3.300795 0.553252 0.393929 54.000000
3.301496 0.542962 0.393823 39.000000
3.302164 0.532672 0.393716 58.000000
3.301819 0.522228 0.393502 59.000000
3.299475 0.511487 0.393075 49.000000
3.299063 0.501064 0.392862 42.000000
3.300585 0.490940 0.392862 41.000000
3.302075 0.480811 0.392862 39.000000
3.304519 0.470819 0.392968 58.000000
3.309887 0.461227 0.393396 63.000000
3.313257 0.451338 0.393609 46.000000
3.313640 0.441040 0.393502 40.000000
3.314978 0.430872 0.393502 52.000000
3.315298 0.420575 0.393396 49.000000
3.315586 0.410280 0.393289 48.000000
3.317816 0.400224 0.393396 50.000000
3.319028 0.390044 0.393396 39.000000
3.317246 0.379521 0.393075 29.000000
3.330253 0.370660 0.394357 57.000000
3.333352 0.360655 0.394570 51.000000
3.331475 0.350115 0.394250 45.000000
3.338469 0.340497 0.394890 48.000000
3.329603 0.329276 0.393823 18.000000
3.188452 1.141564 0.357791 30.000000
3.191939 1.131777 0.357791 46.000000
3.197275 1.122639 0.357981 40.000000
3.198823 1.112170 0.357791 44.000000
3.203162 1.102675 0.357886 42.000000
3.211240 1.094450 0.358361 61.000000
3.212697 1.083956 0.358171 58.000000
3.217895 1.074726 0.358361 64.000000
3.219287 1.064223 0.358171 39.000000
3.219699 1.053412 0.357886 41.000000
3.221969 1.043222 0.357791 44.000000
3.218519 1.031203 0.357126 49.000000
3.217872 1.020120 0.356746 47.000000
3.217187 1.009050 0.356366 53.000000
3.221219 0.999470 0.356461 58.000000
3.221415 0.988706 0.356176 50.000000
3.224433 0.978818 0.356176 56.000000
3.231235 0.970067 0.356556 58.000000
3.235150 0.960433 0.356651 54.000000
3.235216 0.949661 0.356366 66.000000
3.235246 0.938897 0.356081 61.000000
3.232371 0.927318 0.355511 41.000000
3.235201 0.917397 0.355511 58.000000
3.236083 0.906929 0.355321 67.000000
3.236932 0.896465 0.355131 43.000000
3.241587 0.887056 0.355321 39.000000
3.241410 0.876327 0.355036 59.000000
3.246969 0.867149 0.355321 37.000000
3.244802 0.855913 0.354846 62.000000
3.244522 0.845200 0.354562 64.000000
3.243244 0.834248 0.354182 54.000000
3.243859 0.823804 0.353992 70.000000
3.247336 0.814090 0.354087 55.000000
3.250785 0.804363 0.354182 58.000000
3.249369 0.793440 0.353802 69.000000
3.250821 0.783234 0.353707 80.000000
3.255145 0.773718 0.353897 55.000000
3.259442 0.764183 0.354087 64.000000
3.259831 0.753730 0.353897 60.000000
3.263099 0.743947 0.353992 56.000000
3.261481 0.733058 0.353612 81.000000
3.265659 0.723480 0.353802 54.000000
3.260083 0.711756 0.353042 82.000000
3.258359 0.700912 0.352662 70.000000
3.255625 0.689879 0.352187 49.000000
3.251879 0.678665 0.351617 62.000000
3.253946 0.668686 0.351617 39.000000
3.255007 0.658502 0.351522 52.000000
3.257012 0.648512 0.351522 56.000000
3.258986 0.638517 0.351522 57.000000
3.267772 0.629837 0.352187 51.000000
3.272622 0.620366 0.352472 56.000000
3.277446 0.610871 0.352757 54.000000
3.279305 0.600813 0.352757 56.000000
3.284072 0.591279 0.353042 61.000000
3.285870 0.581201 0.353042 53.000000
3.285676 0.570776 0.352852 67.000000
3.283487 0.560022 0.352472 59.000000
3.281263 0.549287 0.352092 55.000000
3.278021 0.538409 0.351617 54.000000
3.280640 0.528509 0.351712 51.000000
3.283229 0.518597 0.351807 59.000000
3.283821 0.508369 0.351712 51.000000
3.288318 0.498741 0.351997 64.000000
3.291802 0.488943 0.352187 54.000000
3.297227 0.479416 0.352567 56.000000
3.299668 0.469439 0.352662 63.000000
3.299120 0.459038 0.352472 52.000000
3.294595 0.448108 0.351902 60.000000
3.297928 0.438261 0.352092 64.000000
3.300244 0.428269 0.352187 45.000000
3.301542 0.418142 0.352187 45.000000
3.305773 0.408379 0.352472 34.000000
3.307011 0.398235 0.352472 50.000000
3.309206 0.388203 0.352567 58.000000
3.312359 0.378276 0.352757 60.000000
3.311525 0.367891 0.352567 36.000000
3.177545 1.182561 0.315407 31.000000
3.179287 1.172118 0.315242 42.000000
3.183805 1.162700 0.315324 34.000000
3.189231 1.153605 0.315489 37.000000
3.189941 1.142807 0.315242 41.000000
3.193432 1.133015 0.315242 45.000000
3.195952 1.122882 0.315159 48.000000
3.200324 1.113399 0.315242 49.000000
3.206551 1.104549 0.315489 40.000000
3.208982 1.094384 0.315407 55.000000
3.213268 1.084853 0.315489 50.000000
3.218472 1.075621 0.315654 50.000000
3.219864 1.065116 0.315489 58.000000
3.223117 1.055233 0.315489 55.000000
3.224443 1.044725 0.315324 46.000000
3.223837 1.033611 0.314994 51.000000
3.224143 1.022812 0.314747 67.000000
3.222511 1.011424 0.314335 55.000000
3.226551 1.001828 0.314417 53.000000
3.225798 0.990755 0.314087 54.000000
3.226915 0.980274 0.313922 38.000000
3.228953 0.970083 0.313840 52.000000
3.228093 0.959037 0.313510 40.000000
3.228151 0.948287 0.313263 43.000000
3.228174 0.937545 0.313015 68.000000
3.227204 0.926537 0.312686 52.000000
3.230990 0.916904 0.312768 58.000000
3.233788 0.906987 0.312768 42.000000
3.233674 0.896263 0.312521 39.000000
3.238330 0.886865 0.312686 33.000000
3.240074 0.876665 0.312603 42.000000
3.244674 0.867235 0.312768 54.000000
3.245392 0.856768 0.312603 62.000000
3.246077 0.846305 0.312438 43.000000
3.246728 0.835845 0.312273 51.000000
3.250242 0.826126 0.312356 43.000000
3.255662 0.816877 0.312603 37.000000
3.257185 0.806646 0.312521 41.000000
3.255772 0.795703 0.312191 46.000000
3.254323 0.784777 0.311861 55.000000
3.254776 0.774328 0.311696 56.000000
3.257136 0.764339 0.311696 43.000000
3.256553 0.753669 0.311449 55.000000
3.257878 0.743453 0.311366 37.000000
3.259171 0.733235 0.311284 42.000000
3.260432 0.723017 0.311201 42.000000
3.265556 0.713649 0.311449 59.000000
3.266756 0.703417 0.311366 42.000000
3.264024 0.692358 0.310954 49.000000
3.264182 0.681934 0.310789 55.000000
3.267235 0.672117 0.310871 48.000000
3.272212 0.662683 0.311119 52.000000
3.275207 0.652836 0.311201 55.000000
3.276216 0.642593 0.311119 57.000000
3.280129 0.632916 0.311284 45.000000
3.284014 0.623221 0.311449 35.000000
3.283951 0.612778 0.311284 55.000000
3.282875 0.602161 0.311036 47.000000
3.283726 0.591909 0.310954 37.000000
3.284545 0.581658 0.310871 54.000000
3.287296 0.571750 0.310954 42.000000
3.284123 0.560823 0.310542 53.000000
3.285828 0.550745 0.310542 58.000000
3.290452 0.541147 0.310789 34.000000
3.290129 0.530732 0.310624 50.000000
3.291742 0.520636 0.310624 46.000000
3.295294 0.510839 0.310789 45.000000
3.298816 0.501026 0.310954 50.000000
3.298366 0.490610 0.310789 54.000000
3.306759 0.481493 0.311366 35.000000
3.307234 0.471205 0.311284 40.000000
3.305703 0.460644 0.311036 61.000000
3.304138 0.450097 0.310789 50.000000
3.309455 0.440484 0.311119 56.000000
3.310791 0.430328 0.311119 35.000000
3.307152 0.419542 0.310706 45.000000
3.305456 0.409027 0.310459 30.000000
3.331432 0.401865 0.312521 12.000000
3.178390 1.225507 0.276255 41.000000
3.176544 1.213613 0.275831 39.000000
3.179320 1.203508 0.275760 43.000000
3.180196 1.192697 0.275549 31.000000
3.179165 1.181195 0.275195 40.000000
3.179966 1.170402 0.274984 32.000000
3.176982 1.158246 0.274489 40.000000
3.179583 1.148155 0.274419 50.000000
3.186847 1.139740 0.274701 48.000000
3.189389 1.129624 0.274630 42.000000
3.196604 1.121155 0.274913 60.000000
3.202855 1.112326 0.275125 44.000000
3.206252 1.102494 0.275125 44.000000
3.212452 1.093618 0.275337 53.000000
3.210121 1.081844 0.274913 35.000000
3.211533 1.071358 0.274772 54.000000
3.211017 1.060248 0.274489 50.000000
3.208566 1.048531 0.274065 46.000000
3.210819 1.038375 0.273995 41.000000
3.215889 1.029128 0.274136 57.000000
3.216178 1.018353 0.273924 58.000000
3.219288 1.008481 0.273924 49.000000
3.228083 1.000373 0.274348 31.000000
3.221601 0.987538 0.273642 55.000000
3.226524 0.978229 0.273783 63.000000
3.227600 0.967752 0.273642 52.000000
3.222903 0.955574 0.273077 39.000000
3.226777 0.945963 0.273147 36.000000
3.225832 0.934947 0.272865 50.000000
3.222932 0.923395 0.272441 47.000000
3.227669 0.914047 0.272582 54.000000
3.222774 0.901987 0.272017 51.000000
3.222642 0.891297 0.271805 50.000000
3.230172 0.882722 0.272158 41.000000
3.232865 0.872808 0.272158 51.000000
3.239383 0.863915 0.272441 43.000000
3.242983 0.854227 0.272512 46.000000
3.241727 0.843268 0.272229 42.000000
3.246231 0.833815 0.272370 41.000000
3.244906 0.822870 0.272088 50.000000
3.243546 0.811941 0.271805 61.000000
3.241180 0.800788 0.271452 52.000000
3.239745 0.789894 0.271170 54.000000
3.239244 0.779250 0.270958 48.000000
3.241619 0.769308 0.270958 48.000000
3.242993 0.759132 0.270887 52.000000
3.249194 0.750078 0.271170 50.000000
3.254398 0.740771 0.271382 50.000000
3.255682 0.730564 0.271311 54.000000
3.261804 0.721436 0.271593 64.000000
3.263027 0.711212 0.271523 49.000000
3.261293 0.700359 0.271240 46.000000
3.262450 0.690144 0.271170 48.000000
3.263576 0.679928 0.271099 49.000000
3.262715 0.669309 0.270887 60.000000
3.267686 0.659890 0.271099 57.000000
3.264804 0.648888 0.270746 47.000000
3.269716 0.639444 0.270958 36.000000
3.274601 0.629976 0.271170 40.000000
3.273578 0.619369 0.270958 51.000000
3.266637 0.607678 0.270322 55.000000
3.267505 0.597473 0.270252 50.000000
3.268341 0.587269 0.270181 56.000000
3.266198 0.576544 0.269898 41.000000
3.267952 0.566521 0.269898 55.000000
3.269674 0.556493 0.269898 70.000000
3.274318 0.546953 0.270110 44.000000
3.276965 0.537066 0.270181 64.000000
3.288445 0.528597 0.270887 36.000000
3.279213 0.516794 0.270110 49.000000
3.283741 0.507188 0.270322 53.000000
3.288240 0.497560 0.270534 57.000000
3.286791 0.487030 0.270322 45.000000
3.288270 0.476944 0.270322 38.000000
3.292680 0.467275 0.270534 44.000000
3.288170 0.456346 0.270110 50.000000
3.288566 0.446122 0.270040 38.000000
3.238502 0.429197 0.266367 14.000000
3.185809 1.263525 0.234674 32.000000
3.184095 1.251555 0.234325 49.000000
3.187920 1.241780 0.234325 40.000000
3.183332 1.228760 0.233802 30.000000
3.187087 1.218988 0.233802 30.000000
3.188945 1.208497 0.233686 49.000000
3.189834 1.197655 0.233512 41.000000
3.196300 1.188907 0.233686 61.000000
3.198059 1.178405 0.233570 45.000000
3.196032 1.166535 0.233222 50.000000
3.202413 1.157742 0.233396 62.000000
3.198430 1.145220 0.232931 43.000000
3.199106 1.134402 0.232757 48.000000
3.199745 1.123590 0.232583 39.000000
3.196576 1.111473 0.232176 53.000000
3.199027 1.101336 0.232118 56.000000
3.201446 1.091195 0.232060 56.000000
3.199103 1.079453 0.231711 48.000000
3.201453 1.069317 0.231653 37.000000
3.202823 1.058864 0.231537 52.000000
3.206056 1.049033 0.231537 45.000000
3.207360 1.038577 0.231421 63.000000
3.208630 1.028123 0.231305 43.000000
3.211769 1.018274 0.231305 36.000000
3.217735 1.009312 0.231479 57.000000
3.216049 0.997957 0.231188 39.000000
3.218141 0.987792 0.231130 73.000000
3.218291 0.977045 0.230956 45.000000
3.221273 0.967167 0.230956 51.000000
3.219440 0.955859 0.230666 54.000000
3.218526 0.944853 0.230433 59.000000
3.217574 0.933862 0.230201 53.000000
3.220424 0.923986 0.230201 47.000000
3.225165 0.914646 0.230317 53.000000
3.225072 0.903939 0.230143 49.000000
3.224944 0.893241 0.229969 51.000000
3.229594 0.883870 0.230085 43.000000
3.230363 0.873437 0.229969 44.000000
3.232064 0.863265 0.229911 50.000000
3.230835 0.852326 0.229678 40.000000
3.233435 0.842410 0.229678 49.000000
3.235038 0.832238 0.229620 43.000000
3.240479 0.823046 0.229794 59.000000
3.238147 0.811887 0.229504 56.000000
3.239653 0.801709 0.229446 53.000000
3.241127 0.791529 0.229388 46.000000
3.245481 0.782049 0.229504 53.000000
3.246894 0.771858 0.229446 38.000000
3.249247 0.761893 0.229446 47.000000
3.251570 0.751921 0.229446 38.000000
3.256781 0.742607 0.229620 45.000000
3.257096 0.732174 0.229504 47.000000
3.258352 0.721962 0.229446 37.000000
3.257626 0.711324 0.229272 44.000000
3.260769 0.701536 0.229330 66.000000
3.258999 0.690702 0.229097 43.000000
3.261102 0.680700 0.229097 37.000000
3.259264 0.669888 0.228865 39.000000
3.262283 0.660084 0.228923 45.000000
3.264292 0.650072 0.228923 52.000000
3.269211 0.640630 0.229097 58.000000
3.271160 0.630597 0.229097 40.000000
3.271118 0.620187 0.228981 60.000000
3.269080 0.609417 0.228749 45.000000
3.271916 0.599564 0.228807 49.000000
3.270792 0.588993 0.228633 53.000000
3.270618 0.578608 0.228517 50.000000
3.270410 0.568229 0.228400 68.000000
3.271154 0.558026 0.228342 47.000000
3.276789 0.548646 0.228575 61.000000
3.278457 0.538590 0.228575 38.000000
3.282065 0.528847 0.228691 43.000000
3.283672 0.518775 0.228691 34.000000
3.283275 0.508394 0.228575 44.000000
3.286793 0.498617 0.228691 27.000000
3.286333 0.488238 0.228575 45.000000
3.286827 0.478010 0.228517 28.000000
3.294209 0.468767 0.228865 10.000000
3.179403 1.225264 0.193156 27.000000
3.186879 1.216931 0.193341 28.000000
3.184993 1.205025 0.193063 28.000000
3.188675 1.195248 0.193063 35.000000
3.192327 1.185459 0.193063 35.000000
3.195949 1.175660 0.193063 35.000000
3.196725 1.164822 0.192925 50.000000
3.198405 1.154331 0.192832 48.000000
3.197228 1.142830 0.192601 34.000000
3.196012 1.131347 0.192370 59.000000
3.195697 1.120214 0.192185 49.000000
3.190627 1.107453 0.191769 42.000000
3.193065 1.097334 0.191723 47.000000
3.193579 1.086567 0.191584 46.000000
3.193112 1.075487 0.191399 52.000000
3.196396 1.065686 0.191399 36.000000
3.196805 1.054934 0.191260 43.000000
3.196229 1.043880 0.191075 41.000000
3.200367 1.034377 0.191122 49.000000
3.197817 1.022725 0.190844 44.000000
3.200940 1.012910 0.190844 45.000000
3.203079 1.002786 0.190798 39.000000
3.203278 0.992067 0.190659 41.000000
3.201531 0.980770 0.190428 45.000000
3.205481 0.971233 0.190474 49.000000
3.204619 0.960246 0.190289 61.000000
3.205634 0.949841 0.190197 51.000000
3.207575 0.939721 0.190151 55.000000
3.212361 0.930432 0.190243 48.000000
3.216161 0.920848 0.190289 52.000000
3.220893 0.911521 0.190382 40.000000
3.218865 0.900288 0.190151 42.000000
3.223537 0.890942 0.190243 55.000000
3.225292 0.880785 0.190197 38.000000
3.221228 0.869062 0.189873 56.000000
3.222914 0.858917 0.189827 48.000000
3.219739 0.847498 0.189550 54.000000
3.224257 0.838119 0.189642 51.000000
3.231651 0.829467 0.189873 50.000000
3.231276 0.818811 0.189735 41.000000
3.230866 0.808165 0.189596 53.000000
3.234299 0.798489 0.189642 51.000000
3.229941 0.786905 0.189318 67.000000
3.232340 0.776992 0.189318 46.000000
3.230821 0.766149 0.189133 39.000000
3.231211 0.755777 0.189041 48.000000
3.234488 0.746085 0.189087 44.000000
3.241631 0.737268 0.189318 38.000000
3.246802 0.727976 0.189457 60.000000
3.249020 0.718012 0.189457 58.000000
3.251207 0.708040 0.189457 48.000000
3.251411 0.697643 0.189365 46.000000
3.248650 0.686630 0.189133 51.000000
3.251719 0.676864 0.189180 57.000000
3.253780 0.666884 0.189180 42.000000
3.257769 0.657294 0.189272 45.000000
3.263689 0.648076 0.189457 53.000000
3.267623 0.638444 0.189550 33.000000
3.267605 0.628038 0.189457 46.000000
3.269516 0.618011 0.189457 45.000000
3.269433 0.607611 0.189365 53.000000
3.267351 0.596859 0.189180 42.000000
3.270149 0.587008 0.189226 41.000000
3.270952 0.576799 0.189180 37.000000
3.267785 0.565907 0.188949 32.000000
3.270490 0.556047 0.188995 37.000000
3.270210 0.545681 0.188902 59.000000
3.269897 0.535322 0.188810 32.000000
3.271524 0.525288 0.188810 33.000000
3.265227 0.514003 0.188440 38.000000
3.329969 0.513753 0.191399 9.000000
3.182261 1.183058 0.150643 41.000000
3.180249 1.171217 0.150440 38.000000
3.183827 1.161455 0.150440 40.000000
3.181736 1.149644 0.150237 35.000000
3.181483 1.138531 0.150102 42.000000
3.182135 1.127764 0.150000 34.000000
3.182751 1.117003 0.149899 42.000000
3.181442 1.105594 0.149729 40.000000
3.186709 1.096478 0.149797 51.000000
3.189112 1.086374 0.149763 42.000000
3.193377 1.076904 0.149797 57.000000
3.200459 1.068367 0.149932 34.000000
3.200874 1.057603 0.149831 52.000000
3.200304 1.046536 0.149695 60.000000
3.201598 1.036097 0.149628 41.000000
3.199050 1.024442 0.149425 62.000000
3.201226 1.014321 0.149391 60.000000
3.199554 1.003001 0.149221 45.000000
3.194979 0.990813 0.148951 57.000000
3.192271 0.979248 0.148748 41.000000
3.194304 0.969159 0.148714 44.000000
3.191518 0.957632 0.148511 36.000000
3.194441 0.947836 0.148511 51.000000
3.195415 0.937469 0.148443 43.000000
3.204036 0.929331 0.148646 55.000000
3.210715 0.920598 0.148781 53.000000
3.214486 0.911016 0.148815 57.000000
3.219191 0.901689 0.148883 48.000000
3.225795 0.892874 0.149018 44.000000
3.226591 0.882446 0.148951 63.000000
3.227353 0.872022 0.148883 45.000000
3.223254 0.860313 0.148646 53.000000
3.224912 0.850165 0.148612 48.000000
3.226538 0.840016 0.148578 34.000000
3.224259 0.828869 0.148409 45.000000
3.223881 0.818236 0.148307 39.000000
3.223468 0.807613 0.148206 64.000000
3.223990 0.797240 0.148138 48.000000
3.225450 0.787109 0.148104 46.000000
3.225906 0.776742 0.148037 56.000000
3.228274 0.766841 0.148037 45.000000
3.232558 0.757389 0.148104 55.000000
3.235840 0.747693 0.148138 49.000000
3.239093 0.737984 0.148172 51.000000
3.242316 0.728262 0.148206 51.000000
3.242584 0.717880 0.148138 42.000000
3.243795 0.707715 0.148104 56.000000
3.246928 0.697970 0.148138 54.000000
3.246121 0.687385 0.148037 50.000000
3.248214 0.677422 0.148037 53.000000
3.249298 0.667253 0.148003 49.000000
3.252310 0.657479 0.148037 47.000000
3.254311 0.647498 0.148037 58.000000
3.253340 0.636935 0.147935 57.000000
3.255279 0.626951 0.147935 46.000000
3.258169 0.617147 0.147969 59.000000
3.259064 0.606965 0.147935 43.000000
3.267793 0.598223 0.148172 48.000000
3.275515 0.589255 0.148375 49.000000
3.287150 0.580942 0.148714 49.000000
3.312550 0.574953 0.149526 42.000000
3.332032 0.567808 0.150135 42.000000
3.401776 0.568951 0.152471 28.000000
3.565251 0.585035 0.158023 16.000000
3.571963 0.574888 0.158192 23.000000
3.544093 0.559256 0.157177 6.000000
3.166549 1.133093 0.108636 35.000000
3.164357 1.121367 0.108506 36.000000
3.170612 1.112648 0.108571 23.000000
3.166457 1.100287 0.108398 39.000000
3.168872 1.090242 0.108377 51.000000
3.175041 1.081483 0.108441 36.000000
3.178344 1.071737 0.108441 42.000000
3.181617 1.061981 0.108441 51.000000
3.188657 1.053471 0.108528 41.000000
3.190924 1.043372 0.108506 79.000000
3.196963 1.034502 0.108571 46.000000
3.197265 1.023773 0.108506 57.000000
3.200392 1.013960 0.108506 52.000000
3.202533 1.003837 0.108485 61.000000
3.197959 0.991635 0.108312 50.000000
3.193341 0.979471 0.108139 42.000000
3.191548 0.968217 0.108030 49.000000
3.189716 0.956983 0.107922 42.000000
3.189762 0.946338 0.107857 49.000000
3.189772 0.935702 0.107792 41.000000
3.194548 0.926470 0.107836 48.000000
3.198336 0.916940 0.107857 61.000000
3.200173 0.906851 0.107836 46.000000
3.201015 0.896488 0.107792 61.000000
3.203750 0.886664 0.107792 65.000000
3.208384 0.877359 0.107836 44.000000
3.214921 0.868556 0.107922 38.000000
3.213706 0.857656 0.107836 37.000000
3.223089 0.849578 0.107987 67.000000
3.224713 0.839434 0.107965 42.000000
3.225337 0.829038 0.107922 52.000000
3.223989 0.818154 0.107836 39.000000
3.220666 0.806800 0.107706 45.000000
3.219244 0.795954 0.107619 42.000000
3.218757 0.785361 0.107554 50.000000
3.216292 0.774311 0.107446 44.000000
3.220598 0.764903 0.107489 52.000000
3.220983 0.754562 0.107446 45.000000
3.225230 0.745127 0.107489 54.000000
3.228476 0.735451 0.107511 43.000000
3.229742 0.725323 0.107489 51.000000
3.233904 0.715844 0.107533 66.000000
3.234132 0.705492 0.107489 46.000000
3.236281 0.695567 0.107489 47.000000
3.237422 0.685427 0.107468 47.000000
3.235595 0.674674 0.107381 50.000000
3.239608 0.665147 0.107424 69.000000
3.243593 0.655602 0.107468 49.000000
3.243628 0.645257 0.107424 50.000000
3.248536 0.635880 0.107489 56.000000
3.253416 0.626478 0.107554 33.000000
3.269074 0.619103 0.107857 40.000000
3.289632 0.612555 0.108268 38.000000
3.306246 0.605165 0.108593 38.000000
3.374993 0.607077 0.110065 31.000000
3.493005 0.617288 0.112618 27.000000
3.537236 0.613934 0.113549 32.000000
3.567683 0.607959 0.114176 31.000000
3.598126 0.601802 0.114804 32.000000
3.617713 0.593681 0.115193 25.000000
3.712296 0.597542 0.117227 6.000000
3.658812 0.577406 0.116016 16.000000
3.120969 1.083979 0.066596 13.000000
3.175344 1.091952 0.067096 30.000000
3.177733 1.081883 0.067086 51.000000
3.179142 1.071490 0.067068 33.000000
3.186208 1.062997 0.067105 53.000000
3.191354 1.053844 0.067123 59.000000
3.198374 1.045290 0.067160 62.000000
3.202518 1.035780 0.067170 55.000000
3.203775 1.025341 0.067151 53.000000
3.204999 1.014904 0.067133 53.000000
3.208098 1.005066 0.067133 58.000000
3.204480 0.993148 0.067068 45.000000
3.205600 0.982726 0.067049 41.000000
3.199030 0.969986 0.066957 51.000000
3.196244 0.958444 0.066901 42.000000
3.196293 0.947781 0.066874 45.000000
3.193428 0.936284 0.066818 39.000000
3.193404 0.925647 0.066790 49.000000
3.198151 0.916396 0.066809 52.000000
3.199986 0.906308 0.066800 40.000000
3.206603 0.897564 0.066837 53.000000
3.209342 0.887722 0.066837 59.000000
3.213015 0.878135 0.066846 49.000000
3.220520 0.869576 0.066892 51.000000
3.221241 0.859176 0.066874 58.000000
3.220961 0.848526 0.066846 44.000000
3.224517 0.838892 0.066855 63.000000
3.226106 0.828746 0.066846 40.000000
3.224757 0.817862 0.066809 62.000000
3.225311 0.807479 0.066790 51.000000
3.220006 0.795662 0.066716 42.000000
3.216603 0.784359 0.066661 55.000000
3.218995 0.774487 0.066661 51.000000
3.216491 0.763454 0.066615 49.000000
3.212002 0.751987 0.066550 53.000000
3.214294 0.742129 0.066550 52.000000
3.215580 0.732043 0.066541 50.000000
3.217811 0.722174 0.066541 45.000000
3.229776 0.714457 0.066633 54.000000
3.231952 0.704545 0.066633 55.000000
3.240942 0.696095 0.066698 60.000000
3.247954 0.687183 0.066744 37.000000
3.247111 0.676604 0.066716 36.000000
3.248192 0.666438 0.066707 47.000000
3.255122 0.657459 0.066753 48.000000
3.269874 0.650002 0.066874 38.000000
3.282648 0.642077 0.066975 43.000000
3.308170 0.636535 0.067197 53.000000
3.410326 0.645335 0.068141 25.000000
3.465378 0.644741 0.068640 27.000000
3.512588 0.642376 0.069066 37.000000
3.544068 0.636899 0.069343 48.000000
3.564716 0.629324 0.069519 47.000000
3.574512 0.619751 0.069593 38.000000
3.590198 0.611129 0.069723 40.000000
3.597974 0.601099 0.069778 37.000000
3.602761 0.590543 0.069806 30.000000
3.616404 0.581391 0.069917 21.000000
3.150209 1.073015 0.025196 25.000000
3.178120 1.071661 0.025110 66.000000
3.178547 1.060955 0.025120 54.000000
3.187484 1.053083 0.025100 57.000000
3.189749 1.042988 0.025104 45.000000
3.191983 1.032889 0.025107 63.000000
3.192280 1.022175 0.025117 63.000000
3.196354 1.012679 0.025113 35.000000
3.192767 1.000772 0.025137 41.000000
3.196777 0.991268 0.025133 36.000000
3.199804 0.981456 0.025133 27.000000
3.188447 0.967275 0.025183 53.000000
3.196188 0.958927 0.025167 47.000000
3.196239 0.948262 0.025176 34.000000
3.194336 0.937043 0.025193 54.000000
3.196236 0.926960 0.025196 55.000000
3.199064 0.917149 0.025196 39.000000
3.198977 0.906511 0.025206 42.000000
3.201743 0.896693 0.025206 47.000000
3.201588 0.886065 0.025216 47.000000
3.199469 0.874918 0.025233 52.000000
3.200207 0.864575 0.025239 65.000000
3.204777 0.855269 0.025233 52.000000
3.204485 0.844668 0.025243 67.000000
3.208997 0.835337 0.025236 53.000000
3.212513 0.825737 0.025233 51.000000
3.215031 0.815878 0.025233 70.000000
3.219459 0.806497 0.025226 43.000000
3.217065 0.795414 0.025243 51.000000
3.214633 0.784354 0.025259 54.000000
3.217997 0.774722 0.025256 37.000000
3.218412 0.764383 0.025263 57.000000
3.215875 0.753363 0.025279 61.000000
3.217197 0.743268 0.025283 45.000000
3.222387 0.734062 0.025273 43.000000
3.224623 0.724172 0.025273 44.000000
3.230735 0.715141 0.025259 29.000000
3.228029 0.704159 0.025276 40.000000
3.236040 0.695515 0.025256 49.000000
3.259680 0.690148 0.025183 34.000000
3.268634 0.681576 0.025160 33.000000
3.309889 0.679603 0.025027 30.000000
3.351162 0.677384 0.024895 24.000000
3.457180 0.687817 0.024543 44.000000
3.501470 0.685483 0.024401 59.000000
3.491774 0.672464 0.024440 38.000000
3.516417 0.666036 0.024364 38.000000
3.538105 0.658912 0.024298 46.000000
3.536175 0.647333 0.024311 34.000000
3.544049 0.637545 0.024291 70.000000
3.562728 0.629633 0.024235 45.000000
3.561687 0.618186 0.024245 52.000000
3.604968 0.614325 0.024105 18.000000
3.589083 0.600287 0.024165 49.000000
3.603736 0.591382 0.024122 32.000000
3.619354 0.582553 0.024076 34.000000
3.627051 0.572383 0.024056 17.000000
3.194134 1.001912 -0.016160 32.000000
3.186688 0.988849 -0.015987 44.000000
3.188751 0.978775 -0.015971 46.000000
3.192696 0.969277 -0.015987 46.000000
3.196612 0.959765 -0.016003 39.000000
3.194748 0.948531 -0.015924 42.000000
3.192847 0.937318 -0.015846 29.000000
3.195707 0.927518 -0.015846 59.000000
3.196615 0.917158 -0.015814 60.000000
3.197490 0.906801 -0.015783 48.000000
3.199294 0.896717 -0.015767 57.000000
3.199140 0.886098 -0.015720 64.000000
3.198950 0.875487 -0.015673 53.000000
3.200655 0.865408 -0.015657 41.000000
3.201363 0.855069 -0.015626 38.000000
3.206872 0.846008 -0.015673 61.000000
3.209452 0.836165 -0.015673 46.000000
3.209097 0.825568 -0.015626 68.000000
3.211615 0.815718 -0.015626 53.000000
3.217012 0.806591 -0.015673 48.000000
3.216560 0.795997 -0.015626 52.000000
3.213159 0.784702 -0.015532 59.000000
3.213607 0.774373 -0.015500 58.000000
3.218886 0.765203 -0.015547 35.000000
3.218298 0.754640 -0.015500 55.000000
3.226443 0.746114 -0.015594 52.000000
3.231642 0.736878 -0.015641 55.000000
3.239740 0.728275 -0.015736 48.000000
3.264412 0.723305 -0.016097 41.000000
3.273454 0.714778 -0.016207 57.000000
3.292250 0.708305 -0.016474 42.000000
3.391247 0.718714 -0.018029 45.000000
3.458037 0.721783 -0.019066 44.000000
3.487659 0.716803 -0.019505 48.000000
3.502582 0.708676 -0.019710 56.000000
3.516507 0.700269 -0.019898 52.000000
3.522564 0.690246 -0.019961 47.000000
3.524666 0.679436 -0.019961 49.000000
3.525751 0.668433 -0.019945 55.000000
3.530734 0.658162 -0.019992 47.000000
3.530770 0.646967 -0.019961 80.000000
3.548483 0.638965 -0.020212 49.000000
3.554365 0.628772 -0.020275 58.000000
3.570069 0.620259 -0.020495 39.000000
3.584769 0.611488 -0.020699 32.000000
3.600434 0.602797 -0.020919 50.000000
3.614107 0.593692 -0.021108 53.000000
3.621834 0.583555 -0.021202 36.000000
3.641385 0.575247 -0.021485 33.000000
3.630287 0.562085 -0.021280 11.000000
3.174877 0.952525 -0.055391 31.000000
3.175867 0.942211 -0.055336 36.000000
3.178743 0.932463 -0.055336 52.000000
3.183509 0.923264 -0.055391 27.000000
3.182483 0.912389 -0.055280 41.000000
3.184306 0.902348 -0.055252 41.000000
3.187059 0.892575 -0.055252 49.000000
3.186893 0.881992 -0.055169 48.000000
3.189584 0.872211 -0.055169 47.000000
3.192245 0.862421 -0.055169 45.000000
3.191012 0.851591 -0.055058 45.000000
3.191677 0.841287 -0.055003 60.000000
3.192308 0.830986 -0.054947 42.000000
3.190003 0.819943 -0.054808 44.000000
3.193472 0.810398 -0.054836 48.000000
3.195943 0.800597 -0.054836 54.000000
3.197414 0.790548 -0.054808 43.000000
3.203709 0.781684 -0.054919 52.000000
3.207063 0.772086 -0.054947 47.000000
3.223032 0.765482 -0.055336 40.000000
3.257480 0.763125 -0.056251 31.000000
3.255910 0.752226 -0.056140 37.000000
3.311804 0.754464 -0.057666 28.000000
3.349212 0.752198 -0.058665 24.000000
3.404203 0.753604 -0.060164 38.000000
3.423101 0.746784 -0.060635 38.000000
3.457624 0.743222 -0.061551 53.000000
3.479445 0.736758 -0.062106 65.000000
3.481689 0.726080 -0.062106 51.000000
3.495650 0.717811 -0.062439 59.000000
3.499795 0.707480 -0.062494 37.000000
3.504891 0.697326 -0.062578 44.000000
3.511918 0.687532 -0.062716 39.000000
3.515974 0.677133 -0.062772 49.000000
3.520981 0.666902 -0.062855 75.000000
3.531854 0.657746 -0.063105 49.000000
3.541722 0.648350 -0.063327 52.000000
3.553532 0.639254 -0.063604 31.000000
3.559413 0.629046 -0.063715 31.000000
3.572160 0.620007 -0.064020 22.000000
3.580942 0.610223 -0.064215 49.000000
3.589699 0.600390 -0.064409 48.000000
3.588564 0.588888 -0.064326 32.000000
3.597263 0.578990 -0.064520 28.000000
3.604946 0.568887 -0.064686 17.000000
3.183761 0.902909 -0.096677 43.000000
3.196137 0.895833 -0.097080 36.000000
3.192130 0.884157 -0.096798 39.000000
3.193863 0.874096 -0.096758 45.000000
3.193636 0.863511 -0.096637 46.000000
3.197236 0.853967 -0.096677 41.000000
3.195976 0.843135 -0.096516 54.000000
3.192746 0.831815 -0.096274 50.000000
3.189477 0.820523 -0.096032 45.000000
3.191979 0.810734 -0.096032 40.000000
3.211897 0.805309 -0.096758 30.000000
3.202713 0.792572 -0.096274 53.000000
3.230368 0.788903 -0.097322 37.000000
3.277458 0.789751 -0.099176 31.000000
3.335277 0.792858 -0.101473 30.000000
3.393145 0.795617 -0.103771 35.000000
3.427696 0.792628 -0.105101 45.000000
3.441802 0.784773 -0.105585 56.000000
3.460766 0.777933 -0.106270 52.000000
3.468014 0.768392 -0.106471 48.000000
3.469379 0.757536 -0.106431 51.000000
3.471687 0.746889 -0.106431 49.000000
3.471030 0.735613 -0.106310 44.000000
3.472292 0.724756 -0.106270 39.000000
3.482329 0.715709 -0.106592 42.000000
3.488426 0.705814 -0.106754 45.000000
3.498415 0.696668 -0.107076 33.000000
3.509361 0.687660 -0.107439 36.000000
3.515378 0.677647 -0.107600 35.000000
3.520386 0.667417 -0.107721 34.000000
3.526346 0.657345 -0.107882 37.000000
3.529329 0.646703 -0.107922 37.000000
3.531296 0.635872 -0.107922 45.000000
3.542086 0.626601 -0.108285 25.000000
3.552852 0.617270 -0.108648 26.000000
3.563594 0.607878 -0.109011 42.000000
3.576283 0.598756 -0.109454 33.000000
3.585004 0.588914 -0.109736 33.000000
3.576930 0.576324 -0.109333 28.000000
3.554007 0.561452 -0.108325 10.000000
3.183628 0.858903 -0.135806 45.000000
3.177564 0.846814 -0.135335 25.000000
3.200426 0.842407 -0.136434 41.000000
3.212660 0.835100 -0.136957 36.000000
3.227780 0.828472 -0.137638 44.000000
3.252569 0.824215 -0.138842 39.000000
3.328703 0.832675 -0.142819 26.000000
3.394256 0.838039 -0.146221 27.000000
3.433677 0.836617 -0.148210 46.000000
3.451762 0.829818 -0.149047 47.000000
3.464008 0.821532 -0.149570 56.000000
3.469429 0.811584 -0.149727 58.000000
3.471902 0.800936 -0.149727 51.000000
3.472396 0.789837 -0.149623 40.000000
3.480649 0.780494 -0.149937 65.000000
3.482052 0.769596 -0.149884 69.000000
3.482445 0.758483 -0.149780 29.000000
3.486709 0.748216 -0.149884 37.000000
3.480195 0.735653 -0.149413 46.000000
3.483413 0.725177 -0.149466 54.000000
3.485621 0.714486 -0.149466 42.000000
3.483881 0.702998 -0.149256 55.000000
3.490919 0.693280 -0.149518 38.000000
