ply
format ascii 1.0
element vertex 1292
property float x
property float y
property float z
property float intensity
end_header
3.197560 0.656499 0.746248 63.000000
3.200516 0.646879 0.746462 44.000000
3.207276 0.638012 0.747530 39.000000
3.213053 0.628921 0.748384 39.000000
3.217845 0.619616 0.749024 57.000000
3.221651 0.610105 0.749452 43.000000
3.225428 0.600577 0.749879 30.000000
3.224373 0.590150 0.749238 39.000000
3.233860 0.581641 0.750946 35.000000
3.230819 0.570865 0.749879 35.000000
3.233518 0.561118 0.750092 48.000000
3.234261 0.551031 0.749879 50.000000
3.238827 0.541590 0.750519 39.000000
3.237581 0.531175 0.749879 46.000000
3.240160 0.521395 0.750092 45.000000
3.243674 0.511757 0.750519 50.000000
3.251022 0.502701 0.751800 48.000000
3.256412 0.493312 0.752655 41.000000
3.258876 0.483463 0.752868 39.000000
3.260344 0.473462 0.752868 40.000000
3.263716 0.463733 0.753295 47.000000
3.265123 0.453718 0.753295 50.000000
3.267468 0.443830 0.753509 37.000000
3.269783 0.433933 0.753722 47.000000
3.271098 0.423899 0.753722 52.000000
3.273353 0.413984 0.753936 50.000000
3.276546 0.404180 0.754363 50.000000
3.280681 0.394476 0.755004 65.000000
3.283816 0.384638 0.755431 36.000000
3.283039 0.374339 0.755004 52.000000
3.283201 0.364157 0.754790 60.000000
3.285275 0.354188 0.755004 52.000000
3.287317 0.344209 0.755217 53.000000
3.285442 0.333825 0.754576 61.000000
3.286451 0.323744 0.754576 61.000000
3.289374 0.313846 0.755004 49.000000
3.290321 0.303753 0.755004 41.000000
3.291237 0.293657 0.755004 46.000000
3.292123 0.283558 0.755004 40.000000
3.282268 0.272563 0.752655 14.000000
3.096932 1.088104 0.708524 37.000000
3.100256 1.078598 0.708524 42.000000
3.101698 1.068444 0.708121 35.000000
3.097545 1.056394 0.706509 45.000000
3.101699 1.047199 0.706710 36.000000
3.106755 1.038299 0.707113 50.000000
3.111786 1.029378 0.707516 46.000000
3.110275 1.018303 0.706509 51.000000
3.112453 1.008454 0.706307 52.000000
3.112734 0.998004 0.705702 62.000000
3.117648 0.989042 0.706105 54.000000
3.119733 0.979179 0.705904 48.000000
3.119917 0.968732 0.705299 58.000000
3.122874 0.959156 0.705299 55.000000
3.130488 0.950993 0.706307 44.000000
3.131515 0.940821 0.705904 51.000000
3.134386 0.931210 0.705904 57.000000
3.136288 0.921313 0.705702 49.000000
3.137219 0.911141 0.705299 59.000000
3.140941 0.901782 0.705501 65.000000
3.145578 0.892676 0.705904 56.000000
3.149245 0.883285 0.706105 48.000000
3.150052 0.873096 0.705702 51.000000
3.155550 0.864204 0.706307 69.000000
3.155350 0.853752 0.705702 36.000000
3.159847 0.844573 0.706105 54.000000
3.158635 0.833875 0.705299 41.000000
3.160230 0.823933 0.705097 53.000000
3.161794 0.813990 0.704896 50.000000
3.163328 0.804045 0.704694 50.000000
3.159129 0.792668 0.703283 58.000000
3.161546 0.782972 0.703283 53.000000
3.162982 0.773037 0.703081 45.000000
3.166291 0.763559 0.703283 56.000000
3.171477 0.754521 0.703888 60.000000
3.171870 0.744340 0.703485 54.000000
3.178910 0.735709 0.704493 57.000000
3.189747 0.727913 0.706307 38.000000
3.191965 0.718124 0.706307 56.000000
3.195109 0.708539 0.706509 47.000000
3.196311 0.698525 0.706307 43.000000
3.201312 0.689333 0.706912 37.000000
3.203412 0.679509 0.706912 50.000000
3.205481 0.669678 0.706912 39.000000
3.210399 0.660432 0.707516 55.000000
3.215290 0.651162 0.708121 40.000000
3.222076 0.642252 0.709129 44.000000
3.224992 0.632552 0.709331 34.000000
3.228841 0.623026 0.709734 45.000000
3.231699 0.613299 0.709936 40.000000
3.230677 0.602843 0.709331 49.000000
3.233475 0.593105 0.709532 47.000000
3.238171 0.583703 0.710137 51.000000
3.238982 0.573595 0.709936 47.000000
3.243622 0.564159 0.710540 53.000000
3.245337 0.554205 0.710540 48.000000
3.247022 0.544246 0.710540 37.000000
3.247710 0.534122 0.710339 51.000000
3.246433 0.523688 0.709734 39.000000
3.248991 0.513879 0.709936 45.000000
3.253457 0.504359 0.710540 47.000000
3.256925 0.494669 0.710944 47.000000
3.260365 0.484962 0.711347 48.000000
3.263776 0.475239 0.711750 38.000000
3.267158 0.465500 0.712153 47.000000
3.272452 0.456015 0.712959 46.000000
3.273835 0.445973 0.712959 37.000000
3.279072 0.436443 0.713766 48.000000
3.282338 0.426633 0.714169 44.000000
3.286547 0.416931 0.714774 58.000000
3.287810 0.406846 0.714774 32.000000
3.292933 0.397226 0.715580 48.000000
3.292190 0.386893 0.715177 43.000000
3.292388 0.376680 0.714975 46.000000
3.292555 0.366469 0.714774 59.000000
3.296586 0.356681 0.715379 43.000000
3.300586 0.346873 0.715983 46.000000
3.303584 0.336943 0.716386 42.000000
3.304602 0.326807 0.716386 51.000000
3.310464 0.317133 0.717394 35.000000
3.313373 0.307156 0.717798 45.000000
3.316250 0.297164 0.718201 30.000000
3.315195 0.286820 0.717798 39.000000
3.324844 0.277379 0.719612 8.000000
3.121911 1.095538 0.675041 37.000000
3.116912 1.083052 0.673327 38.000000
3.116508 1.072206 0.672565 36.000000
3.117924 1.062006 0.672184 32.000000
3.112797 1.049609 0.670470 48.000000
3.114140 1.039432 0.670089 60.000000
3.116382 1.029565 0.669898 55.000000
3.113928 1.018167 0.668756 52.000000
3.119839 1.009516 0.669327 65.000000
3.125726 1.000839 0.669898 43.000000
3.127846 0.990948 0.669708 43.000000
3.129935 0.981053 0.669518 56.000000
3.130117 0.970573 0.668946 38.000000
3.131204 0.960389 0.668565 44.000000
3.133196 0.950492 0.668375 58.000000
3.137038 0.941158 0.668565 56.000000
3.138028 0.930970 0.668184 43.000000
3.139928 0.921062 0.667994 52.000000
3.146509 0.912519 0.668756 40.000000
3.151181 0.903403 0.669137 54.000000
3.151105 0.892927 0.668565 55.000000
3.151939 0.882726 0.668184 66.000000
3.151794 0.872265 0.667613 55.000000
3.152562 0.862073 0.667232 42.000000
3.155192 0.852397 0.667232 61.000000
3.157792 0.842713 0.667232 67.000000
3.159413 0.832770 0.667041 46.000000
3.167653 0.824559 0.668184 60.000000
3.175872 0.816305 0.669327 54.000000
3.181216 0.807284 0.669898 66.000000
3.183678 0.797520 0.669898 58.000000
3.184204 0.787277 0.669518 43.000000
3.187558 0.777737 0.669708 75.000000
3.186111 0.767034 0.668946 66.000000
3.183674 0.756119 0.667994 68.000000
3.185024 0.746124 0.667803 64.000000
3.189210 0.736792 0.668184 55.000000
3.197198 0.728314 0.669327 52.000000
3.202291 0.719148 0.669898 71.000000
3.209275 0.710383 0.670851 41.000000
3.212398 0.700743 0.671041 45.000000
3.220291 0.692124 0.672184 42.000000
3.218558 0.681427 0.671422 33.000000
3.216789 0.670746 0.670660 51.000000
3.219794 0.661072 0.670851 37.000000
3.222769 0.651385 0.671041 51.000000
3.224752 0.641495 0.671041 61.000000
3.231521 0.632543 0.671994 50.000000
3.229591 0.621882 0.671232 42.000000
3.234377 0.612520 0.671803 52.000000
3.234311 0.602234 0.671422 36.000000
3.234212 0.591954 0.671041 50.000000
3.237946 0.582377 0.671422 60.000000
3.238750 0.572269 0.671232 42.000000
3.242425 0.562667 0.671613 48.000000
3.249942 0.553708 0.672755 33.000000
3.249689 0.543410 0.672375 60.000000
3.253279 0.533756 0.672755 42.000000
3.254901 0.523773 0.672755 54.000000
3.255523 0.513631 0.672565 45.000000
3.259994 0.504092 0.673136 53.000000
3.260554 0.493941 0.672946 47.000000
3.264967 0.484368 0.673517 63.000000
3.268381 0.474632 0.673898 52.000000
3.265934 0.464049 0.673136 59.000000
3.271232 0.454569 0.673898 43.000000
3.270665 0.444266 0.673517 53.000000
3.273959 0.434488 0.673898 59.000000
3.281118 0.425201 0.675041 48.000000
3.282407 0.415133 0.675041 56.000000
3.288537 0.405663 0.675993 60.000000
3.297563 0.396512 0.677517 53.000000
3.299738 0.386508 0.677708 51.000000
3.304810 0.376829 0.678469 44.000000
3.306926 0.366797 0.678660 58.000000
3.309988 0.356861 0.679041 56.000000
3.316925 0.347320 0.680184 60.000000
3.320905 0.337441 0.680755 46.000000
3.323879 0.327444 0.681136 47.000000
3.325845 0.317338 0.681326 43.000000
3.328758 0.307315 0.681707 49.000000
3.327729 0.296925 0.681326 44.000000
3.324712 0.286376 0.680565 39.000000
3.316771 0.275441 0.678850 18.000000
3.104969 1.080237 0.630161 28.000000
3.108269 1.070706 0.630161 37.000000
3.109677 1.060530 0.629804 47.000000
3.111051 1.050356 0.629447 34.000000
3.117058 1.041741 0.629982 45.000000
3.117437 1.031247 0.629447 42.000000
3.120586 1.021678 0.629447 54.000000
3.123706 1.012099 0.629447 34.000000
3.123986 1.001610 0.628911 45.000000
3.127044 0.992021 0.628911 39.000000
3.132889 0.983306 0.629447 45.000000
3.134012 0.973107 0.629089 47.000000
3.138864 0.964065 0.629447 32.000000
3.142748 0.954716 0.629625 50.000000
3.144720 0.944787 0.629447 53.000000
3.152320 0.936535 0.630340 52.000000
3.154234 0.926582 0.630161 35.000000
3.153282 0.915804 0.629447 49.000000
3.156077 0.906125 0.629447 48.000000
3.158842 0.896438 0.629447 56.000000
3.161577 0.886743 0.629447 43.000000
3.168076 0.878090 0.630161 57.000000
3.167908 0.867587 0.629625 48.000000
3.169605 0.857607 0.629447 50.000000
3.175073 0.848641 0.629982 46.000000
3.180516 0.839649 0.630518 39.000000
3.183076 0.829887 0.630518 46.000000
3.191325 0.821589 0.631590 44.000000
3.191923 0.811310 0.631233 33.000000
3.202032 0.803428 0.632662 49.000000
3.206392 0.794073 0.633019 45.000000
3.205946 0.783532 0.632483 50.000000
3.208335 0.773692 0.632483 49.000000
3.209736 0.763618 0.632305 69.000000
3.211106 0.753543 0.632126 45.000000
3.216278 0.744353 0.632662 41.000000
3.215669 0.733825 0.632126 50.000000
3.219825 0.724388 0.632483 45.000000
3.222032 0.714506 0.632483 41.000000
3.222286 0.704198 0.632126 46.000000
3.228279 0.695137 0.632840 57.000000
3.229434 0.685025 0.632662 35.000000
3.231521 0.675114 0.632662 44.000000
3.234540 0.665395 0.632840 31.000000
3.238495 0.655859 0.633198 30.000000
3.239527 0.645728 0.633019 43.000000
3.243424 0.636165 0.633376 49.000000
3.240530 0.625280 0.632483 37.000000
3.244367 0.615702 0.632840 40.000000
3.248175 0.606106 0.633198 44.000000
3.250019 0.596138 0.633198 43.000000
3.254738 0.586687 0.633734 49.000000
3.255553 0.576528 0.633555 44.000000
3.254399 0.566032 0.633019 43.000000
3.259030 0.556541 0.633555 39.000000
3.260722 0.546540 0.633555 36.000000
3.265296 0.537012 0.634091 31.000000
3.267900 0.527149 0.634270 49.000000
3.271445 0.517428 0.634627 47.000000
3.273989 0.507539 0.634805 36.000000
3.277477 0.497788 0.635163 46.000000
3.283854 0.488453 0.636056 44.000000
3.287285 0.478660 0.636413 46.000000
3.287764 0.468433 0.636234 39.000000
3.293084 0.458887 0.636949 49.000000
3.294476 0.448782 0.636949 51.000000
3.300714 0.439321 0.637842 46.000000
3.302046 0.429193 0.637842 57.000000
3.303347 0.419060 0.637842 43.000000
3.309500 0.409527 0.638735 36.000000
3.312695 0.399607 0.639093 43.000000
3.315859 0.389672 0.639450 42.000000
3.320949 0.379944 0.640164 44.000000
3.322100 0.369753 0.640164 38.000000
3.326153 0.359877 0.640700 30.000000
3.333112 0.350287 0.641772 54.000000
3.328298 0.339461 0.640700 45.000000
3.332262 0.329539 0.641236 56.000000
3.333257 0.319314 0.641236 41.000000
3.334221 0.309086 0.641236 28.000000
3.340053 0.299294 0.642129 35.000000
3.334094 0.288452 0.640879 31.000000
3.339866 0.278631 0.641772 9.000000
3.102477 1.078030 0.589621 46.000000
3.112295 1.070755 0.590790 34.000000
3.114632 1.060883 0.590623 40.000000
3.116004 1.050692 0.590289 53.000000
3.124823 1.043002 0.591291 45.000000
3.124264 1.032172 0.590623 50.000000
3.132102 1.024116 0.591458 53.000000
3.138980 1.015717 0.592125 47.000000
3.139265 1.005179 0.591625 45.000000
3.147973 0.997332 0.592626 43.000000
3.147255 0.986489 0.591958 58.000000
3.151209 0.977121 0.592125 56.000000
3.157019 0.968317 0.592626 41.000000
3.153371 0.956621 0.591458 57.000000
3.157235 0.947225 0.591625 57.000000
3.160127 0.937535 0.591625 53.000000
3.157312 0.926168 0.590623 58.000000
3.160138 0.916477 0.590623 54.000000
3.161988 0.906506 0.590456 56.000000
3.165702 0.897070 0.590623 52.000000
3.169389 0.887619 0.590790 62.000000
3.175898 0.878945 0.591458 47.000000
3.178580 0.869197 0.591458 58.000000
3.180279 0.859184 0.591291 46.000000
3.185758 0.850187 0.591792 39.000000
3.190258 0.840912 0.592125 43.000000
3.192823 0.831121 0.592125 49.000000
3.198222 0.822059 0.592626 54.000000
3.202640 0.812728 0.592960 50.000000
3.208944 0.803859 0.593628 55.000000
3.213309 0.794484 0.593962 45.000000
3.216689 0.784856 0.594129 44.000000
3.218124 0.774753 0.593962 46.000000
3.218567 0.764419 0.593628 50.000000
3.219937 0.754316 0.593461 44.000000
3.221276 0.744212 0.593294 63.000000
3.219698 0.733448 0.592626 51.000000
3.221934 0.723567 0.592626 51.000000
3.226063 0.714106 0.592960 51.000000
3.227276 0.703994 0.592793 66.000000
3.234240 0.695127 0.593628 50.000000
3.241180 0.686225 0.594463 52.000000
3.242305 0.676076 0.594296 55.000000
3.247261 0.666721 0.594796 38.000000
3.249291 0.656756 0.594796 68.000000
3.249357 0.646399 0.594463 37.000000
3.253260 0.636806 0.594796 51.000000
3.251326 0.626075 0.594129 46.000000
3.247419 0.614995 0.593127 48.000000
3.251229 0.605390 0.593461 54.000000
3.252101 0.595235 0.593294 41.000000
3.258764 0.586129 0.594129 36.000000
3.258605 0.575785 0.593795 50.000000
3.262299 0.566123 0.594129 40.000000
3.269852 0.557107 0.595130 44.000000
3.276408 0.547888 0.595965 53.000000
3.281965 0.538473 0.596633 51.000000
3.286522 0.528873 0.597134 29.000000
3.287155 0.518633 0.596967 52.000000
3.287756 0.508395 0.596800 40.000000
3.289300 0.498306 0.596800 50.000000
3.288863 0.487922 0.596466 40.000000
3.293272 0.478256 0.596967 46.000000
3.298628 0.468706 0.597634 38.000000
3.302980 0.458992 0.598135 46.000000
3.307303 0.449256 0.598636 53.000000
3.315508 0.440017 0.599805 50.000000
3.321731 0.430479 0.600639 43.000000
3.324992 0.420534 0.600973 50.000000
3.324309 0.410089 0.600639 55.000000
3.323594 0.399652 0.600305 43.000000
3.323826 0.389338 0.600139 64.000000
3.325004 0.379139 0.600139 49.000000
3.326152 0.368936 0.600139 47.000000
3.328248 0.358836 0.600305 37.000000
3.330314 0.348727 0.600472 41.000000
3.332349 0.338608 0.600639 50.000000
3.334353 0.328480 0.600806 41.000000
3.336327 0.318342 0.600973 37.000000
3.337288 0.308105 0.600973 43.000000
3.342146 0.298217 0.601641 38.000000
3.341080 0.287792 0.601307 44.000000
3.348826 0.278114 0.602476 27.000000
3.361456 0.268786 0.604479 28.000000
3.347520 0.257333 0.601975 17.000000
3.128415 1.098551 0.553519 35.000000
3.128971 1.087975 0.553054 38.000000
3.136030 1.079656 0.553674 41.000000
3.142133 1.070986 0.554138 41.000000
3.143532 1.060709 0.553828 51.000000
3.146771 1.051060 0.553828 43.000000
3.147167 1.040471 0.553364 39.000000
3.148467 1.030197 0.553054 42.000000
3.151612 1.020532 0.553054 47.000000
3.150965 1.009653 0.552435 53.000000
3.152164 0.999384 0.552125 53.000000
3.153330 0.989118 0.551815 59.000000
3.157293 0.979732 0.551970 53.000000
3.161229 0.970330 0.552125 52.000000
3.166081 0.961201 0.552435 26.000000
3.168069 0.951199 0.552280 39.000000
3.174761 0.942599 0.552899 42.000000
3.177638 0.932855 0.552899 53.000000
3.178587 0.922551 0.552589 44.000000
3.183302 0.913340 0.552899 40.000000
3.183238 0.902761 0.552435 56.000000
3.185992 0.892991 0.552435 42.000000
3.189669 0.883476 0.552589 57.000000
3.190459 0.873164 0.552280 55.000000
3.189308 0.862341 0.551660 34.000000
3.198620 0.854336 0.552744 52.000000
3.201226 0.844519 0.552744 51.000000
3.207626 0.835690 0.553364 46.000000
3.213045 0.826583 0.553828 52.000000
3.215566 0.816721 0.553828 34.000000
3.219973 0.807333 0.554138 63.000000
3.225312 0.798162 0.554603 52.000000
3.225826 0.787794 0.554293 49.000000
3.228227 0.777894 0.554293 40.000000
3.231560 0.768215 0.554448 55.000000
3.234864 0.758522 0.554603 49.000000
3.236213 0.748372 0.554448 52.000000
3.237530 0.738220 0.554293 42.000000
3.238816 0.728067 0.554138 44.000000
3.241035 0.718127 0.554138 44.000000
3.245153 0.708602 0.554448 40.000000
3.247312 0.698643 0.554448 47.000000
3.251373 0.689086 0.554758 55.000000
3.253472 0.679108 0.554758 55.000000
3.257475 0.669521 0.555067 45.000000
3.260482 0.659720 0.555222 36.000000
3.262491 0.649713 0.555222 50.000000
3.264469 0.639701 0.555222 44.000000
3.266416 0.629683 0.555222 51.000000
3.267362 0.619475 0.555067 59.000000
3.272161 0.609991 0.555532 31.000000
3.274017 0.599949 0.555532 54.000000
3.278759 0.590427 0.555997 50.000000
3.284446 0.581053 0.556616 39.000000
3.285240 0.570804 0.556461 41.000000
3.288924 0.561055 0.556771 37.000000
3.295501 0.551777 0.557546 46.000000
3.297179 0.541664 0.557546 48.000000
3.300776 0.531860 0.557855 65.000000
3.302392 0.521731 0.557855 46.000000
3.301048 0.511143 0.557391 42.000000
3.305531 0.501458 0.557855 45.000000
3.305099 0.491024 0.557546 47.000000
3.306590 0.480882 0.557546 40.000000
3.310984 0.471152 0.558010 39.000000
3.311436 0.460856 0.557855 42.000000
3.311855 0.450561 0.557701 39.000000
3.317139 0.440919 0.558320 40.000000
3.317496 0.430613 0.558165 48.000000
3.322722 0.420929 0.558785 44.000000
3.323018 0.410612 0.558630 56.000000
3.323281 0.400297 0.558475 37.000000
3.328418 0.390560 0.559094 55.000000
3.327638 0.380123 0.558785 38.000000
3.328788 0.369912 0.558785 43.000000
3.330890 0.359803 0.558940 66.000000
3.331978 0.349583 0.558940 51.000000
3.338932 0.339958 0.559869 55.000000
3.344875 0.330198 0.560643 36.000000
3.346856 0.320028 0.560798 57.000000
3.356676 0.310577 0.562192 44.000000
3.362532 0.300717 0.562967 58.000000
3.366392 0.290654 0.563431 48.000000
3.371206 0.280652 0.564051 57.000000
3.375990 0.270623 0.564670 67.000000
3.376805 0.260265 0.564670 58.000000
3.365764 0.249030 0.562812 26.000000
3.351731 0.237656 0.560488 8.000000
3.108291 1.102085 0.510311 16.000000
3.134067 1.100420 0.513742 33.000000
3.142101 1.092427 0.514457 36.000000
3.148245 1.083749 0.514886 40.000000
3.151556 1.074086 0.514886 47.000000
3.149210 1.062511 0.514028 68.000000
3.151516 1.052531 0.513885 61.000000
3.158489 1.044101 0.514457 54.000000
3.160737 1.034098 0.514314 45.000000
3.162011 1.023785 0.514028 52.000000
3.162310 1.013173 0.513599 43.000000
3.162574 1.002568 0.513170 60.000000
3.165634 0.992861 0.513170 52.000000
3.167721 0.982850 0.513027 47.000000
3.168829 0.972546 0.512741 41.000000
3.172745 0.963107 0.512884 49.000000
3.174736 0.953084 0.512741 47.000000
3.185235 0.945596 0.513885 25.000000
3.183373 0.934423 0.513170 48.000000
3.183374 0.923824 0.512741 40.000000
3.186193 0.914053 0.512741 40.000000
3.184222 0.902922 0.512027 42.000000
3.190789 0.894219 0.512599 48.000000
3.193517 0.884425 0.512599 56.000000
3.199079 0.875408 0.513027 52.000000
3.211303 0.868176 0.514457 30.000000
3.208215 0.856785 0.513599 38.000000
3.216570 0.848455 0.514457 51.000000
3.216285 0.837833 0.514028 62.000000
3.215006 0.826974 0.513456 47.000000
3.218487 0.817351 0.513599 45.000000
3.220020 0.807232 0.513456 52.000000
3.218639 0.796397 0.512884 52.000000
3.224912 0.787459 0.513456 50.000000
3.229237 0.778026 0.513742 53.000000
3.232572 0.768344 0.513885 43.000000
3.235878 0.758649 0.514028 64.000000
3.238190 0.748718 0.514028 48.000000
3.238542 0.738340 0.513742 53.000000
3.242723 0.728835 0.514028 48.000000
3.242045 0.718240 0.513599 49.000000
3.243266 0.708079 0.513456 50.000000
3.249294 0.698959 0.514028 62.000000
3.255295 0.689809 0.514600 50.000000
3.258365 0.680021 0.514743 36.000000
3.264313 0.670820 0.515315 44.000000
3.268296 0.661195 0.515601 38.000000
3.271280 0.651359 0.515744 44.000000
3.273263 0.641319 0.515744 30.000000
3.269384 0.630148 0.514886 50.000000
3.271302 0.620115 0.514886 40.000000
3.275135 0.610439 0.515172 54.000000
3.279913 0.600924 0.515601 59.000000
3.283689 0.591210 0.515887 45.000000
3.287437 0.581479 0.516173 40.000000
3.292130 0.571900 0.516602 41.000000
3.297772 0.562464 0.517174 50.000000
3.298506 0.552180 0.517031 38.000000
3.300184 0.542058 0.517031 51.000000
3.301832 0.531930 0.517031 28.000000
3.305403 0.522107 0.517317 50.000000
3.307967 0.512116 0.517460 36.000000
3.314416 0.502709 0.518174 48.000000
3.313984 0.492246 0.517889 40.000000
3.318417 0.482505 0.518317 49.000000
3.318902 0.472182 0.518174 38.000000
3.321315 0.462135 0.518317 45.000000
3.323698 0.452076 0.518460 52.000000
3.324088 0.441747 0.518317 63.000000
3.325428 0.431546 0.518317 52.000000
3.326736 0.421342 0.518317 55.000000
3.326048 0.410890 0.518032 61.000000
3.332206 0.401278 0.518746 51.000000
3.331456 0.390821 0.518460 49.000000
3.335589 0.380937 0.518889 45.000000
3.340677 0.371140 0.519461 53.000000
3.343768 0.361102 0.519747 47.000000
3.350766 0.351464 0.520605 36.000000
3.356751 0.341685 0.521320 45.000000
3.356799 0.331287 0.521177 65.000000
3.361740 0.321365 0.521749 43.000000
3.371579 0.311874 0.523036 39.000000
3.375478 0.301794 0.523465 46.000000
3.378360 0.291608 0.523750 55.000000
3.391074 0.282231 0.525466 34.000000
3.382058 0.271032 0.524036 28.000000
3.362152 0.259050 0.521034 15.000000
3.160971 1.088239 0.475993 43.000000
3.159603 1.076938 0.475338 33.000000
3.160074 1.066289 0.474945 48.000000
3.157688 1.054705 0.474159 46.000000
3.160909 1.045012 0.474159 47.000000
3.159389 1.033769 0.473504 53.000000
3.161602 1.023766 0.473373 55.000000
3.163784 1.013759 0.473241 48.000000
3.167825 1.004348 0.473373 53.000000
3.173729 0.995514 0.473766 41.000000
3.179609 0.986653 0.474159 33.000000
3.181673 0.976603 0.474028 46.000000
3.187500 0.967701 0.474421 46.000000
3.190454 0.957917 0.474421 48.000000
3.196229 0.948971 0.474814 53.000000
3.202931 0.940277 0.475338 51.000000
3.204848 0.930170 0.475207 46.000000
3.208640 0.920606 0.475338 57.000000
3.213356 0.911299 0.475600 57.000000
3.212319 0.900366 0.475076 44.000000
3.215066 0.890507 0.475076 50.000000
3.216826 0.880377 0.474945 47.000000
3.216641 0.869728 0.474552 37.000000
3.217379 0.859344 0.474290 47.000000
3.223835 0.850480 0.474814 44.000000
3.224510 0.840086 0.474552 41.000000
3.228992 0.830683 0.474814 39.000000
3.232486 0.821017 0.474945 49.000000
3.234990 0.811096 0.474945 54.000000
3.235538 0.800691 0.474683 64.000000
3.239906 0.791231 0.474945 61.000000
3.237499 0.780127 0.474290 51.000000
3.242771 0.770878 0.474683 64.000000
3.246086 0.761152 0.474814 47.000000
3.249372 0.751413 0.474945 56.000000
3.253595 0.741881 0.475207 44.000000
3.253921 0.731461 0.474945 40.000000
3.259054 0.722118 0.475338 43.000000
3.261254 0.712116 0.475338 44.000000
3.263423 0.702107 0.475338 39.000000
3.268471 0.692708 0.475731 56.000000
3.271552 0.682880 0.475862 42.000000
3.274602 0.673039 0.475993 47.000000
3.277623 0.663186 0.476124 53.000000
3.273809 0.651966 0.475338 46.000000
3.275794 0.641919 0.475338 48.000000
3.277748 0.631866 0.475338 54.000000
3.279671 0.621807 0.475338 49.000000
3.283512 0.612105 0.475600 41.000000
3.289275 0.602743 0.476124 55.000000
3.294036 0.593176 0.476518 56.000000
3.300722 0.583930 0.477173 37.000000
3.304451 0.574140 0.477435 58.000000
3.306197 0.563999 0.477435 38.000000
3.307912 0.553853 0.477435 43.000000
3.308617 0.543542 0.477304 47.000000
3.307333 0.532916 0.476911 44.000000
3.308952 0.522766 0.476911 39.000000
3.310540 0.512612 0.476911 45.000000
3.315038 0.502899 0.477304 44.000000
3.317546 0.492872 0.477435 53.000000
3.323948 0.483404 0.478090 60.000000
3.328360 0.473623 0.478483 55.000000
3.332743 0.463819 0.478876 33.000000
3.335133 0.453726 0.479007 53.000000
3.338475 0.443752 0.479270 35.000000
3.339820 0.433508 0.479270 54.000000
3.344085 0.423633 0.479663 63.000000
3.342417 0.413007 0.479270 45.000000
3.344652 0.402869 0.479401 48.000000
3.344888 0.392491 0.479270 48.000000
3.345092 0.382114 0.479139 46.000000
3.350189 0.372288 0.479663 39.000000
3.351316 0.362008 0.479663 39.000000
3.355369 0.352034 0.480056 51.000000
3.359392 0.342039 0.480449 51.000000
3.365358 0.332218 0.481104 61.000000
3.368336 0.322080 0.481366 48.000000
3.378193 0.312565 0.482546 30.000000
3.380123 0.302288 0.482677 42.000000
3.384985 0.292257 0.483201 38.000000
3.390806 0.282281 0.483856 24.000000
3.164684 1.090029 0.435193 37.000000
3.164254 1.079032 0.434717 44.000000
3.164728 1.068365 0.434360 43.000000
3.167991 1.058651 0.434360 34.000000
3.167454 1.047678 0.433885 53.000000
3.171596 1.038265 0.434003 49.000000
3.174767 1.028530 0.434003 43.000000
3.175071 1.017875 0.433647 55.000000
3.181018 1.009030 0.434003 56.000000
3.185993 0.999862 0.434241 65.000000
3.187149 0.989493 0.434003 45.000000
3.192068 0.980294 0.434241 63.000000
3.193161 0.969918 0.434003 54.000000
3.198023 0.960689 0.434241 56.000000
3.204762 0.952006 0.434717 73.000000
3.207668 0.942169 0.434717 50.000000
3.211497 0.932601 0.434836 49.000000
3.217206 0.923567 0.435193 44.000000
3.219069 0.913421 0.435074 59.000000
3.224724 0.904346 0.435430 48.000000
3.224613 0.893652 0.435074 47.000000
3.229254 0.884280 0.435312 44.000000
3.230035 0.873849 0.435074 46.000000
3.228864 0.862909 0.434598 54.000000
3.234376 0.853760 0.434955 41.000000
3.236020 0.843582 0.434836 54.000000
3.235708 0.832907 0.434479 40.000000
3.240173 0.823466 0.434717 72.000000
3.239795 0.812795 0.434360 59.000000
3.244201 0.803330 0.434598 54.000000
3.244721 0.792901 0.434360 55.000000
3.247139 0.782942 0.434360 71.000000
3.251457 0.773437 0.434598 46.000000
3.254781 0.763685 0.434717 49.000000
3.256141 0.753472 0.434598 50.000000
3.259406 0.743700 0.434717 54.000000
3.262641 0.733915 0.434836 65.000000
3.269723 0.724978 0.435430 56.000000
3.268053 0.714094 0.434955 61.000000
3.266346 0.703227 0.434479 71.000000
3.267516 0.692997 0.434360 55.000000
3.269627 0.682969 0.434360 55.000000
3.272679 0.673135 0.434479 57.000000
3.270837 0.662301 0.434003 65.000000
3.273827 0.652458 0.434122 58.000000
3.281659 0.643560 0.434836 64.000000
3.287518 0.634242 0.435312 48.000000
3.293350 0.624895 0.435787 55.000000
3.296227 0.614971 0.435906 46.000000
3.301028 0.605393 0.436263 56.000000
3.304824 0.595616 0.436501 54.000000
3.306636 0.585474 0.436501 63.000000
3.311351 0.575838 0.436858 50.000000
3.316038 0.566179 0.437214 56.000000
3.320697 0.556496 0.437571 53.000000
3.325328 0.546790 0.437928 57.000000
3.328950 0.536902 0.438166 53.000000
3.334504 0.527308 0.438641 53.000000
3.339050 0.517533 0.438998 63.000000
3.338659 0.506988 0.438760 51.000000
3.340198 0.496742 0.438760 47.000000
3.340724 0.486349 0.438641 47.000000
3.345149 0.476519 0.438998 63.000000
3.346595 0.466254 0.438998 57.000000
3.348010 0.455984 0.438998 46.000000
3.351362 0.445973 0.439236 38.000000
3.356652 0.436203 0.439712 56.000000
3.357975 0.425902 0.439712 59.000000
3.359265 0.415598 0.439712 48.000000
3.359539 0.405171 0.439593 47.000000
3.363724 0.395211 0.439950 51.000000
3.367881 0.385229 0.440306 60.000000
3.372994 0.375335 0.440782 47.000000
3.374130 0.364985 0.440782 60.000000
3.378196 0.354944 0.441139 47.000000
3.382232 0.344881 0.441496 66.000000
3.386238 0.334797 0.441852 59.000000
3.381319 0.323837 0.441139 51.000000
3.384274 0.313645 0.441377 43.000000
3.383243 0.303083 0.441139 45.000000
3.384156 0.292702 0.441139 43.000000
3.389986 0.282733 0.441733 20.000000
3.171456 1.081591 0.394357 39.000000
3.179469 1.073446 0.394890 39.000000
3.182748 1.063687 0.394890 37.000000
3.187884 1.054541 0.395104 38.000000
3.195829 1.046302 0.395638 46.000000
3.197133 1.035880 0.395424 44.000000
3.199349 1.025763 0.395318 49.000000
3.202481 1.015943 0.395318 52.000000
3.199890 1.004327 0.394677 44.000000
3.200108 0.993621 0.394357 51.000000
3.203141 0.983799 0.394357 39.000000
3.200436 0.972234 0.393716 44.000000
3.208165 0.963840 0.394250 41.000000
3.212060 0.954276 0.394357 43.000000
3.214973 0.944417 0.394357 49.000000
3.219764 0.935104 0.394570 53.000000
3.222618 0.925221 0.394570 39.000000
3.223529 0.914787 0.394357 55.000000
3.226320 0.904893 0.394357 57.000000
3.228123 0.894725 0.394250 45.000000
3.234689 0.885868 0.394677 53.000000
3.242190 0.877237 0.395211 54.000000
3.245827 0.867543 0.395318 44.000000
3.252318 0.858596 0.395745 48.000000
3.260710 0.850118 0.396385 63.000000
3.264266 0.840358 0.396492 62.000000
3.263938 0.829605 0.396172 50.000000
3.261646 0.818378 0.395638 55.000000
3.262211 0.807890 0.395424 44.000000
3.263708 0.797642 0.395318 47.000000
3.266140 0.787625 0.395318 46.000000
3.267574 0.777371 0.395211 51.000000
3.268007 0.766889 0.394997 31.000000
3.273251 0.757531 0.395318 56.000000
3.277498 0.747927 0.395531 38.000000
3.277837 0.737432 0.395318 35.000000
3.280084 0.727373 0.395318 46.000000
3.281329 0.717094 0.395211 39.000000
3.281569 0.706605 0.394997 40.000000
3.284694 0.696740 0.395104 53.000000
3.286816 0.686660 0.395104 49.000000
3.290855 0.676973 0.395318 52.000000
3.295841 0.667466 0.395638 47.000000
3.305674 0.658905 0.396492 61.000000
3.311582 0.649525 0.396919 44.000000
3.319417 0.640492 0.397560 44.000000
3.323320 0.630676 0.397774 48.000000
3.326217 0.620659 0.397880 43.000000
3.329084 0.610631 0.397987 55.000000
3.325070 0.599357 0.397347 51.000000
3.324935 0.588806 0.397133 45.000000
3.324767 0.578262 0.396919 43.000000
3.325545 0.567892 0.396813 51.000000
3.329233 0.558015 0.397026 64.000000
3.332891 0.548121 0.397240 51.000000
3.337502 0.538368 0.397560 64.000000
3.345031 0.529058 0.398201 52.000000
3.343690 0.518336 0.397880 57.000000
3.347231 0.508374 0.398094 60.000000
3.349759 0.498248 0.398201 56.000000
3.352255 0.488112 0.398308 49.000000
3.354721 0.477966 0.398414 41.000000
3.360111 0.468220 0.398842 54.000000
3.360547 0.457775 0.398735 60.000000
3.362920 0.447593 0.398842 51.000000
3.364278 0.437274 0.398842 52.000000
3.366590 0.427076 0.398948 45.000000
3.366898 0.416623 0.398842 49.000000
3.368160 0.406292 0.398842 39.000000
3.373341 0.396420 0.399269 63.000000
3.382444 0.386972 0.400123 57.000000
3.389544 0.377252 0.400764 60.000000
3.395629 0.367386 0.401298 50.000000
3.397728 0.357070 0.401404 61.000000
3.399797 0.346745 0.401511 58.000000
3.403813 0.336606 0.401832 59.000000
3.400871 0.325783 0.401404 54.000000
3.400864 0.315256 0.401298 39.000000
3.402806 0.304910 0.401404 64.000000
3.400753 0.294212 0.401084 47.000000
3.398668 0.283530 0.400764 28.000000
3.184860 1.085449 0.355701 48.000000
3.184403 1.074399 0.355321 54.000000
3.190516 1.065571 0.355606 49.000000
3.194715 1.056090 0.355701 42.000000
3.202671 1.047834 0.356176 41.000000
3.205870 1.038003 0.356176 53.000000
3.212831 1.029379 0.356556 58.000000
3.215025 1.019216 0.356461 58.000000
3.220986 1.010243 0.356746 51.000000
3.223120 1.000061 0.356651 55.000000
3.221415 0.988706 0.356176 56.000000
3.222528 0.978239 0.355986 50.000000
3.224561 0.968061 0.355891 58.000000
3.228470 0.958447 0.355986 54.000000
3.231395 0.948538 0.355986 60.000000
3.231422 0.937786 0.355701 60.000000
3.233328 0.927593 0.355606 46.000000
3.233285 0.916853 0.355321 73.000000
3.233207 0.906123 0.355036 51.000000
3.233094 0.895401 0.354751 62.000000
3.234866 0.885215 0.354657 66.000000
3.240449 0.876066 0.354941 50.000000
3.246969 0.867149 0.355321 39.000000
3.247689 0.856675 0.355131 47.000000
3.256081 0.848215 0.355701 46.000000
3.260596 0.838718 0.355891 77.000000
3.267013 0.829693 0.356271 59.000000
3.270509 0.819908 0.356366 46.000000
3.271076 0.809392 0.356176 58.000000
3.276445 0.800062 0.356461 60.000000
3.277916 0.789772 0.356366 52.000000
3.279356 0.779482 0.356271 52.000000
3.280762 0.769189 0.356176 62.000000
3.283107 0.759121 0.356176 56.000000
3.284450 0.748823 0.356081 64.000000
3.287703 0.738962 0.356176 46.000000
3.285095 0.727793 0.355701 41.000000
3.286340 0.717499 0.355606 48.000000
3.288526 0.707413 0.355606 60.000000
3.290681 0.697321 0.355606 51.000000
3.292805 0.687222 0.355606 59.000000
3.296848 0.677518 0.355796 40.000000
3.302813 0.668191 0.356176 51.000000
3.312658 0.659613 0.356936 48.000000
3.318573 0.650213 0.357316 54.000000
3.322507 0.640407 0.357506 62.000000
3.326412 0.630582 0.357696 68.000000
3.330288 0.620739 0.357886 54.000000
3.333156 0.610699 0.357981 63.000000
3.334035 0.600293 0.357886 52.000000
3.334880 0.589888 0.357791 54.000000
3.335693 0.579483 0.357696 45.000000
3.332549 0.568408 0.357221 56.000000
3.334278 0.558181 0.357221 59.000000
3.336957 0.548111 0.357316 53.000000
3.340588 0.538188 0.357506 39.000000
3.343206 0.528092 0.357601 64.000000
3.347762 0.518291 0.357886 54.000000
3.352289 0.508467 0.358171 60.000000
3.360726 0.499206 0.358836 58.000000
3.364212 0.489180 0.359025 50.000000
3.367667 0.479138 0.359215 58.000000
3.369121 0.468803 0.359215 73.000000
3.373503 0.458868 0.359500 60.000000
3.372921 0.448254 0.359310 49.000000
3.371319 0.437518 0.359025 53.000000
3.373633 0.427298 0.359120 49.000000
3.377892 0.417313 0.359405 55.000000
3.381133 0.407187 0.359595 62.000000
3.385332 0.397161 0.359880 53.000000
3.386535 0.386773 0.359880 57.000000
3.390674 0.376712 0.360165 55.000000
3.392803 0.366415 0.360260 48.000000
3.395891 0.356213 0.360450 51.000000
3.395978 0.345692 0.360355 61.000000
3.399994 0.335566 0.360640 64.000000
3.404972 0.325513 0.361020 62.000000
3.406945 0.315158 0.361115 43.000000
3.409879 0.304882 0.361305 60.000000
3.412782 0.294591 0.361495 52.000000
3.411686 0.283953 0.361305 47.000000
3.207603 1.082941 0.314994 45.000000
3.208074 1.072148 0.314747 45.000000
3.212295 1.062613 0.314829 41.000000
3.214592 1.052443 0.314747 48.000000
3.218754 1.042883 0.314829 53.000000
3.223837 1.033611 0.314994 52.000000
3.225093 1.023113 0.314829 46.000000
3.232020 1.014408 0.315159 59.000000
3.234165 1.004192 0.315077 60.000000
3.233420 0.993095 0.314747 45.000000
3.236451 0.983170 0.314747 49.000000
3.239453 0.973236 0.314747 58.000000
3.239557 0.962442 0.314500 56.000000
3.244407 0.953060 0.314665 55.000000
3.245402 0.942546 0.314500 55.000000
3.248278 0.932585 0.314500 56.000000
3.254959 0.923703 0.314829 44.000000
3.254899 0.912905 0.314582 44.000000
3.256724 0.902649 0.314500 56.000000
3.261400 0.893180 0.314665 61.000000
3.262201 0.882649 0.314500 56.000000
3.262005 0.871865 0.314252 53.000000
3.266592 0.862362 0.314417 49.000000
3.264400 0.851080 0.314005 45.000000
3.266996 0.841060 0.314005 43.000000
3.272458 0.831770 0.314252 51.000000
3.274028 0.821484 0.314170 34.000000
3.279435 0.812153 0.314417 60.000000
3.283848 0.802562 0.314582 52.000000
3.285326 0.792250 0.314500 46.000000
3.291619 0.783089 0.314829 61.000000
3.294006 0.772986 0.314829 55.000000
3.296362 0.762877 0.314829 51.000000
3.301602 0.753425 0.315077 40.000000
3.305842 0.743730 0.315242 43.000000
3.309082 0.733800 0.315324 66.000000
3.313265 0.724069 0.315489 53.000000
3.317419 0.714320 0.315654 43.000000
3.320570 0.704346 0.315737 54.000000
3.319788 0.693544 0.315489 51.000000
3.318972 0.682754 0.315242 50.000000
3.319098 0.672173 0.315077 58.000000
3.324076 0.662571 0.315324 33.000000
3.327071 0.652561 0.315407 51.000000
3.330036 0.642540 0.315489 47.000000
3.334929 0.632877 0.315737 49.000000
3.337835 0.622826 0.315819 46.000000
3.339730 0.612582 0.315819 48.000000
3.344536 0.602863 0.316066 40.000000
3.348333 0.592947 0.316231 54.000000
3.353081 0.583184 0.316479 51.000000
3.352890 0.572559 0.316314 44.000000
3.361512 0.563422 0.316891 64.000000
3.363224 0.553106 0.316891 47.000000
3.364905 0.542785 0.316891 52.000000
3.365571 0.532304 0.316809 50.000000
3.361279 0.521061 0.316314 58.000000
3.362861 0.510746 0.316314 43.000000
3.370327 0.501305 0.316809 52.000000
3.370863 0.490819 0.316726 48.000000
3.378273 0.481318 0.317221 59.000000
3.378747 0.470814 0.317138 51.000000
3.384125 0.460984 0.317468 39.000000
3.385523 0.450599 0.317468 51.000000
3.389855 0.440595 0.317716 51.000000
3.391190 0.430193 0.317716 59.000000
3.395461 0.420154 0.317963 56.000000
3.397724 0.409854 0.318045 50.000000
3.403914 0.400009 0.318458 47.000000
3.406116 0.389678 0.318540 73.000000
3.407295 0.379226 0.318540 56.000000
3.405470 0.368449 0.318293 61.000000
3.409558 0.358312 0.318540 59.000000
3.414607 0.348254 0.318870 57.000000
3.418635 0.338070 0.319117 50.000000
3.421640 0.327770 0.319282 56.000000
3.426599 0.317639 0.319612 34.000000
3.420609 0.306503 0.319035 27.000000
3.434441 0.297123 0.320107 40.000000
3.428384 0.286005 0.319530 36.000000
3.381562 0.271660 0.315572 8.000000
3.194999 1.076742 0.273783 38.000000
3.197341 1.066618 0.273712 38.000000
3.209122 1.059622 0.274348 34.000000
3.209514 1.048841 0.274136 43.000000
3.213666 1.039297 0.274207 37.000000
3.220639 1.030650 0.274489 46.000000
3.224736 1.021065 0.274560 51.000000
3.232613 1.012660 0.274913 54.000000
3.233799 1.002146 0.274772 49.000000
3.233998 0.991342 0.274560 44.000000
3.236069 0.981126 0.274489 53.000000
3.234287 0.969760 0.274136 41.000000
3.237247 0.959832 0.274136 48.000000
3.241134 0.950177 0.274207 39.000000
3.243075 0.939951 0.274136 45.000000
3.250738 0.931372 0.274489 47.000000
3.254540 0.921667 0.274560 36.000000
3.260234 0.912485 0.274772 46.000000
3.265902 0.903277 0.274984 38.000000
3.268657 0.893254 0.274984 30.000000
3.270420 0.882961 0.274913 47.000000
3.273113 0.872923 0.274913 40.000000
3.277705 0.863386 0.275054 36.000000
3.276477 0.852320 0.274772 42.000000
3.279077 0.842264 0.274772 29.000000
3.281645 0.832200 0.274772 42.000000
3.286118 0.822614 0.274913 41.000000
3.289595 0.812768 0.274984 46.000000
3.294011 0.803145 0.275125 43.000000
3.294520 0.792568 0.274984 40.000000
3.303729 0.784071 0.275478 30.000000
3.310975 0.775070 0.275831 31.000000
3.312366 0.764684 0.275760 41.000000
3.315668 0.754740 0.275831 37.000000
3.323808 0.745877 0.276255 37.000000
3.325106 0.735460 0.276184 34.000000
3.329296 0.725681 0.276325 35.000000
3.330532 0.715254 0.276255 37.000000
3.328807 0.704205 0.275972 35.000000
3.329975 0.693785 0.275902 35.000000
3.334042 0.683967 0.276043 43.000000
3.333192 0.673142 0.275831 38.000000
3.335241 0.662913 0.275831 31.000000
3.341175 0.653445 0.276114 30.000000
3.345123 0.643568 0.276255 25.000000
3.349042 0.633674 0.276396 42.000000
3.351951 0.623579 0.276467 32.000000
3.353848 0.613293 0.276467 34.000000
3.354732 0.602824 0.276396 25.000000
3.365406 0.594092 0.277032 29.000000
3.369179 0.584106 0.277173 28.000000
3.369971 0.573599 0.277102 41.000000
3.380570 0.564740 0.277738 38.000000
3.390161 0.555659 0.278303 41.000000
3.398743 0.546366 0.278797 35.000000
3.415183 0.538271 0.279857 29.000000
3.409918 0.526722 0.279362 33.000000
3.407573 0.515660 0.279080 44.000000
3.415059 0.506083 0.279504 47.000000
3.412647 0.495029 0.279221 41.000000
3.411187 0.484135 0.279009 37.000000
3.398824 0.471743 0.278021 49.000000
3.396302 0.460776 0.277738 29.000000
3.399678 0.450617 0.277879 31.000000
3.404011 0.440570 0.278091 46.000000
3.406337 0.430249 0.278162 40.000000
3.406651 0.419675 0.278091 45.000000
3.406932 0.409102 0.278021 41.000000
3.410152 0.398880 0.278162 32.000000
3.413342 0.388642 0.278303 42.000000
3.416501 0.378389 0.278444 35.000000
3.416654 0.367798 0.278374 34.000000
3.421735 0.357731 0.278656 32.000000
3.426785 0.347635 0.278939 55.000000
3.431807 0.337512 0.279221 38.000000
3.437791 0.327457 0.279574 48.000000
3.442752 0.317276 0.279857 29.000000
3.443710 0.306712 0.279857 44.000000
3.446622 0.296317 0.279998 46.000000
3.435586 0.284749 0.279151 27.000000
3.221806 1.087111 0.233105 40.000000
3.227967 1.078170 0.233280 54.000000
3.232207 1.068575 0.233338 43.000000
3.233573 1.058033 0.233222 40.000000
3.234904 1.047493 0.233105 49.000000
3.238102 1.037563 0.233105 42.000000
3.245077 1.028830 0.233338 46.000000
3.247265 1.018571 0.233280 31.000000
3.246561 1.007421 0.233047 33.000000
3.247728 0.996870 0.232931 43.000000
3.249815 0.986611 0.232873 38.000000
3.250915 0.976063 0.232757 35.000000
3.250066 0.964948 0.232524 49.000000
3.252053 0.954692 0.232466 49.000000
3.254008 0.944432 0.232408 52.000000
3.259769 0.935270 0.232583 44.000000
3.262623 0.925264 0.232583 47.000000
3.276982 0.918482 0.233280 33.000000
3.279784 0.908424 0.233280 42.000000
3.320110 0.908631 0.235545 26.000000
3.334447 0.901566 0.236242 31.000000
3.365169 0.898800 0.237927 33.000000
3.394939 0.895598 0.239553 33.000000
3.415061 0.889707 0.240599 35.000000
3.435178 0.883701 0.241644 33.000000
3.427229 0.870455 0.241005 40.000000
3.431820 0.860422 0.241121 33.000000
3.443166 0.852047 0.241644 32.000000
3.590269 0.876752 0.250299 93.000000
3.581295 0.862928 0.249602 136.000000
3.458632 0.822167 0.242109 42.000000
3.472801 0.814285 0.242806 46.000000
3.560878 0.823411 0.247917 112.000000
3.491359 0.796067 0.243619 39.000000
3.495733 0.785790 0.243735 39.000000
3.502027 0.775925 0.243968 42.000000
3.505366 0.765390 0.244026 38.000000
3.499890 0.752953 0.243561 35.000000
3.526599 0.747383 0.245013 49.000000
3.545489 0.740026 0.246001 60.000000
3.532097 0.725932 0.245071 50.000000
3.521586 0.712519 0.244316 37.000000
3.542359 0.705414 0.245420 44.000000
3.519034 0.689555 0.243909 34.000000
3.534857 0.681399 0.244723 41.000000
3.600687 0.682631 0.248498 88.000000
3.521306 0.656406 0.243677 42.000000
3.523304 0.645600 0.243677 42.000000
3.610747 0.650170 0.248731 77.000000
3.618623 0.640132 0.249079 101.000000
3.610734 0.627320 0.248498 77.000000
3.575246 0.609864 0.246291 48.000000
3.588916 0.600869 0.246988 52.000000
3.589757 0.589694 0.246930 35.000000
3.600419 0.580106 0.247453 27.000000
3.572599 0.564388 0.245710 19.000000
3.564578 0.938395 0.206055 24.000000
3.561640 0.925945 0.205778 31.000000
3.554789 0.912527 0.205316 34.000000
3.550794 0.899896 0.204992 43.000000
3.543849 0.886571 0.204530 32.000000
3.540734 0.874256 0.204252 44.000000
3.541458 0.862915 0.204160 48.000000
3.543118 0.851812 0.204114 106.000000
3.540855 0.839784 0.203882 95.000000
3.535634 0.827094 0.203512 31.000000
3.544968 0.817817 0.203836 36.000000
3.550382 0.807603 0.203975 70.000000
3.555767 0.797364 0.204114 59.000000
3.557221 0.786235 0.204067 44.000000
3.556689 0.774679 0.203929 31.000000
3.565885 0.765233 0.204252 41.000000
3.562353 0.753048 0.203975 29.000000
3.571491 0.743543 0.204298 61.000000
3.575713 0.732984 0.204391 62.000000
3.574028 0.721219 0.204206 44.000000
3.574264 0.709861 0.204114 35.000000
3.575445 0.698700 0.204067 34.000000
3.577572 0.687727 0.204067 38.000000
3.576721 0.676190 0.203929 33.000000
3.582706 0.665945 0.204114 34.000000
3.586698 0.655310 0.204206 54.000000
3.590657 0.644657 0.204298 112.000000
3.597537 0.634507 0.204530 57.000000
3.607341 0.624834 0.204900 50.000000
3.623027 0.616112 0.205547 43.000000
3.632782 0.606312 0.205917 37.000000
3.678984 0.602442 0.207997 15.000000
3.694622 0.593374 0.208645 16.000000
3.540790 0.910201 0.159479 33.000000
3.541628 0.898843 0.159411 30.000000
3.533705 0.885302 0.159039 48.000000
3.528642 0.872538 0.158768 35.000000
3.533245 0.862182 0.158836 53.000000
3.536845 0.851572 0.158870 48.000000
3.544303 0.841872 0.159039 70.000000
3.549788 0.831677 0.159140 125.000000
3.550375 0.820333 0.159073 48.000000
3.550926 0.808993 0.159005 63.000000
3.553392 0.798095 0.159005 55.000000
3.549969 0.785894 0.158802 95.000000
3.556269 0.775851 0.158937 68.000000
3.562541 0.765777 0.159073 42.000000
3.562918 0.754429 0.159005 49.000000
3.563259 0.743087 0.158937 55.000000
3.569438 0.732955 0.159073 74.000000
3.571670 0.722001 0.159073 58.000000
3.573868 0.711040 0.159073 56.000000
3.577014 0.700264 0.159107 54.000000
3.578164 0.689098 0.159073 64.000000
3.580261 0.678117 0.159073 59.000000
3.583307 0.667313 0.159107 66.000000
3.591237 0.657395 0.159310 109.000000
3.587334 0.645313 0.159107 51.000000
3.593234 0.635000 0.159242 48.000000
3.600089 0.624827 0.159411 49.000000
3.602974 0.613947 0.159445 48.000000
3.612727 0.604208 0.159716 32.000000
3.643165 0.597812 0.160698 19.000000
3.645969 0.586790 0.160731 19.000000
3.537098 0.909290 0.114890 26.000000
3.540840 0.898680 0.114912 26.000000
3.530005 0.884407 0.114609 38.000000
3.533672 0.873813 0.114631 35.000000
3.537307 0.863205 0.114652 38.000000
3.537995 0.851880 0.114609 51.000000
3.536701 0.840096 0.114522 40.000000
3.525635 0.826044 0.114219 95.000000
3.532049 0.816126 0.114306 109.000000
3.533562 0.805063 0.114284 43.000000
3.534064 0.793780 0.114241 65.000000
3.535507 0.782717 0.114219 54.000000
3.537891 0.771867 0.114219 53.000000
3.540243 0.761009 0.114219 75.000000
3.544517 0.750559 0.114263 47.000000
3.544846 0.739272 0.114219 50.000000
3.546118 0.728192 0.114198 55.000000
3.546376 0.716912 0.114155 36.000000
3.555421 0.707397 0.114306 30.000000
3.557575 0.696485 0.114306 46.000000
3.559695 0.685568 0.114306 39.000000
3.563746 0.675016 0.114349 45.000000
3.569732 0.664813 0.114436 63.000000
3.574704 0.654399 0.114501 49.000000
3.579647 0.643961 0.114566 37.000000
3.582591 0.633150 0.114587 43.000000
3.585501 0.622327 0.114609 32.000000
3.593307 0.612334 0.114739 45.000000
3.601084 0.602298 0.114869 29.000000
3.601929 0.591085 0.114847 27.000000
3.603725 0.580032 0.114847 23.000000
3.597588 0.567724 0.114674 6.000000
3.539913 0.909320 0.069843 27.000000
3.538810 0.897473 0.069806 33.000000
3.538636 0.885884 0.069778 36.000000
3.531629 0.872625 0.069686 45.000000
3.535261 0.862023 0.069695 36.000000
3.531084 0.849537 0.069630 40.000000
3.527836 0.837314 0.069575 49.000000
3.522599 0.824665 0.069501 44.000000
3.527061 0.814303 0.069519 76.000000
3.521742 0.801704 0.069445 99.000000
3.527112 0.791552 0.069473 49.000000
3.530501 0.780943 0.069482 44.000000
3.528972 0.769256 0.069445 52.000000
3.533271 0.758846 0.069464 47.000000
3.535582 0.748002 0.069464 60.000000
3.534924 0.736540 0.069436 71.000000
3.534228 0.725089 0.069408 52.000000
3.535455 0.714045 0.069399 49.000000
3.539591 0.703585 0.069417 45.000000
3.545659 0.693490 0.069454 42.000000
3.550715 0.683175 0.069482 61.000000
3.558690 0.673393 0.069538 42.000000
3.568604 0.663934 0.069612 68.000000
3.573575 0.653522 0.069639 46.000000
3.579500 0.643263 0.069676 39.000000
3.586380 0.633147 0.069723 53.000000
3.589291 0.622311 0.069732 68.000000
3.601042 0.612974 0.069824 48.000000
3.618686 0.604558 0.069972 33.000000
3.635326 0.595877 0.070111 23.000000
3.643061 0.585673 0.070167 17.000000
3.557272 0.914483 0.024052 23.000000
3.551338 0.901348 0.024082 28.000000
3.550207 0.889475 0.024095 32.000000
3.538359 0.874974 0.024145 36.000000
3.534227 0.862452 0.024168 30.000000
3.525191 0.848793 0.024208 38.000000
3.518050 0.835659 0.024241 38.000000
3.516703 0.823949 0.024255 43.000000
3.513369 0.811803 0.024274 51.000000
3.510968 0.799908 0.024291 48.000000
3.509503 0.788255 0.024304 107.000000
3.517763 0.778783 0.024284 59.000000
3.514273 0.766706 0.024304 59.000000
3.513676 0.755289 0.024314 46.000000
3.515977 0.744506 0.024314 52.000000
3.518245 0.733716 0.024314 57.000000
3.520479 0.722918 0.024314 43.000000
3.522680 0.712114 0.024314 45.000000
3.526810 0.701694 0.024308 46.000000
3.533853 0.691833 0.024291 42.000000
3.538904 0.681557 0.024281 66.000000
3.543926 0.671255 0.024271 63.000000
3.550884 0.661297 0.024255 60.000000
3.558797 0.651482 0.024235 41.000000
3.563732 0.641093 0.024225 63.000000
3.574544 0.631725 0.024195 45.000000
3.584347 0.622127 0.024168 50.000000
3.599053 0.613315 0.024125 39.000000
3.618670 0.605245 0.024066 25.000000
3.622484 0.594465 0.024059 23.000000
3.631201 0.584463 0.024036 34.000000
3.621124 0.571446 0.024076 11.000000
3.542218 0.911225 -0.021029 21.000000
3.538213 0.898631 -0.020919 30.000000
3.539984 0.887528 -0.020903 27.000000
3.531043 0.873783 -0.020715 43.000000
3.524965 0.860812 -0.020574 51.000000
3.520784 0.848354 -0.020464 49.000000
3.516561 0.835931 -0.020354 51.000000
3.513268 0.823769 -0.020259 31.000000
3.514805 0.812762 -0.020244 29.000000
3.514357 0.801308 -0.020197 39.000000
3.513872 0.789865 -0.020149 56.000000
3.517255 0.779297 -0.020165 78.000000
3.518652 0.768289 -0.020149 58.000000
3.516105 0.756440 -0.020071 48.000000
3.515475 0.745027 -0.020024 60.000000
3.516765 0.734034 -0.020008 56.000000
3.514104 0.722235 -0.019930 53.000000
3.512383 0.710658 -0.019867 65.000000
3.515527 0.700074 -0.019882 73.000000
3.520602 0.689862 -0.019930 66.000000
3.532520 0.680949 -0.020087 42.000000
3.537540 0.670667 -0.020134 52.000000
3.545478 0.660909 -0.020228 50.000000
3.555358 0.651470 -0.020354 48.000000
3.560292 0.641090 -0.020401 50.000000
3.569134 0.631383 -0.020511 56.000000
3.575980 0.621285 -0.020589 42.000000
3.592654 0.612832 -0.020825 29.000000
3.606351 0.603787 -0.021013 37.000000
3.617067 0.594177 -0.021155 46.000000
3.630718 0.584985 -0.021343 50.000000
3.658175 0.577897 -0.021752 25.000000
3.547216 0.911894 -0.065047 16.000000
3.538371 0.898053 -0.064714 29.000000
3.526566 0.883544 -0.064298 37.000000
3.522468 0.871039 -0.064104 31.000000
3.514442 0.857618 -0.063798 38.000000
3.509282 0.844957 -0.063576 42.000000
3.504079 0.832336 -0.063354 41.000000
