ply
format ascii 1.0
element vertex 1288
property float x
property float y
property float z
property float intensity
end_header
3.430347 0.564137 0.664458 31.000000
3.439833 0.554863 0.665887 22.000000
3.443463 0.544614 0.666244 32.000000
3.444145 0.533897 0.666066 22.000000
3.449658 0.523918 0.666780 20.000000
3.447356 0.512754 0.666066 37.000000
3.449887 0.502317 0.666244 32.000000
3.452386 0.491869 0.666423 32.000000
3.449006 0.480597 0.665530 25.000000
3.462163 0.471605 0.667673 20.000000
3.456767 0.460073 0.666423 39.000000
3.464992 0.450353 0.667673 26.000000
3.470262 0.440215 0.668388 31.000000
3.480384 0.430653 0.669996 18.000000
3.472898 0.418914 0.668388 35.000000
3.481007 0.409060 0.669638 30.000000
3.479313 0.398043 0.669102 35.000000
3.477584 0.387041 0.668567 32.000000
3.489515 0.377533 0.670532 13.000000
3.476958 0.365388 0.668031 27.000000
3.476105 0.354519 0.667673 20.000000
3.477176 0.343853 0.667673 35.000000
3.471358 0.332528 0.666423 20.000000
3.478241 0.322420 0.667495 11.000000
3.271704 1.125661 0.619337 21.000000
3.268610 1.113391 0.618168 18.000000
3.263603 1.100520 0.616666 43.000000
3.266964 1.090502 0.616666 38.000000
3.261869 1.077687 0.615163 33.000000
3.260475 1.066141 0.614329 44.000000
3.266544 1.057045 0.614829 32.000000
3.267894 1.046416 0.614495 43.000000
3.273909 1.037280 0.614996 30.000000
3.278016 1.027526 0.615163 47.000000
3.285861 1.018926 0.615998 31.000000
3.289914 1.009130 0.616165 46.000000
3.294882 0.999605 0.616499 32.000000
3.296989 0.989208 0.616332 30.000000
3.295282 0.977684 0.615497 31.000000
3.300158 0.968126 0.615831 40.000000
3.307847 0.959371 0.616666 33.000000
3.307932 0.948402 0.616165 34.000000
3.306083 0.936903 0.615330 48.000000
3.330777 0.932879 0.619170 18.000000
3.317471 0.918180 0.616332 33.000000
3.319321 0.907737 0.616165 43.000000
3.310669 0.894460 0.614162 49.000000
3.315303 0.884808 0.614495 45.000000
3.318955 0.874884 0.614662 33.000000
3.321624 0.864697 0.614662 39.000000
3.326171 0.854994 0.614996 29.000000
3.325911 0.844057 0.614495 44.000000
3.329442 0.834089 0.614662 33.000000
3.337727 0.825293 0.615664 46.000000
3.337370 0.814347 0.615163 34.000000
3.336019 0.803180 0.614495 39.000000
3.338467 0.792941 0.614495 25.000000
3.332245 0.780668 0.612993 37.000000
3.334625 0.770441 0.612993 36.000000
3.332166 0.759110 0.612158 37.000000
3.331594 0.748235 0.611657 37.000000
3.336761 0.738650 0.612158 31.000000
3.347681 0.730304 0.613661 24.000000
3.356653 0.721483 0.614829 34.000000
3.357886 0.710977 0.614662 36.000000
3.362947 0.701276 0.615163 41.000000
3.365083 0.690956 0.615163 44.000000
3.362355 0.679650 0.614329 35.000000
3.364424 0.669331 0.614329 39.000000
3.365494 0.658816 0.614162 34.000000
3.363627 0.647741 0.613494 27.000000
3.366567 0.637602 0.613661 34.000000
3.372384 0.627994 0.614329 32.000000
3.372356 0.617289 0.613995 31.000000
3.375204 0.607115 0.614162 32.000000
3.378993 0.597101 0.614495 34.000000
3.377894 0.586225 0.613995 46.000000
3.382593 0.576357 0.614495 46.000000
3.392124 0.567280 0.615831 39.000000
3.395794 0.557190 0.616165 39.000000
3.405275 0.548025 0.617500 41.000000
3.410836 0.538192 0.618168 26.000000
3.411496 0.527574 0.618001 30.000000
3.418948 0.517993 0.619003 31.000000
3.420521 0.507501 0.619003 37.000000
3.421086 0.496863 0.618836 39.000000
3.422594 0.486365 0.618836 38.000000
3.422117 0.475590 0.618502 40.000000
3.424537 0.465222 0.618669 41.000000
3.425948 0.454714 0.618669 54.000000
3.425372 0.443947 0.618335 44.000000
3.427696 0.433560 0.618502 37.000000
3.431945 0.423405 0.619003 46.000000
3.436165 0.413228 0.619504 48.000000
3.439375 0.402914 0.619838 34.000000
3.447452 0.393145 0.621006 40.000000
3.454521 0.383220 0.622008 57.000000
3.456661 0.372726 0.622175 45.000000
3.462691 0.362635 0.623009 45.000000
3.464768 0.352110 0.623176 37.000000
3.461907 0.341090 0.622509 26.000000
3.466863 0.330844 0.623176 34.000000
3.461972 0.319660 0.622175 21.000000
3.459008 0.308685 0.621507 16.000000
3.229447 1.111805 0.569162 31.000000
3.235648 1.102848 0.569626 34.000000
3.238080 1.092600 0.569472 26.000000
3.241416 1.082661 0.569472 31.000000
3.240033 1.071161 0.568697 34.000000
3.246121 1.062137 0.569162 38.000000
3.249364 1.052173 0.569162 27.000000
3.249754 1.041295 0.568697 30.000000
3.255759 1.032216 0.569162 34.000000
3.257968 1.021927 0.569007 43.000000
3.262975 1.012512 0.569317 30.000000
3.272677 1.004525 0.570401 37.000000
3.271962 0.993332 0.569781 47.000000
3.276887 0.983857 0.570091 36.000000
3.277048 0.972956 0.569626 44.000000
3.283810 0.964010 0.570246 30.000000
3.286752 0.953931 0.570246 37.000000
3.291562 0.944388 0.570556 44.000000
3.294444 0.934285 0.570556 35.000000
3.292538 0.922841 0.569781 33.000000
3.294402 0.912471 0.569626 36.000000
3.293374 0.901317 0.569007 52.000000
3.291355 0.889920 0.568233 46.000000
3.296934 0.880583 0.568697 42.000000
3.296754 0.869708 0.568233 46.000000
3.303231 0.860586 0.568852 24.000000
3.310640 0.851678 0.569626 38.000000
3.316110 0.842246 0.570091 37.000000
3.318678 0.832068 0.570091 40.000000
3.320256 0.821646 0.569936 44.000000
3.318922 0.810518 0.569317 31.000000
3.317551 0.799407 0.568697 31.000000
3.317105 0.788540 0.568233 27.000000
3.319508 0.778359 0.568233 41.000000
3.318993 0.767504 0.567768 35.000000
3.323258 0.757757 0.568078 39.000000
3.325567 0.747558 0.568078 35.000000
3.328810 0.737565 0.568233 44.000000
3.333953 0.727981 0.568697 42.000000
3.336170 0.717749 0.568697 39.000000
3.332558 0.706282 0.567768 37.000000
3.337610 0.696660 0.568233 23.000000
3.332958 0.685026 0.567148 39.000000
3.334075 0.674601 0.566993 37.000000
3.334192 0.663984 0.566684 45.000000
3.338152 0.654131 0.566993 31.000000
3.339173 0.643700 0.566839 46.000000
3.343074 0.633820 0.567148 43.000000
3.345973 0.623742 0.567303 44.000000
3.349815 0.613830 0.567613 36.000000
3.351682 0.603550 0.567613 39.000000
3.356437 0.593780 0.568078 45.000000
3.360189 0.583818 0.568387 28.000000
3.363913 0.573838 0.568697 34.000000
3.367606 0.563841 0.569007 28.000000
3.376144 0.554627 0.570091 50.000000
3.380756 0.544738 0.570556 33.000000
3.384363 0.534671 0.570866 55.000000
3.386964 0.524437 0.571020 42.000000
3.390510 0.514339 0.571330 33.000000
3.394027 0.504225 0.571640 43.000000
3.397513 0.494094 0.571950 47.000000
3.395100 0.483112 0.571330 53.000000
3.400481 0.473238 0.571950 33.000000
3.406811 0.463469 0.572724 35.000000
3.408217 0.453015 0.572724 40.000000
3.409591 0.442556 0.572724 41.000000
3.411913 0.432218 0.572879 37.000000
3.417145 0.422232 0.573499 28.000000
3.418424 0.411747 0.573499 37.000000
3.415746 0.400797 0.572879 49.000000
3.415978 0.390204 0.572724 34.000000
3.421087 0.380158 0.573344 32.000000
3.425184 0.369978 0.573808 35.000000
3.428268 0.359674 0.574118 43.000000
3.430338 0.349255 0.574273 34.000000
3.434343 0.339020 0.574738 34.000000
3.441268 0.329045 0.575667 32.000000
3.458985 0.320031 0.578300 17.000000
3.443222 0.307924 0.575667 31.000000
3.463836 0.299056 0.578765 13.000000
3.195967 1.100196 0.522178 18.000000
3.201201 1.091025 0.522464 32.000000
3.205471 1.081515 0.522607 30.000000
3.204080 1.070107 0.521892 18.000000
3.211106 1.061515 0.522464 32.000000
3.216229 1.052275 0.522750 31.000000
3.216618 1.041487 0.522321 34.000000
3.221683 1.032218 0.522607 41.000000
3.227665 1.023228 0.523036 41.000000
3.228900 1.012728 0.522750 27.000000
3.233882 1.003404 0.523036 31.000000
3.236945 0.993478 0.523036 30.000000
3.237137 0.982679 0.522607 40.000000
3.239189 0.972458 0.522464 33.000000
3.243106 0.962798 0.522607 34.000000
3.248893 0.953681 0.523036 40.000000
3.251804 0.943709 0.523036 26.000000
3.256586 0.934274 0.523322 38.000000
3.258485 0.924009 0.523179 31.000000
3.263211 0.914542 0.523465 31.000000
3.266955 0.904791 0.523608 25.000000
3.273533 0.895810 0.524179 19.000000
3.271489 0.884470 0.523465 22.000000
3.278012 0.875452 0.524036 28.000000
3.278769 0.864885 0.523750 30.000000
3.282364 0.855072 0.523893 36.000000
3.282097 0.844257 0.523465 26.000000
3.290427 0.835647 0.524322 18.000000
3.283376 0.823138 0.522893 31.000000
3.283964 0.812585 0.522607 37.000000
3.283557 0.801801 0.522178 41.000000
3.286002 0.791723 0.522178 35.000000
3.287453 0.781409 0.522035 38.000000
3.293689 0.772225 0.522607 39.000000
3.290257 0.760776 0.521749 39.000000
3.294505 0.751119 0.522035 43.000000
3.299691 0.741660 0.522464 45.000000
3.305815 0.732391 0.523036 37.000000
3.309014 0.722457 0.523179 38.000000
3.313150 0.712719 0.523465 31.000000
3.316289 0.702756 0.523608 47.000000
3.320367 0.692984 0.523893 30.000000
3.318600 0.681996 0.523322 34.000000
3.317767 0.671221 0.522893 41.000000
3.315928 0.660265 0.522321 34.000000
3.318909 0.650279 0.522464 45.000000
3.321860 0.640282 0.522607 29.000000
3.323809 0.630087 0.522607 31.000000
3.328645 0.620432 0.523036 36.000000
3.334427 0.610932 0.523608 34.000000
3.336285 0.600699 0.523608 30.000000
3.342985 0.591324 0.524322 39.000000
3.343808 0.580896 0.524179 46.000000
3.340697 0.569801 0.523465 32.000000
3.344382 0.559876 0.523750 37.000000
3.344131 0.549292 0.523465 26.000000
3.348731 0.539503 0.523893 23.000000
3.349393 0.529072 0.523750 41.000000
3.350022 0.518642 0.523608 31.000000
3.354533 0.508808 0.524036 37.000000
3.360973 0.499243 0.524751 39.000000
3.364448 0.489214 0.525037 30.000000
3.366912 0.479030 0.525180 30.000000
3.371307 0.469108 0.525609 27.000000
3.376653 0.459298 0.526181 40.000000
3.377065 0.448806 0.526038 45.000000
3.379408 0.438571 0.526181 43.000000
3.383683 0.428575 0.526610 34.000000
3.391857 0.419044 0.527611 35.000000
3.403935 0.409941 0.529184 38.000000
3.404194 0.399380 0.529041 36.000000
3.405403 0.388934 0.529041 32.000000
3.407564 0.378595 0.529184 39.000000
3.407726 0.368032 0.529041 38.000000
3.402933 0.356954 0.528183 38.000000
3.401058 0.346211 0.527754 31.000000
3.402104 0.335775 0.527754 41.000000
3.406074 0.325619 0.528183 40.000000
3.411984 0.315625 0.528898 30.000000
3.419837 0.305775 0.529898 34.000000
3.432591 0.296308 0.531614 20.000000
3.176907 1.093724 0.478221 21.000000
3.185878 1.085890 0.479007 22.000000
3.188255 1.075794 0.478876 38.000000
3.189660 1.065380 0.478614 31.000000
3.192913 1.055589 0.478614 36.000000
3.198964 1.046713 0.479007 43.000000
3.199330 1.035978 0.478614 27.000000
3.201550 1.025855 0.478483 34.000000
3.199011 1.014231 0.477697 29.000000
3.202108 1.004412 0.477697 51.000000
3.208015 0.995464 0.478090 40.000000
3.211054 0.985618 0.478090 47.000000
3.209319 0.974322 0.477435 35.000000
3.217041 0.965896 0.478090 41.000000
3.217138 0.955176 0.477697 29.000000
3.223858 0.946418 0.478221 47.000000
3.224843 0.935970 0.477959 28.000000
3.220075 0.923886 0.476911 34.000000
3.223848 0.914273 0.477042 35.000000
3.229502 0.905180 0.477435 35.000000
3.229398 0.894475 0.477042 38.000000
3.234039 0.885086 0.477304 36.000000
3.238653 0.875677 0.477566 28.000000
3.245156 0.866760 0.478090 36.000000
3.249717 0.857305 0.478352 51.000000
3.250413 0.846832 0.478090 43.000000
3.252996 0.836856 0.478090 52.000000
3.252665 0.826140 0.477697 39.000000
3.252300 0.815434 0.477304 49.000000
3.251899 0.804738 0.476911 42.000000
3.253389 0.794522 0.476780 36.000000
3.257739 0.785002 0.477042 38.000000
3.262061 0.775462 0.477304 37.000000
3.265390 0.765676 0.477435 26.000000
3.272553 0.756771 0.478090 27.000000
3.279693 0.747829 0.478745 33.000000
3.283906 0.738198 0.479007 40.000000
3.289059 0.728763 0.479401 34.000000
3.295154 0.719514 0.479925 44.000000
3.296376 0.709193 0.479794 43.000000
3.294657 0.698255 0.479270 41.000000
3.296784 0.688143 0.479270 38.000000
3.295967 0.677427 0.478876 34.000000
3.297058 0.667116 0.478745 39.000000
3.294227 0.656030 0.478090 31.000000
3.299143 0.646492 0.478483 28.000000
3.305005 0.637117 0.479007 56.000000
3.308892 0.627344 0.479270 48.000000
3.312751 0.617553 0.479532 35.000000
3.312679 0.607029 0.479270 31.000000
3.316477 0.597214 0.479532 34.000000
3.322199 0.587727 0.480056 44.000000
3.324963 0.577701 0.480187 49.000000
3.325743 0.567331 0.480056 36.000000
3.324534 0.556635 0.479663 43.000000
3.324270 0.546111 0.479401 37.000000
3.324950 0.535752 0.479270 32.000000
3.323641 0.525085 0.478876 40.000000
3.328175 0.515341 0.479270 34.000000
3.328761 0.504979 0.479139 31.000000
3.332256 0.495055 0.479401 44.000000
3.338664 0.485543 0.480056 32.000000
3.342101 0.475577 0.480318 41.000000
3.346490 0.465730 0.480711 41.000000
3.352815 0.456129 0.481366 30.000000
3.354198 0.445841 0.481366 33.000000
3.357517 0.435803 0.481628 24.000000
3.359822 0.425625 0.481759 28.000000
3.363079 0.415558 0.482022 41.000000
3.366307 0.405475 0.482284 32.000000
3.371474 0.395607 0.482808 38.000000
3.371686 0.385149 0.482677 34.000000
3.376793 0.375241 0.483201 38.000000
3.380886 0.365198 0.483594 47.000000
3.381990 0.354824 0.483594 53.000000
3.387008 0.344848 0.484118 35.000000
3.389037 0.334552 0.484249 32.000000
3.392021 0.324342 0.484511 43.000000
3.399910 0.314572 0.485429 29.000000
3.394935 0.303611 0.484642 44.000000
3.396838 0.293279 0.484773 37.000000
3.407601 0.283678 0.486084 19.000000
3.414385 0.273697 0.486870 25.000000
3.420151 0.263600 0.487525 23.000000
3.452581 0.255444 0.491719 9.000000
3.151379 1.107121 0.434360 25.000000
3.156636 1.098101 0.434598 31.000000
3.158113 1.087764 0.434360 54.000000
3.166134 1.079674 0.434955 56.000000
3.168490 1.069637 0.434836 43.000000
3.167991 1.058651 0.434360 35.000000
3.171224 1.048927 0.434360 39.000000
3.174427 1.039193 0.434360 57.000000
3.170989 1.027305 0.433528 35.000000
3.177907 1.018785 0.434003 43.000000
3.173447 1.006626 0.433052 44.000000
3.171784 0.995397 0.432457 43.000000
3.176719 0.986251 0.432695 46.000000
3.181628 0.977084 0.432933 41.000000
3.179862 0.965874 0.432338 36.000000
3.188515 0.957830 0.433052 51.000000
3.190486 0.947760 0.432933 32.000000
3.196237 0.938807 0.433290 33.000000
3.196242 0.928165 0.432933 48.000000
3.197166 0.917807 0.432695 53.000000
3.197101 0.907179 0.432338 42.000000
3.201781 0.897903 0.432576 40.000000
3.203564 0.887811 0.432457 46.000000
3.207230 0.878241 0.432576 42.000000
3.209910 0.868397 0.432576 38.000000
3.214477 0.859058 0.432814 57.000000
3.218057 0.849446 0.432933 42.000000
3.218727 0.839068 0.432695 55.000000
3.223209 0.829685 0.432933 54.000000
3.227664 0.820282 0.433171 33.000000
3.227276 0.809650 0.432814 36.000000
3.224926 0.798550 0.432220 41.000000
3.229290 0.789124 0.432457 45.000000
3.234591 0.779912 0.432814 43.000000
3.231174 0.768604 0.432101 38.000000
3.232550 0.758461 0.431982 46.000000
3.236796 0.748988 0.432220 27.000000
3.241983 0.739718 0.432576 40.000000
3.254892 0.732169 0.433885 57.000000
3.255184 0.721749 0.433647 39.000000
3.258353 0.711971 0.433766 46.000000
3.265375 0.703018 0.434360 54.000000
3.264602 0.692377 0.434003 54.000000
3.267683 0.682562 0.434122 49.000000
3.269762 0.672534 0.434122 50.000000
3.267918 0.661709 0.433647 47.000000
3.272853 0.652264 0.434003 44.000000
3.274839 0.642220 0.434003 53.000000
3.279719 0.632735 0.434360 51.000000
3.280669 0.622484 0.434241 41.000000
3.277683 0.611504 0.433647 39.000000
3.279544 0.601446 0.433647 45.000000
3.284305 0.591911 0.434003 41.000000
3.283173 0.581311 0.433647 41.000000
3.287875 0.571747 0.434003 41.000000
3.287656 0.561323 0.433766 45.000000
3.288383 0.551069 0.433647 37.000000
3.292998 0.541462 0.434003 45.000000
3.296604 0.531674 0.434241 40.000000
3.298220 0.521558 0.434241 48.000000
3.300786 0.511589 0.434360 44.000000
3.301358 0.501310 0.434241 38.000000
3.308773 0.492058 0.434955 43.000000
3.314197 0.482478 0.435430 49.000000
3.317627 0.472588 0.435668 49.000000
3.320045 0.462545 0.435787 44.000000
3.322432 0.452492 0.435906 47.000000
3.325773 0.442559 0.436144 62.000000
3.331053 0.432867 0.436620 32.000000
3.331381 0.422520 0.436501 29.000000
3.332661 0.412298 0.436501 43.000000
3.336868 0.402429 0.436858 37.000000
3.340059 0.392422 0.437095 54.000000
3.346179 0.382739 0.437690 41.000000
3.353258 0.373132 0.438404 48.000000
3.356362 0.363057 0.438641 37.000000
3.361409 0.353174 0.439117 52.000000
3.363465 0.342961 0.439236 38.000000
3.364501 0.332640 0.439236 43.000000
3.364517 0.322222 0.439117 41.000000
3.367467 0.312082 0.439355 33.000000
3.366431 0.301571 0.439117 40.000000
3.368330 0.291328 0.439236 59.000000
3.367229 0.280827 0.438998 47.000000
3.369064 0.270575 0.439117 33.000000
3.372848 0.260468 0.439474 35.000000
3.381553 0.250709 0.440425 28.000000
3.171686 1.114359 0.395531 18.000000
3.147856 1.095152 0.392434 50.000000
3.142740 1.082576 0.391473 52.000000
3.155457 1.076137 0.392541 31.000000
3.154975 1.065180 0.392114 44.000000
3.152570 1.053605 0.391473 22.000000
3.147292 1.041119 0.390512 32.000000
3.154251 1.032695 0.390939 47.000000
3.156459 1.022707 0.390833 35.000000
3.156741 1.012108 0.390512 40.000000
3.156040 1.001216 0.390085 32.000000
3.160994 0.992124 0.390299 42.000000
3.164973 0.982716 0.390406 34.000000
3.168923 0.973293 0.390512 31.000000
3.169991 0.962989 0.390299 52.000000
3.171979 0.952973 0.390192 36.000000
3.175841 0.943520 0.390299 43.000000
3.176812 0.933212 0.390085 34.000000
3.176796 0.922630 0.389765 45.000000
3.180567 0.913154 0.389872 42.000000
3.183354 0.903391 0.389872 32.000000
3.184196 0.893084 0.389658 28.000000
3.186921 0.883311 0.389658 37.000000
3.186738 0.872742 0.389338 56.000000
3.186522 0.862182 0.389017 53.000000
3.186270 0.851632 0.388697 42.000000
3.189829 0.842106 0.388804 43.000000
3.188549 0.831313 0.388377 45.000000
3.194936 0.822518 0.388804 40.000000
3.204190 0.814426 0.389551 30.000000
3.209567 0.805317 0.389872 33.000000
3.212988 0.795706 0.389978 41.000000
3.217346 0.786317 0.390192 36.000000
3.221676 0.776908 0.390406 48.000000
3.225012 0.767251 0.390512 43.000000
3.227350 0.757353 0.390512 46.000000
3.232565 0.748120 0.390833 37.000000
3.236784 0.738641 0.391046 46.000000
3.241945 0.729362 0.391367 41.000000
3.242226 0.718982 0.391153 43.000000
3.237617 0.707546 0.390406 39.000000
3.240744 0.697819 0.390512 31.000000
3.242870 0.687874 0.390512 31.000000
3.246911 0.678328 0.390726 23.000000
3.247029 0.667963 0.390512 29.000000
3.244191 0.657012 0.389978 30.000000
3.245216 0.646861 0.389872 29.000000
3.253039 0.638050 0.390512 45.000000
3.246195 0.626372 0.389551 40.000000
3.247125 0.616225 0.389444 36.000000
3.249977 0.606442 0.389551 46.000000
3.254757 0.597006 0.389872 41.000000
3.262444 0.588076 0.390512 31.000000
3.270108 0.579103 0.391153 43.000000
3.269909 0.568728 0.390939 30.000000
3.273599 0.559028 0.391153 35.000000
3.281183 0.549967 0.391794 41.000000
3.279911 0.539414 0.391473 44.000000
3.283514 0.529666 0.391687 30.000000
3.287087 0.519900 0.391901 32.000000
3.282771 0.508900 0.391260 45.000000
3.287266 0.499273 0.391580 49.000000
3.292717 0.489770 0.392007 36.000000
3.292236 0.479380 0.391794 32.000000
3.297629 0.469838 0.392221 42.000000
3.295115 0.459170 0.391794 34.000000
3.296509 0.449059 0.391794 43.000000
3.306741 0.440123 0.392755 47.000000
3.309062 0.430104 0.392862 54.000000
3.314311 0.420450 0.393289 56.000000
3.319533 0.410767 0.393716 41.000000
3.319790 0.400462 0.393609 42.000000
3.324953 0.390739 0.394036 38.000000
3.332064 0.381214 0.394677 39.000000
3.327288 0.370330 0.394036 38.000000
3.331374 0.360441 0.394357 34.000000
3.334442 0.350427 0.394570 34.000000
3.336491 0.340296 0.394677 29.000000
3.340487 0.330351 0.394997 39.000000
3.342475 0.320196 0.395104 35.000000
3.344432 0.310031 0.395211 27.000000
3.350319 0.300213 0.395745 30.000000
3.350233 0.289847 0.395638 25.000000
3.352098 0.279650 0.395745 23.000000
3.357895 0.269762 0.396279 23.000000
3.363664 0.259841 0.396813 22.000000
3.117517 1.073159 0.349243 33.000000
3.114199 1.061339 0.348578 41.000000
3.117440 1.051780 0.348578 33.000000
3.120653 1.042211 0.348578 44.000000
3.119110 1.031068 0.348103 33.000000
3.121313 1.021184 0.348008 37.000000
3.127272 1.012524 0.348293 38.000000
3.122780 1.000493 0.347533 42.000000
3.125835 0.990907 0.347533 45.000000
3.135509 0.983400 0.348198 42.000000
3.130906 0.971414 0.347438 42.000000
3.136726 0.962681 0.347723 52.000000
3.139665 0.953053 0.347723 38.000000
3.145434 0.944276 0.348008 53.000000
3.152133 0.935756 0.348388 40.000000
3.154034 0.925800 0.348293 48.000000
3.148256 0.913619 0.347438 51.000000
3.151044 0.903956 0.347438 43.000000
3.151887 0.893741 0.347248 44.000000
3.152697 0.883529 0.347058 39.000000
3.147719 0.871724 0.346299 46.000000
3.144618 0.860485 0.345729 42.000000
3.145321 0.850313 0.345539 40.000000
3.150800 0.841430 0.345824 37.000000
3.152405 0.831506 0.345729 45.000000
3.156867 0.822333 0.345919 49.000000
3.161303 0.813141 0.346109 48.000000
3.165713 0.803929 0.346299 50.000000
3.174923 0.795910 0.346963 41.000000
3.181215 0.787123 0.347343 39.000000
3.187482 0.778306 0.347723 42.000000
3.188888 0.768289 0.347628 43.000000
3.191230 0.758502 0.347628 52.000000
3.197418 0.749618 0.348008 53.000000
3.201643 0.740255 0.348198 54.000000
3.202928 0.730207 0.348103 43.000000
3.205153 0.720377 0.348103 45.000000
3.210264 0.711187 0.348388 47.000000
3.211458 0.701122 0.348293 54.000000
3.210675 0.690637 0.348008 56.000000
3.209857 0.680164 0.347723 51.000000
3.212903 0.670517 0.347818 58.000000
3.212020 0.660054 0.347533 49.000000
3.215005 0.650395 0.347628 45.000000
3.213081 0.639749 0.347248 37.000000
3.216005 0.630080 0.347343 51.000000
3.218901 0.620399 0.347438 48.000000
3.221766 0.610707 0.347533 52.000000
3.228518 0.601733 0.348008 42.000000
3.233286 0.592365 0.348293 38.000000
3.236068 0.582619 0.348388 55.000000
3.242741 0.573557 0.348863 47.000000
3.247427 0.564118 0.349148 38.000000
3.253068 0.554823 0.349528 45.000000
3.256719 0.545170 0.349718 49.000000
3.255429 0.534691 0.349433 56.000000
3.260002 0.525177 0.349718 43.000000
3.260615 0.515017 0.349623 41.000000
3.261196 0.504858 0.349528 43.000000
3.265682 0.495300 0.349813 72.000000
3.265217 0.484985 0.349623 37.000000
3.265705 0.474822 0.349528 49.000000
3.273059 0.465644 0.350098 46.000000
3.272500 0.455325 0.349908 57.000000
3.277827 0.445821 0.350288 46.000000
3.281153 0.436026 0.350478 46.000000
3.277539 0.425315 0.350003 50.000000
3.283766 0.415885 0.350478 39.000000
3.281075 0.405319 0.350098 52.000000
3.270444 0.393818 0.348958 70.000000
3.286466 0.385528 0.350383 40.000000
3.283678 0.374990 0.350003 59.000000
3.286792 0.365135 0.350193 54.000000
3.291855 0.355478 0.350573 51.000000
3.292930 0.345377 0.350573 46.000000
3.292984 0.335172 0.350478 52.000000
3.295978 0.325264 0.350668 53.000000
3.294979 0.314960 0.350478 62.000000
3.295929 0.304850 0.350478 45.000000
3.295858 0.294647 0.350383 37.000000
3.295754 0.284449 0.350288 53.000000
3.302563 0.274833 0.350857 32.000000
3.304384 0.264780 0.350952 40.000000
3.298233 0.254103 0.350288 19.000000
3.097674 1.056438 0.305676 31.000000
3.099956 1.046611 0.305594 34.000000
3.099372 1.035833 0.305264 35.000000
3.094965 1.023816 0.304604 34.000000
3.090514 1.011836 0.303945 47.000000
3.086967 1.000200 0.303367 52.000000
3.085276 0.989204 0.302955 44.000000
3.088297 0.979734 0.302955 48.000000
3.095091 0.971448 0.303285 24.000000
3.098057 0.961948 0.303285 40.000000
3.108615 0.954778 0.303945 41.000000
3.118205 0.947264 0.304522 56.000000
3.123960 0.938553 0.304769 58.000000
3.128736 0.929531 0.304934 35.000000
3.126791 0.918524 0.304522 44.000000
3.133423 0.910039 0.304852 35.000000
3.128537 0.898222 0.304192 46.000000
3.128402 0.887804 0.303945 51.000000
3.131111 0.878202 0.303945 48.000000
3.137632 0.869656 0.304275 46.000000
3.139324 0.859762 0.304192 51.000000
3.142909 0.850387 0.304275 57.000000
3.144540 0.840484 0.304192 46.000000
3.144213 0.830069 0.303945 52.000000
3.144816 0.819917 0.303780 52.000000
3.146352 0.810016 0.303697 48.000000
3.139163 0.797906 0.302873 47.000000
3.145463 0.789241 0.303203 41.000000
3.151739 0.780545 0.303532 52.000000
3.157991 0.771818 0.303862 35.000000
3.162282 0.762592 0.304027 28.000000
3.168485 0.753809 0.304357 42.000000
3.174664 0.744995 0.304687 54.000000
3.178876 0.735701 0.304852 36.000000
3.179175 0.725502 0.304687 46.000000
3.180413 0.715526 0.304604 54.000000
3.183567 0.705981 0.304687 50.000000
3.189612 0.697062 0.305017 47.000000
3.190762 0.687063 0.304934 47.000000
3.190905 0.676857 0.304769 53.000000
3.196868 0.667879 0.305099 38.000000
3.202807 0.658871 0.305429 55.000000
3.204813 0.649042 0.305429 59.000000
3.202880 0.638428 0.305099 52.000000
3.205802 0.628790 0.305182 47.000000
3.210651 0.619518 0.305429 40.000000
3.215474 0.610222 0.305676 41.000000
3.221250 0.601085 0.306006 45.000000
3.219158 0.590481 0.305676 55.000000
3.226839 0.581662 0.306171 42.000000
3.234497 0.572801 0.306666 45.000000
3.236239 0.562875 0.306666 44.000000
3.238933 0.553112 0.306748 34.000000
3.239632 0.543008 0.306666 54.000000
3.238332 0.532581 0.306419 37.000000
3.238967 0.522485 0.306336 50.000000
3.236617 0.511923 0.306006 50.000000
3.241127 0.502449 0.306254 35.000000
3.238712 0.491904 0.305924 36.000000
3.235277 0.481233 0.305511 38.000000
3.239697 0.471736 0.305759 40.000000
3.241129 0.461794 0.305759 44.000000
3.246479 0.452398 0.306089 47.000000
3.248839 0.442571 0.306171 29.000000
3.253145 0.432995 0.306419 46.000000
3.256435 0.423269 0.306583 33.000000
3.257718 0.413277 0.306583 49.000000
3.261937 0.403647 0.306831 36.000000
3.262171 0.393519 0.306748 40.000000
3.259404 0.383044 0.306419 56.000000
3.267495 0.373834 0.306996 39.000000
3.267636 0.363698 0.306913 45.000000
3.271709 0.353993 0.307161 45.000000
3.272779 0.343953 0.307161 38.000000
3.272828 0.333810 0.307078 43.000000
3.274828 0.323866 0.307161 41.000000
3.280767 0.314292 0.307573 43.000000
3.280723 0.304133 0.307490 57.000000
3.281641 0.294066 0.307490 43.000000
3.292457 0.284855 0.308315 31.000000
3.296294 0.275001 0.308562 35.000000
3.299109 0.265046 0.308727 27.000000
3.309844 0.255690 0.309552 28.000000
3.204268 0.237659 0.300729 7.000000
3.030227 1.031513 0.261706 12.000000
3.050390 1.027951 0.262977 34.000000
3.051637 1.017956 0.262836 36.000000
3.051905 1.007650 0.262624 27.000000
3.059722 0.999833 0.262977 56.000000
3.062775 0.990441 0.262977 46.000000
3.066749 0.981344 0.263048 50.000000
3.068794 0.971630 0.262977 28.000000
3.071761 0.962210 0.262977 49.000000
3.074698 0.952781 0.262977 37.000000
3.078561 0.943637 0.263048 58.000000
3.080487 0.933898 0.262977 35.000000
3.087159 0.925590 0.263259 36.000000
3.089984 0.916114 0.263259 42.000000
3.098523 0.908315 0.263683 37.000000
3.106085 0.900195 0.264036 44.000000
3.109791 0.890937 0.264107 54.000000
3.116348 0.882480 0.264389 34.000000
3.120001 0.873185 0.264460 47.000000
3.122666 0.863608 0.264460 40.000000
3.125300 0.854024 0.264460 40.000000
3.125017 0.843651 0.264248 39.000000
3.121808 0.832515 0.263824 39.000000
3.124348 0.822934 0.263824 43.000000
3.122031 0.812087 0.263471 45.000000
3.120644 0.801511 0.263189 42.000000
3.118254 0.790706 0.262836 43.000000
3.119698 0.780893 0.262765 39.000000
3.122079 0.771318 0.262765 49.000000
3.130244 0.763156 0.263189 38.000000
3.135480 0.754249 0.263401 36.000000
3.140691 0.745318 0.263613 43.000000
3.145876 0.736363 0.263824 48.000000
3.146177 0.726258 0.263683 50.000000
3.150335 0.717046 0.263824 45.000000
3.149601 0.706721 0.263613 42.000000
3.145911 0.695760 0.263189 50.000000
3.150954 0.686744 0.263401 41.000000
3.156947 0.677913 0.263683 39.000000
3.159988 0.668431 0.263754 37.000000
3.165929 0.659548 0.264036 35.000000
3.165984 0.649431 0.263895 45.000000
3.169917 0.640110 0.264036 37.000000
3.172844 0.630577 0.264107 41.000000
3.170848 0.620073 0.263824 51.000000
3.175674 0.610908 0.264036 44.000000
3.181453 0.601905 0.264319 38.000000
3.187207 0.592873 0.264601 45.000000
3.189992 0.583272 0.264672 47.000000
3.194712 0.574013 0.264884 53.000000
3.198423 0.564556 0.265025 38.000000
3.214882 0.557302 0.266085 29.000000
3.199860 0.544585 0.264884 40.000000
3.201516 0.534765 0.264884 39.000000
3.204126 0.525102 0.264955 31.000000
3.205722 0.515270 0.264955 41.000000
3.205317 0.505121 0.264813 52.000000
3.207837 0.495438 0.264884 39.000000
3.209342 0.485594 0.264884 36.000000
3.211803 0.475892 0.264955 33.000000
3.216209 0.466467 0.265166 36.000000
3.217626 0.456597 0.265166 42.000000
3.218023 0.446586 0.265096 45.000000
3.224320 0.437383 0.265449 49.000000
3.229602 0.428015 0.265731 52.000000
3.229911 0.417976 0.265661 35.000000
3.235137 0.408566 0.265943 57.000000
3.231425 0.398028 0.265590 43.000000
3.233621 0.388231 0.265661 46.000000
3.232816 0.378076 0.265520 31.000000
3.231978 0.367930 0.265378 42.000000
3.235074 0.358233 0.265520 41.000000
3.239134 0.348628 0.265731 43.000000
3.237211 0.338376 0.265520 40.000000
3.237242 0.328342 0.265449 45.000000
3.240219 0.318605 0.265590 41.000000
3.242175 0.308757 0.265661 46.000000
3.250059 0.299452 0.266155 43.000000
3.253943 0.289746 0.266367 33.000000
3.255811 0.279848 0.266438 44.000000
3.275542 0.271429 0.267780 17.000000
3.269399 0.260821 0.267285 32.000000
3.271178 0.250866 0.267356 30.000000
3.266958 0.240461 0.267003 22.000000
3.037967 1.035495 0.222011 30.000000
3.042075 1.026488 0.222069 33.000000
3.044263 1.016834 0.222011 45.000000
3.052108 1.009056 0.222301 27.000000
3.056138 0.999998 0.222359 49.000000
3.053493 0.988773 0.222011 48.000000
3.055562 0.979096 0.221953 43.000000
3.062358 0.970923 0.222185 48.000000
3.063416 0.960926 0.222069 39.000000
3.068257 0.952115 0.222185 44.000000
3.069255 0.942111 0.222069 40.000000
3.066399 0.930951 0.221720 50.000000
3.074022 0.922974 0.222011 39.000000
3.076839 0.913538 0.222011 45.000000
3.075796 0.902970 0.221778 55.000000
3.080469 0.894086 0.221895 45.000000
3.085117 0.885181 0.222011 54.000000
3.090699 0.876529 0.222185 43.000000
3.096258 0.867851 0.222359 45.000000
3.097944 0.858081 0.222301 41.000000
3.099599 0.848309 0.222243 46.000000
3.102186 0.838796 0.222243 49.000000
3.102816 0.828759 0.222127 44.000000
3.101483 0.818218 0.221895 43.000000
3.102047 0.808196 0.221778 40.000000
3.105479 0.798924 0.221837 45.000000
3.106947 0.789147 0.221778 58.000000
3.108385 0.779368 0.221720 38.000000
3.112700 0.770308 0.221837 51.000000
3.116018 0.760991 0.221895 35.000000
3.117368 0.751194 0.221837 47.000000
3.119658 0.741627 0.221837 44.000000
3.122890 0.732280 0.221895 52.000000
3.121232 0.721796 0.221662 40.000000
3.126351 0.712883 0.221837 54.000000
3.126576 0.702850 0.221720 52.000000
3.128717 0.693255 0.221720 39.000000
3.132780 0.684078 0.221837 51.000000
3.135840 0.674674 0.221895 59.000000
3.142779 0.666084 0.222185 42.000000
3.145784 0.656643 0.222243 43.000000
3.149740 0.647391 0.222359 44.000000
3.151711 0.637724 0.222359 55.000000
3.153653 0.628052 0.222359 37.000000
3.154585 0.618182 0.222301 41.000000
3.157447 0.608690 0.222359 37.000000
3.156358 0.598442 0.222185 34.000000
3.159160 0.588939 0.222243 44.000000
3.160952 0.579244 0.222243 33.000000
3.163697 0.569720 0.222301 42.000000
3.169362 0.560707 0.222534 56.000000
3.175985 0.551835 0.222824 60.000000
3.175695 0.541753 0.222708 44.000000
3.190143 0.534149 0.223463 60.000000
3.184870 0.523227 0.223056 36.000000
3.189417 0.513930 0.223231 38.000000
3.195910 0.504921 0.223521 39.000000
3.196457 0.494961 0.223463 44.000000
3.197960 0.485152 0.223463 44.000000
3.202396 0.475778 0.223637 49.000000
3.201865 0.465664 0.223521 32.000000
3.201302 0.455557 0.223405 55.000000
3.203673 0.445871 0.223463 56.000000
3.204037 0.435906 0.223405 53.000000
3.209318 0.426600 0.223637 59.000000
3.209621 0.416623 0.223579 48.000000
3.210884 0.406774 0.223579 40.000000
3.209145 0.396555 0.223405 51.000000
3.215302 0.387304 0.223695 47.000000
3.218458 0.377670 0.223811 37.000000
3.215634 0.367341 0.223579 36.000000
3.219723 0.357805 0.223753 49.000000
3.223783 0.348246 0.223928 40.000000
3.226822 0.338562 0.224044 44.000000
3.236784 0.329570 0.224567 45.000000
3.238774 0.319736 0.224625 45.000000
3.245702 0.310368 0.224973 24.000000
3.246639 0.300409 0.224973 35.000000
3.251523 0.290802 0.225206 39.000000
3.255383 0.281082 0.225380 28.000000
3.256230 0.271093 0.225380 31.000000
3.260032 0.261341 0.225554 35.000000
3.253851 0.250802 0.225147 30.000000
3.263566 0.241480 0.225670 30.000000
3.180642 0.225545 0.220791 10.000000
3.023375 1.028592 0.183262 24.000000
3.022730 1.018035 0.183077 25.000000
3.025839 1.008756 0.183077 30.000000
3.031765 1.000408 0.183215 36.000000
3.028174 0.988929 0.182892 26.000000
3.032144 0.979942 0.182938 19.000000
3.031331 0.969416 0.182753 21.000000
3.038100 0.961318 0.182938 38.000000
3.039128 0.951396 0.182846 24.000000
3.044895 0.942955 0.182984 44.000000
3.047774 0.933609 0.182984 29.000000
3.044888 0.922514 0.182707 19.000000
3.051532 0.914316 0.182892 35.000000
3.048576 0.903245 0.182614 36.000000
3.053250 0.894450 0.182707 30.000000
3.055979 0.885079 0.182707 31.000000
3.050039 0.873221 0.182291 26.000000
3.055586 0.864677 0.182429 29.000000
3.056301 0.854760 0.182337 29.000000
3.058909 0.845379 0.182337 25.000000
3.069196 0.838099 0.182707 28.000000
3.072718 0.828939 0.182753 33.000000
3.075246 0.819508 0.182753 32.000000
3.076780 0.809815 0.182707 35.000000
3.081184 0.800875 0.182799 32.000000
3.080724 0.790672 0.182661 27.000000
3.078294 0.779988 0.182429 26.000000
3.078734 0.770055 0.182337 28.000000
3.083022 0.761086 0.182429 32.000000
3.087283 0.752097 0.182522 24.000000
3.093461 0.743557 0.182707 19.000000
3.095727 0.734063 0.182707 28.000000
3.105746 0.726385 0.183077 22.000000
3.108933 0.717078 0.183123 26.000000
3.111118 0.707536 0.183123 25.000000
3.115224 0.698426 0.183215 27.000000
3.115401 0.688434 0.183123 26.000000
3.116522 0.678660 0.183077 36.000000
3.122496 0.669935 0.183262 23.000000
3.123560 0.660145 0.183215 19.000000
3.124592 0.650355 0.183169 25.000000
3.126573 0.640766 0.183169 24.000000
3.131461 0.631764 0.183308 28.000000
3.136324 0.622739 0.183447 12.000000
3.149004 0.615225 0.183955 26.000000
3.153819 0.606128 0.184094 20.000000
3.162534 0.597750 0.184418 26.000000
3.174174 0.589873 0.184880 30.000000
3.188742 0.582470 0.185481 22.000000
3.188548 0.572331 0.185388 29.000000
3.195207 0.563415 0.185620 32.000000
3.204795 0.554976 0.185990 24.000000
3.211406 0.545980 0.186221 27.000000
3.194346 0.532995 0.185342 37.000000
3.201880 0.524163 0.185620 28.000000
3.202487 0.514178 0.185573 31.000000
3.208983 0.505129 0.185805 26.000000
3.190774 0.492229 0.184880 31.000000
3.197207 0.483185 0.185111 27.000000
3.194722 0.472788 0.184926 25.000000
3.187261 0.461692 0.184510 23.000000
3.188662 0.451912 0.184510 28.000000
3.190034 0.442127 0.184510 27.000000
3.183456 0.431262 0.184140 13.000000
3.201599 0.423728 0.184926 29.000000
3.199912 0.413518 0.184787 40.000000
3.198192 0.403323 0.184649 39.000000
3.197432 0.393264 0.184556 25.000000
3.197631 0.383334 0.184510 33.000000
3.198792 0.373522 0.184510 36.000000
3.199924 0.363706 0.184510 34.000000
3.199038 0.353667 0.184418 26.000000
3.208054 0.344708 0.184787 19.000000
3.211083 0.335072 0.184880 32.000000
3.218059 0.325825 0.185157 38.000000
3.220038 0.316048 0.185204 23.000000
3.222981 0.306358 0.185296 38.000000
3.222911 0.296376 0.185250 38.000000
3.224800 0.286576 0.185296 35.000000
3.227654 0.276853 0.185388 34.000000
3.226498 0.266784 0.185296 26.000000
3.226305 0.256804 0.185250 29.000000
3.226082 0.246828 0.185204 26.000000
3.210884 0.235753 0.184464 24.000000
3.194653 0.224704 0.183678 15.000000
3.463351 0.890304 0.156771 19.000000
3.484473 0.884343 0.157414 34.000000
3.512376 0.879961 0.158294 51.000000
3.507298 0.867263 0.158023 41.000000
3.519651 0.858867 0.158362 54.000000
3.532958 0.850637 0.158734 66.000000
3.535551 0.839794 0.158734 70.000000
3.502106 0.820511 0.157482 44.000000
3.517267 0.812687 0.157922 47.000000
3.531437 0.804555 0.158328 57.000000
3.510485 0.788463 0.157515 46.000000
3.547041 0.785246 0.158700 71.000000
3.544551 0.773296 0.158531 59.000000
3.536159 0.760109 0.158159 52.000000
3.544341 0.750498 0.158362 54.000000
3.551519 0.740640 0.158531 59.000000
3.544963 0.727932 0.158226 55.000000
3.556976 0.719032 0.158565 58.000000
3.519955 0.700320 0.157211 40.000000
3.525030 0.690093 0.157312 43.000000
3.565406 0.686642 0.158633 64.000000
3.533126 0.669194 0.157448 49.000000
3.551866 0.661461 0.158023 45.000000
3.536182 0.647323 0.157414 30.000000
3.581433 0.644252 0.158903 51.000000
3.605045 0.637085 0.159648 58.000000
3.598120 0.624485 0.159343 49.000000
3.629576 0.618477 0.160359 68.000000
3.631456 0.607338 0.160359 62.000000
3.638234 0.597003 0.160528 68.000000
3.641035 0.585997 0.160562 44.000000
3.638867 0.574201 0.160427 15.000000
3.537098 0.909290 0.114890 18.000000
3.539871 0.898434 0.114890 21.000000
3.527096 0.883677 0.114544 33.000000
3.530761 0.873092 0.114566 42.000000
3.530509 0.861544 0.114501 41.000000
3.529248 0.849771 0.114414 41.000000
3.526003 0.837551 0.114284 68.000000
3.524662 0.825816 0.114198 77.000000
3.527179 0.814999 0.114198 36.000000
3.530638 0.804396 0.114219 60.000000
3.532114 0.793341 0.114198 62.000000
3.535507 0.782717 0.114219 53.000000
3.542775 0.772934 0.114328 52.000000
3.548062 0.762693 0.114393 41.000000
3.550385 0.751804 0.114393 44.000000
3.552675 0.740908 0.114393 46.000000
3.553952 0.729803 0.114371 49.000000
3.561074 0.719889 0.114479 58.000000
3.562285 0.708764 0.114458 52.000000
3.564443 0.697832 0.114458 53.000000
3.571475 0.687840 0.114566 37.000000
3.579462 0.677998 0.114696 36.000000
3.588405 0.668297 0.114847 40.000000
3.596339 0.658367 0.114977 37.000000
3.597358 0.647153 0.114955 30.000000
3.609171 0.637856 0.115172 43.000000
3.613080 0.627123 0.115215 53.000000
3.615973 0.616204 0.115237 57.000000
3.618832 0.605273 0.115258 61.000000
3.620672 0.594167 0.115258 36.000000
3.618530 0.582420 0.115172 48.000000
3.682512 0.581153 0.116535 8.000000
3.531055 0.895507 0.069732 23.000000
3.529906 0.883699 0.069695 21.000000
3.533571 0.873105 0.069704 50.000000
3.526518 0.859892 0.069612 39.000000
3.523306 0.847666 0.069556 43.000000
3.522971 0.836160 0.069528 37.000000
3.521625 0.824437 0.069491 50.000000
3.525112 0.813854 0.069501 73.000000
3.521742 0.801704 0.069445 41.000000
3.527112 0.791552 0.069473 59.000000
3.529524 0.780727 0.069473 58.000000
3.530926 0.769682 0.069464 54.000000
3.529360 0.758006 0.069427 59.000000
3.533625 0.747589 0.069445 48.000000
3.535903 0.736744 0.069445 45.000000
3.539126 0.726093 0.069454 51.000000
3.544277 0.715826 0.069482 36.000000
3.545476 0.704754 0.069473 34.000000
3.544677 0.693298 0.069445 40.000000
3.548752 0.682797 0.069464 37.000000
3.556725 0.673021 0.069519 38.000000
3.559756 0.662289 0.069528 23.000000
3.576526 0.654062 0.069667 43.000000
3.590326 0.645207 0.069778 50.000000
3.608045 0.636969 0.069926 67.000000
3.613923 0.626579 0.069963 69.000000
3.610899 0.614651 0.069917 49.000000
3.610795 0.603240 0.069898 47.000000
3.610656 0.591836 0.069880 48.000000
3.607518 0.579963 0.069834 35.000000
3.672498 0.578850 0.070426 8.000000
3.530016 0.895929 0.024155 17.000000
3.528869 0.884122 0.024168 30.000000
3.529623 0.872811 0.024175 32.000000
3.526456 0.860553 0.024195 44.000000
3.521302 0.847855 0.024221 58.000000
3.519995 0.836122 0.024235 55.000000
3.519624 0.824634 0.024245 49.000000
3.512394 0.811577 0.024278 75.000000
3.516818 0.801243 0.024271 55.000000
3.513406 0.789133 0.024291 55.000000
3.514834 0.778134 0.024294 47.000000
3.522089 0.768414 0.024278 37.000000
3.514654 0.755500 0.024311 53.000000
3.515977 0.744506 0.024314 44.000000
3.520203 0.734125 0.024308 41.000000
3.520479 0.722918 0.024314 44.000000
3.526601 0.712908 0.024301 53.000000
3.528771 0.702085 0.024301 45.000000
3.530909 0.691256 0.024301 38.000000
3.532031 0.680231 0.024304 34.000000
3.539996 0.670510 0.024284 45.000000
3.550884 0.661297 0.024255 41.000000
3.561748 0.652023 0.024225 32.000000
3.572589 0.642689 0.024195 37.000000
3.583406 0.633295 0.024165 42.000000
3.594199 0.623840 0.024135 50.000000
3.607925 0.614830 0.024095 47.000000
3.617684 0.605080 0.024069 26.000000
3.623471 0.594627 0.024056 30.000000
3.625278 0.583508 0.024056 27.000000
3.628038 0.572539 0.024052 15.000000
3.549966 0.913217 -0.021155 12.000000
3.537245 0.898385 -0.020903 21.000000
3.526406 0.884126 -0.020684 33.000000
3.517454 0.870422 -0.020495 42.000000
3.520108 0.859626 -0.020495 42.000000
3.518840 0.847886 -0.020432 37.000000
3.515588 0.835700 -0.020338 40.000000
3.514241 0.823997 -0.020275 32.000000
3.507985 0.811185 -0.020134 52.000000
3.500709 0.798198 -0.019977 69.000000
3.501190 0.787015 -0.019945 56.000000
3.499683 0.775406 -0.019882 48.000000
3.502045 0.764665 -0.019882 63.000000
3.506330 0.754338 -0.019914 47.000000
3.509606 0.743784 -0.019930 57.000000
3.511871 0.733013 -0.019930 81.000000
3.515083 0.722437 -0.019945 69.000000
3.518263 0.711847 -0.019961 64.000000
3.516507 0.700269 -0.019898 52.000000
3.516677 0.689093 -0.019867 63.000000
3.519757 0.678490 -0.019882 48.000000
3.527716 0.668805 -0.019977 50.000000
3.538598 0.659627 -0.020118 49.000000
3.551424 0.650749 -0.020291 42.000000
3.565212 0.641976 -0.020479 63.000000
3.576027 0.632601 -0.020621 54.000000
3.590757 0.623851 -0.020825 65.000000
3.601525 0.614344 -0.020966 52.000000
3.615227 0.605272 -0.021155 35.000000
3.622987 0.595149 -0.021249 41.000000
3.627757 0.584508 -0.021296 35.000000
3.639410 0.574935 -0.021453 34.000000
3.568036 0.552453 -0.020291 8.000000
3.531727 0.907907 -0.064603 20.000000
3.524807 0.894605 -0.064326 31.000000
3.522687 0.882571 -0.064187 31.000000
3.510824 0.868155 -0.063771 47.000000
3.508616 0.856194 -0.063632 32.000000
3.505395 0.844020 -0.063465 33.000000
3.501161 0.831642 -0.063271 48.000000
3.495910 0.819070 -0.063049 38.000000
3.494511 0.807439 -0.062938 48.000000
3.489176 0.794936 -0.062716 39.000000
3.490623 0.784008 -0.062689 57.000000
3.490084 0.772646 -0.062605 58.000000
3.492438 0.761935 -0.062605 43.000000
3.493782 0.751006 -0.062578 46.000000
3.495091 0.740076 -0.062550 43.000000
3.496367 0.729146 -0.062522 46.000000
3.501525 0.719020 -0.062605 50.000000
3.505674 0.708671 -0.062661 48.000000
3.506851 0.697717 -0.062633 43.000000
3.510937 0.687339 -0.062689 46.000000
3.517937 0.677511 -0.062827 52.000000
3.524909 0.667647 -0.062966 48.000000
3.534802 0.658296 -0.063188 43.000000
3.539755 0.647990 -0.063271 46.000000
3.546645 0.638013 -0.063410 36.000000
3.555476 0.628349 -0.063604 33.000000
3.567235 0.619151 -0.063882 32.000000
3.582913 0.610559 -0.064270 38.000000
3.596600 0.601547 -0.064603 30.000000
3.611251 0.592618 -0.064964 29.000000
3.624895 0.583446 -0.065297 29.000000
3.630617 0.572947 -0.065408 22.000000
3.640260 0.563030 -0.065630 27.000000
3.527069 0.895801 -0.109978 17.000000
3.520108 0.882547 -0.109575 31.000000
3.516010 0.870064 -0.109293 40.000000
3.513809 0.858089 -0.109091 64.000000
3.502825 0.844029 -0.108527 71.000000
3.502482 0.832586 -0.108406 61.000000
3.495291 0.819556 -0.108003 63.000000
3.491948 0.807479 -0.107761 62.000000
3.487590 0.795208 -0.107479 44.000000
3.488063 0.784066 -0.107398 47.000000
3.486550 0.772497 -0.107237 49.000000
3.483046 0.760519 -0.106995 56.000000
3.482433 0.749199 -0.106874 34.000000
3.482760 0.738098 -0.106794 56.000000
3.485986 0.727613 -0.106834 42.000000
3.493095 0.717920 -0.107036 45.000000
3.496261 0.707398 -0.107076 51.000000
3.505274 0.698034 -0.107358 38.000000
3.514264 0.688621 -0.107640 40.000000
3.519303 0.678403 -0.107761 45.000000
3.530204 0.669277 -0.108124 44.000000
3.535187 0.658992 -0.108245 44.000000
3.537192 0.648143 -0.108245 52.000000
3.547031 0.638704 -0.108567 31.000000
3.556845 0.629210 -0.108890 49.000000
3.566634 0.619663 -0.109212 51.000000
3.576399 0.610061 -0.109535 44.000000
3.583181 0.599910 -0.109736 48.000000
3.592892 0.590209 -0.110059 42.000000
3.604551 0.580772 -0.110462 25.000000
3.513915 0.890537 -0.152972 18.000000
3.519536 0.880481 -0.153129 17.000000
3.489261 0.861529 -0.151350 53.000000
3.496738 0.852004 -0.151612 48.000000
3.500306 0.841506 -0.151664 42.000000
3.495099 0.828917 -0.151245 50.000000
3.491792 0.816823 -0.150931 56.000000
3.488443 0.804758 -0.150617 44.000000
3.487001 0.793165 -0.150408 40.000000
3.490392 0.782682 -0.150460 65.000000
3.486927 0.770675 -0.150146 61.000000
3.475616 0.756994 -0.149413 30.000000
3.480850 0.746956 -0.149570 47.000000
3.480195 0.735653 -0.149413 26.000000
3.485368 0.725584 -0.149570 43.000000
3.491491 0.715691 -0.149780 42.000000
3.499543 0.706163 -0.150094 54.000000
3.505611 0.696203 -0.150303 59.000000
3.513610 0.686596 -0.150617 49.000000
3.520603 0.676757 -0.150879 69.000000
3.518738 0.665209 -0.150670 86.000000
3.528617 0.655873 -0.151088 58.000000
3.531595 0.645225 -0.151141 42.000000
3.538472 0.635271 -0.151402 45.000000
3.553188 0.626671 -0.152083 47.000000
3.562966 0.617133 -0.152501 39.000000
3.570749 0.607205 -0.152815 38.000000
3.579489 0.597400 -0.153182 39.000000
3.587218 0.587386 -0.153496 28.000000
3.589989 0.576536 -0.153548 23.000000
3.590755 0.565364 -0.153496 14.000000
3.501435 0.900738 -0.197229 23.000000
3.506117 0.890482 -0.197358 18.000000
3.502056 0.878024 -0.196905 46.000000
3.498921 0.865838 -0.196517 36.000000
3.492836 0.852969 -0.195935 43.000000
3.490586 0.841081 -0.195611 38.000000
3.487324 0.828984 -0.195223 47.000000
3.483050 0.816687 -0.194770 46.000000
3.480678 0.804874 -0.194446 58.000000
3.480212 0.793527 -0.194252 70.000000
3.480683 0.782408 -0.194123 53.000000
3.485016 0.772157 -0.194252 39.000000
3.481518 0.760185 -0.193864 37.000000
3.481883 0.749081 -0.193735 50.000000
3.487094 0.739016 -0.193929 45.000000
3.491298 0.728721 -0.194058 65.000000
3.496450 0.718609 -0.194252 38.000000
3.512331 0.710648 -0.195158 32.000000
3.505687 0.698116 -0.194576 51.000000
3.510750 0.687933 -0.194770 47.000000
3.514804 0.677536 -0.194899 48.000000
3.514905 0.666378 -0.194770 49.000000
3.513009 0.654860 -0.194511 66.000000
3.516964 0.644439 -0.194641 64.000000
3.523835 0.634530 -0.194964 44.000000
3.529696 0.624411 -0.195223 39.000000
3.538478 0.614774 -0.195676 34.000000
3.549201 0.605424 -0.196258 34.000000
3.558915 0.595850 -0.196776 40.000000
3.565650 0.585737 -0.197099 44.000000
3.570386 0.575271 -0.197294 39.000000
3.572134 0.564314 -0.197294 21.000000
3.577793 0.553963 -0.197552 11.000000
3.487346 0.895191 -0.239014 25.000000
3.485244 0.883261 -0.238631 31.000000
3.483101 0.871353 -0.238249 31.000000
3.478983 0.858988 -0.237713 42.000000
3.470947 0.845711 -0.236871 43.000000
3.467709 0.833658 -0.236412 48.000000
3.467340 0.822324 -0.236182 50.000000
3.466934 0.811000 -0.235952 47.000000
3.465520 0.799462 -0.235646 34.000000
3.471845 0.789712 -0.235952 52.000000
3.474251 0.779057 -0.235952 60.000000
3.476625 0.768394 -0.235952 44.000000
3.476043 0.757087 -0.235723 41.000000
3.469577 0.744533 -0.235034 40.000000
3.471844 0.733885 -0.235034 46.000000
3.472128 0.722823 -0.234881 48.000000
3.470422 0.711366 -0.234575 56.000000
3.475520 0.701308 -0.234804 38.000000
3.486456 0.692393 -0.235493 34.000000
3.489543 0.681884 -0.235570 42.000000
3.500430 0.672872 -0.236259 48.000000
3.509336 0.663429 -0.236794 43.000000
3.520177 0.654302 -0.237483 115.000000
3.511379 0.641524 -0.236641 38.000000
3.518237 0.631631 -0.237024 50.000000
3.520158 0.620834 -0.237024 58.000000
3.525976 0.610714 -0.237330 36.000000
3.529799 0.600228 -0.237483 42.000000
3.536541 0.590218 -0.237866 38.000000
3.540303 0.579688 -0.238019 38.000000
3.552893 0.570567 -0.238861 25.000000
3.556596 0.559975 -0.239014 15.000000
3.562239 0.549670 -0.239320 9.000000
3.490468 0.896625 -0.283408 27.000000
3.496099 0.886646 -0.283674 21.000000
3.488174 0.873256 -0.282699 25.000000
3.485034 0.861118 -0.282166 29.000000
3.477983 0.848063 -0.281279 39.000000
3.474757 0.835992 -0.280747 42.000000
3.475368 0.824867 -0.280569 51.000000
3.472063 0.812840 -0.280037 40.000000
3.467746 0.800616 -0.279416 42.000000
3.468244 0.789531 -0.279238 50.000000
3.474538 0.779759 -0.279593 36.000000
3.478858 0.769526 -0.279771 36.000000
3.485096 0.759697 -0.280126 40.000000
3.489358 0.749420 -0.280303 46.000000
3.496513 0.739741 -0.280747 50.000000
3.510468 0.731447 -0.281811 62.000000
3.516598 0.721474 -0.282166 45.000000
3.520748 0.711076 -0.282344 47.000000
3.524867 0.700660 -0.282521 34.000000
3.531888 0.690798 -0.282965 53.000000
3.542794 0.681651 -0.283763 106.000000
3.534103 0.668743 -0.282787 72.000000
3.530262 0.656805 -0.282255 40.000000
