ply
format ascii 1.0
element vertex 1271
property float x
property float y
property float z
property float intensity
end_header
3.565272 0.219816 0.549915 53.000000
3.565929 0.208877 0.549915 55.000000
3.566554 0.197935 0.549915 49.000000
3.568132 0.187045 0.550058 51.000000
3.567701 0.176048 0.549915 73.000000
3.571190 0.165240 0.550344 65.000000
3.571680 0.154283 0.550344 66.000000
3.569170 0.143204 0.549915 62.000000
3.565636 0.132105 0.549343 55.000000
3.565036 0.121132 0.549200 65.000000
3.565391 0.110194 0.549200 59.000000
3.567691 0.099310 0.549486 49.000000
3.564021 0.088265 0.548914 56.000000
3.566254 0.077374 0.549200 78.000000
3.570433 0.066508 0.549772 66.000000
3.571609 0.055569 0.549915 53.000000
3.571763 0.044611 0.549915 43.000000
3.571883 0.033653 0.549915 42.000000
3.575928 0.022721 0.550487 40.000000
3.579940 0.011764 0.551059 43.000000
3.583918 0.000783 0.551630 40.000000
3.584893 -0.010214 0.551773 36.000000
3.582866 -0.021202 0.551488 52.000000
3.583774 -0.032202 0.551630 38.000000
3.581678 -0.043174 0.551345 49.000000
3.579550 -0.054133 0.551059 49.000000
3.578378 -0.065097 0.550916 46.000000
3.580140 -0.076116 0.551202 39.000000
3.582858 -0.087171 0.551630 47.000000
3.583563 -0.098189 0.551773 51.000000
3.587202 -0.109302 0.552345 39.000000
3.587839 -0.120340 0.552488 38.000000
3.584486 -0.131239 0.552059 42.000000
3.589011 -0.142430 0.552774 36.000000
3.583613 -0.153230 0.552059 50.000000
3.583126 -0.164224 0.552059 48.000000
3.585571 -0.175360 0.552488 46.000000
3.582051 -0.186207 0.552059 52.000000
3.584428 -0.197358 0.552488 38.000000
3.584793 -0.208411 0.552631 47.000000
3.586113 -0.219528 0.552917 46.000000
3.588386 -0.230719 0.553346 47.000000
3.591611 -0.241991 0.553918 47.000000
3.592826 -0.253148 0.554204 37.000000
3.590059 -0.264024 0.553918 34.000000
3.590219 -0.275113 0.554061 39.000000
3.595277 -0.286596 0.554919 35.000000
3.601285 -0.298194 0.555920 32.000000
3.603312 -0.309495 0.556349 24.000000
3.606289 -0.320898 0.556921 30.000000
3.655553 -0.336572 0.564212 12.000000
3.557050 0.506139 0.509017 38.000000
3.559569 0.495360 0.509148 43.000000
3.560089 0.484303 0.509017 47.000000
3.559593 0.473118 0.508755 40.000000
3.557095 0.461685 0.508231 45.000000
3.553577 0.450147 0.507575 38.000000
3.551005 0.438757 0.507051 49.000000
3.556272 0.428335 0.507575 41.000000
3.555600 0.417191 0.507313 45.000000
3.555878 0.406168 0.507182 48.000000
3.558093 0.395367 0.507313 43.000000
3.561260 0.384661 0.507575 39.000000
3.562424 0.373734 0.507575 49.000000
3.564540 0.362903 0.507706 51.000000
3.565637 0.351965 0.507706 44.000000
3.570647 0.341401 0.508231 42.000000
3.574640 0.330719 0.508624 48.000000
3.576625 0.319839 0.508755 58.000000
3.577589 0.308864 0.508755 57.000000
3.577532 0.297805 0.508624 41.000000
3.574476 0.286511 0.508100 49.000000
3.570396 0.275163 0.507444 47.000000
3.571223 0.264208 0.507444 58.000000
3.572017 0.253251 0.507444 45.000000
3.567832 0.241956 0.506789 58.000000
3.568557 0.231009 0.506789 58.000000
3.568259 0.219998 0.506658 42.000000
3.564959 0.208819 0.506134 51.000000
3.561623 0.197661 0.505610 69.000000
3.561223 0.186682 0.505479 40.000000
3.561779 0.175755 0.505479 58.000000
3.565272 0.164964 0.505872 46.000000
3.565761 0.154025 0.505872 47.000000
3.566217 0.143085 0.505872 50.000000
3.567631 0.132180 0.506003 55.000000
3.571982 0.121368 0.506527 57.000000
3.574319 0.110470 0.506789 57.000000
3.575633 0.099531 0.506920 55.000000
3.576912 0.088585 0.507051 45.000000
3.581132 0.077696 0.507575 44.000000
3.580362 0.066691 0.507444 53.000000
3.582532 0.055737 0.507706 56.000000
3.583678 0.044758 0.507837 53.000000
3.581815 0.033744 0.507575 62.000000
3.582894 0.022762 0.507706 45.000000
3.581955 0.011766 0.507575 69.000000
3.579992 0.000777 0.507313 42.000000
3.578986 -0.010204 0.507182 63.000000
3.579929 -0.021190 0.507313 49.000000
3.579847 -0.032173 0.507313 46.000000
3.579731 -0.043155 0.507313 49.000000
3.582556 -0.054183 0.507706 42.000000
3.581382 -0.065156 0.507575 50.000000
3.584138 -0.076206 0.507968 43.000000
3.582897 -0.087178 0.507837 30.000000
3.579639 -0.098088 0.507444 35.000000
3.577340 -0.109009 0.507182 37.000000
3.575998 -0.119950 0.507051 46.000000
3.574622 -0.130884 0.506920 41.000000
3.574204 -0.141850 0.506920 45.000000
3.573752 -0.152815 0.506920 60.000000
3.574257 -0.163824 0.507051 43.000000
3.578688 -0.175032 0.507706 42.000000
3.580114 -0.186113 0.507968 46.000000
3.581506 -0.197205 0.508231 49.000000
3.582864 -0.208308 0.508493 46.000000
3.584187 -0.219420 0.508755 45.000000
3.588444 -0.230734 0.509410 43.000000
3.590686 -0.241942 0.509803 52.000000
3.586960 -0.252748 0.509410 44.000000
3.584190 -0.263605 0.509148 48.000000
3.585341 -0.274752 0.509410 42.000000
3.584482 -0.285750 0.509410 50.000000
3.586552 -0.296992 0.509803 55.000000
3.587600 -0.308164 0.510065 34.000000
3.587625 -0.319257 0.510196 33.000000
3.598475 -0.331354 0.511769 25.000000
3.553531 0.506277 0.464210 45.000000
3.549167 0.494548 0.463497 53.000000
3.550667 0.483657 0.463497 41.000000
3.546230 0.471974 0.462783 51.000000
3.542738 0.460450 0.462188 62.000000
3.543149 0.449454 0.462069 61.000000
3.541555 0.438215 0.461713 46.000000
3.545840 0.427705 0.462069 59.000000
3.547135 0.416825 0.462069 37.000000
3.548398 0.405940 0.462069 68.000000
3.549627 0.395052 0.462069 63.000000
3.552796 0.384374 0.462307 74.000000
3.554946 0.373577 0.462426 54.000000
3.558051 0.362871 0.462664 87.000000
3.557171 0.351757 0.462426 60.000000
3.558233 0.340842 0.462426 74.000000
3.560251 0.330016 0.462545 80.000000
3.560258 0.319003 0.462426 64.000000
3.561220 0.308078 0.462426 78.000000
3.564127 0.297317 0.462664 93.000000
3.557105 0.285742 0.461713 60.000000
3.557965 0.274828 0.461713 61.000000
3.559782 0.263985 0.461832 64.000000
3.562555 0.253204 0.462069 60.000000
3.560344 0.242070 0.461713 85.000000
3.569987 0.231727 0.462783 48.000000
3.570681 0.220774 0.462783 52.000000
3.567377 0.209584 0.462307 61.000000
3.561063 0.198250 0.461475 77.000000
3.560663 0.187271 0.461356 69.000000
3.557255 0.176148 0.460880 55.000000
3.555795 0.165141 0.460642 66.000000
3.558268 0.154318 0.460880 52.000000
3.560709 0.143481 0.461118 54.000000
3.563117 0.132631 0.461356 68.000000
3.564499 0.121733 0.461475 50.000000
3.565849 0.110828 0.461594 54.000000
3.568157 0.099944 0.461832 55.000000
3.567454 0.088972 0.461713 62.000000
3.569696 0.078070 0.461951 62.000000
3.567933 0.067080 0.461713 46.000000
3.571100 0.056182 0.462069 68.000000
3.572248 0.045238 0.462188 42.000000
3.571378 0.034269 0.462069 64.000000
3.569480 0.023298 0.461832 50.000000
3.567549 0.012340 0.461594 68.000000
3.566577 0.001394 0.461475 69.000000
3.565572 -0.009546 0.461356 43.000000
3.563540 -0.020474 0.461118 48.000000
3.565446 -0.031424 0.461356 57.000000
3.566326 -0.042374 0.461475 50.000000
3.568165 -0.053344 0.461713 58.000000
3.568977 -0.064308 0.461832 48.000000
3.576705 -0.075422 0.462783 37.000000
3.574471 -0.086348 0.462545 65.000000
3.577167 -0.097394 0.462902 53.000000
3.577844 -0.108398 0.463021 48.000000
3.579479 -0.119439 0.463259 52.000000
3.583065 -0.130564 0.463734 58.000000
3.577687 -0.141362 0.463140 60.000000
3.574260 -0.152211 0.462783 53.000000
3.575760 -0.163266 0.463021 57.000000
3.580201 -0.174476 0.463615 46.000000
3.584607 -0.185714 0.464210 51.000000
3.585012 -0.196765 0.464329 49.000000
3.587364 -0.207934 0.464686 52.000000
3.590674 -0.219179 0.465161 40.000000
3.591967 -0.230321 0.465399 43.000000
3.592234 -0.241406 0.465518 41.000000
3.586524 -0.252079 0.464924 44.000000
3.581773 -0.262792 0.464448 44.000000
3.583920 -0.274006 0.464805 33.000000
3.585042 -0.285156 0.465043 42.000000
3.584150 -0.296154 0.465043 36.000000
3.577289 -0.306642 0.464329 28.000000
3.572375 -0.317265 0.463853 26.000000
3.582262 -0.329220 0.465161 29.000000
3.550174 0.494682 0.419451 38.000000
3.550690 0.483654 0.419344 34.000000
3.545257 0.471841 0.418597 40.000000
3.541759 0.460322 0.418063 41.000000
3.536249 0.448579 0.417315 44.000000
3.537609 0.437727 0.417315 48.000000
3.541897 0.427229 0.417636 59.000000
3.545166 0.416592 0.417849 44.000000
3.545439 0.405601 0.417742 45.000000
3.548643 0.394942 0.417956 52.000000
3.549839 0.384053 0.417956 52.000000
3.551000 0.373160 0.417956 47.000000
3.552128 0.362264 0.417956 49.000000
3.551244 0.351169 0.417742 40.000000
3.552304 0.340273 0.417742 50.000000
3.555312 0.329556 0.417956 57.000000
3.558287 0.318824 0.418170 40.000000
3.557267 0.307735 0.417956 57.000000
3.560176 0.296985 0.418170 45.000000
3.559088 0.285902 0.417956 46.000000
3.558957 0.274905 0.417849 47.000000
3.558793 0.263912 0.417742 53.000000
3.560577 0.253063 0.417849 48.000000
3.562329 0.242205 0.417956 42.000000
3.566032 0.231468 0.418276 55.000000
3.563748 0.220342 0.417956 65.000000
3.561429 0.209233 0.417636 46.000000
3.560069 0.198196 0.417422 52.000000
3.562646 0.187377 0.417636 51.000000
3.559232 0.176250 0.417208 67.000000
3.557770 0.165237 0.416995 55.000000
3.561239 0.154450 0.417315 44.000000
3.567658 0.143763 0.417956 62.000000
3.569076 0.132854 0.418063 56.000000
3.571454 0.121971 0.418276 43.000000
3.571811 0.111014 0.418276 54.000000
3.573129 0.100083 0.418383 42.000000
3.569443 0.089021 0.417956 61.000000
3.569699 0.078070 0.417956 57.000000
3.566940 0.067062 0.417636 57.000000
3.571105 0.056181 0.418063 62.000000
3.573249 0.045250 0.418276 43.000000
3.572377 0.034277 0.418170 53.000000
3.574454 0.023330 0.418383 48.000000
3.576497 0.012370 0.418597 51.000000
3.575524 0.001397 0.418490 60.000000
3.573523 -0.009567 0.418276 46.000000
3.567512 -0.020495 0.417636 40.000000
3.564449 -0.031413 0.417315 45.000000
3.559365 -0.042289 0.416781 56.000000
3.556236 -0.053164 0.416461 51.000000
3.556056 -0.064074 0.416461 56.000000
3.558825 -0.075047 0.416781 39.000000
3.564542 -0.086109 0.417422 48.000000
3.574200 -0.097317 0.418490 53.000000
3.580841 -0.108493 0.419237 47.000000
3.589435 -0.119778 0.420198 57.000000
3.593025 -0.130935 0.420626 51.000000
3.592607 -0.141958 0.420626 50.000000
3.585200 -0.152682 0.419878 45.000000
3.584715 -0.163680 0.419878 44.000000
3.581217 -0.174532 0.419558 46.000000
3.582650 -0.185621 0.419771 45.000000
3.584049 -0.196721 0.419985 40.000000
3.582436 -0.207658 0.419878 46.000000
3.584760 -0.218830 0.420198 50.000000
3.587049 -0.230018 0.420519 43.000000
3.588310 -0.241155 0.420732 46.000000
3.588545 -0.252233 0.420839 43.000000
3.588746 -0.263314 0.420946 42.000000
3.589904 -0.274475 0.421160 38.000000
3.592018 -0.285724 0.421480 42.000000
3.594098 -0.296989 0.421800 34.000000
3.584254 -0.307249 0.420839 27.000000
3.590227 -0.318860 0.421587 29.000000
3.592202 -0.330146 0.421907 44.000000
3.594141 -0.341448 0.422227 45.000000
3.595056 -0.352667 0.422441 40.000000
3.536583 -0.357883 0.416247 19.000000
3.550758 0.527500 0.377166 45.000000
3.551375 0.516461 0.377071 70.000000
3.550972 0.505282 0.376881 64.000000
3.549547 0.493972 0.376596 63.000000
3.549073 0.482811 0.376406 54.000000
3.544617 0.471132 0.375836 74.000000
3.548020 0.460512 0.376026 61.000000
3.547441 0.449374 0.375836 51.000000
3.547816 0.438366 0.375741 54.000000
3.549144 0.427479 0.375741 56.000000
3.547472 0.416239 0.375457 79.000000
3.545766 0.405014 0.375172 70.000000
3.544024 0.393803 0.374887 65.000000
3.541256 0.382499 0.374507 84.000000
3.540433 0.371425 0.374317 79.000000
3.541556 0.360561 0.374317 65.000000
3.540664 0.349498 0.374127 77.000000
3.543702 0.338824 0.374317 83.000000
3.545716 0.328042 0.374412 73.000000
3.543731 0.316896 0.374127 99.000000
3.550637 0.306538 0.374697 64.000000
3.547593 0.295312 0.374317 90.000000
3.548482 0.284426 0.374317 68.000000
3.547353 0.273385 0.374127 81.000000
3.543211 0.262131 0.373652 87.000000
3.548964 0.251613 0.374127 62.000000
3.549719 0.240724 0.374127 68.000000
3.548454 0.229703 0.373937 79.000000
3.549142 0.218816 0.373937 78.000000
3.552778 0.208102 0.374222 70.000000
3.548430 0.196924 0.373747 66.000000
3.546035 0.185879 0.373462 74.000000
3.546588 0.174999 0.373462 77.000000
3.545120 0.164025 0.373272 83.000000
3.545606 0.153148 0.373272 78.000000
3.549044 0.142390 0.373557 59.000000
3.549464 0.131501 0.373557 78.000000
3.555820 0.120815 0.374127 68.000000
3.559159 0.109999 0.374412 62.000000
3.559480 0.099079 0.374412 84.000000
3.562752 0.088233 0.374697 60.000000
3.564997 0.077346 0.374887 65.000000
3.565217 0.066409 0.374887 75.000000
3.568390 0.055518 0.375172 68.000000
3.562571 0.044493 0.374602 55.000000
3.560700 0.033544 0.374412 68.000000
3.562777 0.022633 0.374602 48.000000
3.560839 0.011695 0.374412 57.000000
3.561853 0.000771 0.374507 64.000000
3.557857 -0.010146 0.374127 61.000000
3.555819 -0.021050 0.373937 49.000000
3.557728 -0.031977 0.374127 59.000000
3.556618 -0.042880 0.374032 65.000000
3.557465 -0.053806 0.374127 57.000000
3.556288 -0.064702 0.374032 66.000000
3.554082 -0.075571 0.373842 63.000000
3.558809 -0.086593 0.374317 67.000000
3.559522 -0.097538 0.374412 59.000000
3.560201 -0.108488 0.374507 73.000000
3.562836 -0.119509 0.374792 66.000000
3.563447 -0.130476 0.374887 61.000000
3.568004 -0.141603 0.375362 62.000000
3.568547 -0.152591 0.375457 46.000000
3.567068 -0.163493 0.375362 61.000000
3.569533 -0.174581 0.375646 72.000000
3.564010 -0.185275 0.375172 35.000000
3.572370 -0.196698 0.376026 72.000000
3.563799 -0.207197 0.375267 45.000000
3.564141 -0.218190 0.375362 54.000000
3.568422 -0.229441 0.375836 61.000000
3.569687 -0.240521 0.376026 54.000000
3.568933 -0.251472 0.376026 52.000000
3.568145 -0.262420 0.376026 47.000000
3.565337 -0.273214 0.375836 55.000000
3.566467 -0.284309 0.376026 53.000000
3.565578 -0.295249 0.376026 37.000000
3.563664 -0.306102 0.375931 40.000000
3.565682 -0.317297 0.376216 55.000000
3.568658 -0.328599 0.376596 58.000000
3.570606 -0.339828 0.376881 59.000000
3.573509 -0.351169 0.377261 53.000000
3.576377 -0.362531 0.377641 35.000000
3.529643 0.513921 0.330002 28.000000
3.533176 0.503370 0.330167 41.000000
3.541614 0.493490 0.330744 51.000000
3.544099 0.482757 0.330827 47.000000
3.538647 0.470962 0.330250 45.000000
3.536122 0.459590 0.329920 37.000000
3.539493 0.448990 0.330085 63.000000
3.537886 0.437762 0.329837 47.000000
3.536245 0.426548 0.329590 49.000000
3.535557 0.415464 0.329425 45.000000
3.533845 0.404276 0.329178 59.000000
3.538040 0.393763 0.329425 51.000000
3.541213 0.383121 0.329590 47.000000
3.545345 0.372567 0.329837 54.000000
3.546471 0.361688 0.329837 62.000000
3.550540 0.351100 0.330085 60.000000
3.551600 0.340205 0.330085 42.000000
3.549650 0.329032 0.329837 41.000000
3.553621 0.318407 0.330085 44.000000
3.553588 0.307417 0.330002 65.000000
3.552528 0.296348 0.329837 66.000000
3.553421 0.285447 0.329837 57.000000
3.547324 0.274008 0.329260 51.000000
3.548148 0.263123 0.329260 48.000000
3.551921 0.252448 0.329507 59.000000
3.550690 0.241415 0.329342 61.000000
3.551414 0.230520 0.329342 46.000000
3.550115 0.219501 0.329178 65.000000
3.554752 0.208842 0.329507 32.000000
3.557366 0.198045 0.329672 44.000000
3.555966 0.187026 0.329507 62.000000
3.559509 0.176263 0.329755 61.000000
3.563020 0.165480 0.330002 47.000000
3.567493 0.154721 0.330332 50.000000
3.569943 0.143855 0.330497 54.000000
3.567379 0.132791 0.330250 64.000000
3.566774 0.121812 0.330167 45.000000
3.566135 0.110838 0.330085 46.000000
3.557492 0.099647 0.329342 66.000000
3.556785 0.088707 0.329260 58.000000
3.556044 0.077773 0.329178 50.000000
3.558259 0.066900 0.329342 42.000000
3.560440 0.056014 0.329507 63.000000
3.558603 0.045066 0.329342 60.000000
3.552744 0.034091 0.328848 53.000000
3.556819 0.023217 0.329178 56.000000
3.557870 0.012308 0.329260 73.000000
3.561877 0.001394 0.329590 69.000000
3.559871 -0.009529 0.329425 61.000000
3.561819 -0.020462 0.329590 54.000000
3.563732 -0.031407 0.329755 56.000000
3.571591 -0.042436 0.330414 46.000000
3.572441 -0.053408 0.330497 56.000000
3.568274 -0.064296 0.330167 63.000000
3.567064 -0.075221 0.330085 60.000000
3.568809 -0.086213 0.330250 54.000000
3.566535 -0.097107 0.330085 46.000000
3.563232 -0.107958 0.329837 56.000000
3.555912 -0.118656 0.329260 46.000000
3.556527 -0.129601 0.329342 46.000000
3.558105 -0.140590 0.329507 49.000000
3.560643 -0.151633 0.329755 57.000000
3.561157 -0.162602 0.329837 52.000000
3.554669 -0.173235 0.329342 33.000000
3.565068 -0.184708 0.330250 43.000000
3.562495 -0.195536 0.330085 47.000000
3.561878 -0.206464 0.330085 47.000000
3.564212 -0.217573 0.330332 54.000000
3.560544 -0.228316 0.330085 48.000000
3.564799 -0.239573 0.330497 52.000000
3.564047 -0.250508 0.330497 47.000000
3.562268 -0.261368 0.330414 47.000000
3.563436 -0.272448 0.330579 48.000000
3.561590 -0.283300 0.330497 52.000000
3.560704 -0.294226 0.330497 44.000000
3.562764 -0.305404 0.330744 44.000000
3.561810 -0.316333 0.330744 47.000000
3.563800 -0.327533 0.330992 37.000000
3.558810 -0.338088 0.330662 26.000000
3.557756 -0.349004 0.330662 21.000000
3.524299 0.489202 0.286990 48.000000
3.527760 0.478656 0.287131 32.000000
3.525256 0.467305 0.286849 49.000000
3.526673 0.456488 0.286849 43.000000
3.524099 0.445164 0.286566 60.000000
3.529408 0.434840 0.286849 49.000000
3.529735 0.423890 0.286778 71.000000
3.531019 0.413059 0.286778 61.000000
3.533260 0.402338 0.286849 59.000000
3.536461 0.391716 0.286990 59.000000
3.541613 0.381293 0.287273 61.000000
3.544750 0.370634 0.287414 55.000000
3.545871 0.359757 0.287414 56.000000
3.544972 0.348681 0.287273 78.000000
3.545033 0.337708 0.287202 64.000000
3.544065 0.326647 0.287061 75.000000
3.542070 0.315506 0.286849 77.000000
3.541034 0.304466 0.286708 61.000000
3.536981 0.293187 0.286354 60.000000
3.533886 0.282016 0.286072 42.000000
3.534735 0.271172 0.286072 61.000000
3.531571 0.260033 0.285789 55.000000
3.537328 0.249549 0.286143 57.000000
3.539072 0.238763 0.286213 64.000000
3.536801 0.227711 0.286001 64.000000
3.541466 0.217105 0.286284 64.000000
3.544106 0.206355 0.286425 63.000000
3.541735 0.195315 0.286213 67.000000
3.544310 0.184553 0.286354 60.000000
3.545856 0.173727 0.286425 58.000000
3.547369 0.162894 0.286496 69.000000
3.551838 0.152182 0.286778 80.000000
3.550295 0.141205 0.286637 60.000000
3.548718 0.130238 0.286496 57.000000
3.548104 0.119316 0.286425 50.000000
3.546459 0.108369 0.286284 57.000000
3.542786 0.097377 0.286001 60.000000
3.543068 0.086507 0.286001 48.000000
3.538331 0.075529 0.285648 47.000000
3.543532 0.064766 0.286001 59.000000
3.542717 0.053879 0.285931 52.000000
3.543863 0.043022 0.286001 44.000000
3.543978 0.032149 0.286001 50.000000
3.547053 0.021295 0.286213 64.000000
3.547101 0.010413 0.286213 49.000000
3.552104 -0.000468 0.286566 57.000000
3.551088 -0.011363 0.286496 56.000000
3.560014 -0.022311 0.287131 35.000000
3.558931 -0.033224 0.287061 49.000000
3.561805 -0.044179 0.287273 47.000000
3.564645 -0.055151 0.287485 48.000000
3.562464 -0.066051 0.287343 54.000000
3.558256 -0.076895 0.287061 66.000000
3.559998 -0.087860 0.287202 47.000000
3.557717 -0.098727 0.287061 67.000000
3.554406 -0.109550 0.286849 81.000000
3.557045 -0.120555 0.287061 47.000000
3.559648 -0.131576 0.287273 47.000000
3.561221 -0.142576 0.287414 67.000000
3.560767 -0.153501 0.287414 57.000000
3.561275 -0.164470 0.287485 55.000000
3.560754 -0.175395 0.287485 47.000000
3.564184 -0.186526 0.287767 52.000000
3.560607 -0.197295 0.287555 45.000000
3.557993 -0.208102 0.287414 42.000000
3.556343 -0.218956 0.287343 49.000000
3.554659 -0.229801 0.287273 65.000000
3.553937 -0.240706 0.287273 56.000000
3.555172 -0.251748 0.287414 35.000000
3.556372 -0.262801 0.287555 39.000000
3.558533 -0.273939 0.287767 57.000000
3.561653 -0.285172 0.288050 41.000000
3.563744 -0.296345 0.288261 49.000000
3.565800 -0.307533 0.288473 36.000000
3.564839 -0.318471 0.288473 35.000000
3.566825 -0.329681 0.288685 31.000000
3.566790 -0.340717 0.288756 20.000000
3.546866 -0.349804 0.287414 13.000000
3.523055 0.490282 0.242225 37.000000
3.524542 0.479472 0.242225 36.000000
3.527976 0.468919 0.242341 44.000000
3.527418 0.457836 0.242225 37.000000
3.526825 0.446762 0.242109 37.000000
3.529170 0.436062 0.242167 38.000000
3.532473 0.425471 0.242283 50.000000
3.537729 0.415096 0.242515 46.000000
3.536010 0.403901 0.242341 39.000000
3.536240 0.392941 0.242283 55.000000
3.536436 0.381983 0.242225 58.000000
3.538584 0.371235 0.242283 37.000000
3.538713 0.360276 0.242225 68.000000
3.533841 0.348830 0.241876 58.000000
3.533901 0.337892 0.241818 58.000000
3.533927 0.326957 0.241760 71.000000
3.536902 0.316291 0.241876 53.000000
3.536861 0.305353 0.241818 54.000000
3.534796 0.294252 0.241644 58.000000
3.533693 0.283247 0.241528 42.000000
3.534545 0.272404 0.241528 52.000000
3.531381 0.261265 0.241296 49.000000
3.533162 0.250500 0.241354 67.000000
3.532918 0.239592 0.241296 67.000000
3.532640 0.228687 0.241237 46.000000
3.540300 0.218278 0.241644 68.000000
3.541950 0.207473 0.241702 60.000000
3.542570 0.196606 0.241702 63.000000
3.545150 0.185841 0.241818 65.000000
3.542712 0.174816 0.241644 59.000000
3.548218 0.164177 0.241935 60.000000
3.549703 0.153333 0.241993 46.000000
3.547164 0.142322 0.241818 50.000000
3.544590 0.131329 0.241644 46.000000
3.542981 0.120386 0.241528 62.000000
3.541339 0.109454 0.241412 58.000000
3.539662 0.098534 0.241296 60.000000
3.538949 0.087649 0.241237 65.000000
3.543194 0.076877 0.241470 71.000000
3.550400 0.066136 0.241876 56.000000
3.555578 0.055320 0.242167 54.000000
3.557727 0.044436 0.242283 56.000000
3.556848 0.033512 0.242225 57.000000
3.556934 0.022600 0.242225 59.000000
3.556987 0.011687 0.242225 58.000000
3.557006 0.000774 0.242225 60.000000
3.555993 -0.010136 0.242167 57.000000
3.558940 -0.021063 0.242341 55.000000
3.558859 -0.031982 0.242341 46.000000
3.561739 -0.042937 0.242515 52.000000
3.559594 -0.053833 0.242399 51.000000
3.556417 -0.064699 0.242225 52.000000
3.557200 -0.075631 0.242283 55.000000
3.557950 -0.086568 0.242341 60.000000
3.557667 -0.097483 0.242341 45.000000
3.557352 -0.108398 0.242341 55.000000
3.555007 -0.119244 0.242225 47.000000
3.557617 -0.130260 0.242399 55.000000
3.558198 -0.141213 0.242457 48.000000
3.560740 -0.152257 0.242632 55.000000
3.561254 -0.163227 0.242690 40.000000
3.564724 -0.174347 0.242922 53.000000
3.566167 -0.185387 0.243038 38.000000
3.570565 -0.196602 0.243329 50.000000
3.564962 -0.207265 0.243038 46.000000
3.561320 -0.218018 0.242864 59.000000
3.560635 -0.228943 0.242864 60.000000
3.556927 -0.239664 0.242690 56.000000
3.557171 -0.250645 0.242748 49.000000
3.561364 -0.261924 0.243038 43.000000
3.557557 -0.272620 0.242864 54.000000
3.563670 -0.284089 0.243271 53.000000
3.572731 -0.295846 0.243851 40.000000
3.574790 -0.307062 0.244026 32.000000
3.582781 -0.318825 0.244548 31.000000
3.581786 -0.329816 0.244548 43.000000
3.580757 -0.340803 0.244548 36.000000
3.598571 -0.353644 0.245652 12.000000
3.503681 0.485713 0.199166 50.000000
3.511093 0.475768 0.199444 33.000000
3.513527 0.465125 0.199490 41.000000
3.516919 0.454600 0.199583 52.000000
3.517306 0.443683 0.199536 46.000000
3.519641 0.433012 0.199583 59.000000
3.521945 0.422332 0.199629 64.000000
3.522232 0.411408 0.199583 63.000000
3.523478 0.400600 0.199583 54.000000
3.524690 0.389788 0.199583 55.000000
3.522890 0.378652 0.199444 58.000000
3.524035 0.367842 0.199444 87.000000
3.521172 0.356625 0.199259 74.000000
3.517279 0.345330 0.199028 51.000000
3.515338 0.334253 0.198889 51.000000
3.515353 0.323375 0.198843 65.000000
3.515333 0.312500 0.198797 62.000000
3.518266 0.301885 0.198889 59.000000
3.518180 0.291007 0.198843 63.000000
3.520052 0.280291 0.198889 62.000000
3.520895 0.269491 0.198889 65.000000
3.522702 0.258761 0.198935 46.000000
3.524476 0.248023 0.198981 56.000000
3.525220 0.237209 0.198981 60.000000
3.525931 0.226392 0.198981 51.000000
3.530597 0.215819 0.199166 70.000000
3.531243 0.204986 0.199166 61.000000
3.534847 0.194317 0.199305 51.000000
3.534429 0.183419 0.199259 65.000000
3.535973 0.172624 0.199305 59.000000
3.536486 0.161775 0.199305 71.000000
3.534970 0.150839 0.199213 59.000000
3.534418 0.139953 0.199166 37.000000
3.534830 0.129109 0.199166 56.000000
3.533213 0.118196 0.199074 55.000000
3.533559 0.107356 0.199074 50.000000
3.535869 0.096570 0.199166 61.000000
3.537148 0.085746 0.199213 51.000000
3.544385 0.075044 0.199536 45.000000
3.546596 0.064206 0.199629 53.000000
3.545777 0.053310 0.199583 50.000000
3.548920 0.042468 0.199721 55.000000
3.549034 0.031580 0.199721 45.000000
3.548115 0.020686 0.199675 40.000000
3.546165 0.009794 0.199583 42.000000
3.542182 -0.001086 0.199398 42.000000
3.536169 -0.011935 0.199120 42.000000
3.542109 -0.022820 0.199398 60.000000
3.537028 -0.033641 0.199166 42.000000
3.535909 -0.044480 0.199120 64.000000
3.533758 -0.055298 0.199028 46.000000
3.532573 -0.066120 0.198981 41.000000
3.533352 -0.076979 0.199028 63.000000
3.539091 -0.087966 0.199305 53.000000
3.538805 -0.098823 0.199305 62.000000
3.544476 -0.109864 0.199583 50.000000
3.550112 -0.120939 0.199860 50.000000
3.552719 -0.131941 0.199999 60.000000
3.558286 -0.143078 0.200276 43.000000
3.560825 -0.154123 0.200415 45.000000
3.564327 -0.165231 0.200600 66.000000
3.568792 -0.176410 0.200831 60.000000
3.569231 -0.187410 0.200877 50.000000
3.567642 -0.198304 0.200831 68.000000
3.564025 -0.209074 0.200692 44.000000
3.560376 -0.219824 0.200553 53.000000
3.554700 -0.230424 0.200322 56.000000
3.553976 -0.241329 0.200322 47.000000
3.552223 -0.252161 0.200276 46.000000
3.551433 -0.263058 0.200276 55.000000
3.551605 -0.274029 0.200322 45.000000
3.555726 -0.285321 0.200553 45.000000
3.557821 -0.296477 0.200692 55.000000
3.559880 -0.307648 0.200831 48.000000
3.567874 -0.319366 0.201247 28.000000
3.562899 -0.329944 0.201062 31.000000
3.575792 -0.342201 0.201709 24.000000
3.620455 -0.357673 0.203836 7.000000
3.506270 0.487327 0.155552 26.000000
3.508739 0.476702 0.155586 41.000000
3.513157 0.466330 0.155687 46.000000
3.512589 0.455293 0.155620 35.000000
3.516944 0.444890 0.155721 40.000000
3.521268 0.434465 0.155823 61.000000
3.518615 0.423183 0.155687 48.000000
3.523868 0.412851 0.155823 42.000000
3.523132 0.401811 0.155755 56.000000
3.520374 0.390560 0.155620 59.000000
3.521556 0.379758 0.155620 47.000000
3.520716 0.368744 0.155552 60.000000
3.517854 0.357537 0.155417 55.000000
3.519929 0.346841 0.155450 67.000000
3.519982 0.335945 0.155417 60.000000
3.518010 0.324869 0.155315 52.000000
3.521977 0.314341 0.155417 54.000000
3.524916 0.303706 0.155484 52.000000
3.526827 0.292972 0.155518 53.000000
3.527709 0.282151 0.155518 56.000000
3.522579 0.270868 0.155315 54.000000
3.519407 0.259765 0.155180 50.000000
3.521184 0.249037 0.155213 55.000000
3.520934 0.238166 0.155180 48.000000
3.518657 0.227170 0.155078 47.000000
3.514349 0.216068 0.154909 39.000000
3.520982 0.205634 0.155112 50.000000
3.525588 0.195051 0.155247 57.000000
3.525172 0.184182 0.155213 45.000000
3.528715 0.173513 0.155315 53.000000
3.528232 0.162640 0.155281 57.000000
3.530711 0.151900 0.155349 52.000000
3.536154 0.141266 0.155518 56.000000
3.540566 0.130564 0.155654 45.000000
3.539951 0.119667 0.155620 46.000000
3.541300 0.108837 0.155654 49.000000
3.535623 0.097807 0.155450 48.000000
3.535907 0.086959 0.155450 72.000000
3.535157 0.076089 0.155417 63.000000
3.536374 0.065262 0.155450 42.000000
3.534559 0.054381 0.155383 57.000000
3.535708 0.043549 0.155417 51.000000
3.538824 0.032729 0.155518 55.000000
3.543904 0.021902 0.155687 57.000000
3.541956 0.011024 0.155620 54.000000
3.542972 0.000157 0.155654 46.000000
3.545954 -0.010722 0.155755 58.000000
3.546904 -0.021607 0.155789 48.000000
3.549819 -0.032516 0.155890 55.000000
3.547704 -0.043382 0.155823 60.000000
3.546555 -0.054251 0.155789 59.000000
3.547371 -0.065150 0.155823 41.000000
3.542159 -0.075925 0.155654 51.000000
3.542908 -0.086816 0.155687 50.000000
3.542625 -0.097686 0.155687 42.000000
3.543308 -0.108584 0.155721 57.000000
3.546953 -0.119590 0.155857 52.000000
3.547569 -0.130508 0.155890 41.000000
3.550147 -0.141511 0.155992 41.000000
3.553690 -0.152574 0.156127 42.000000
3.555202 -0.163568 0.156195 45.000000
3.552687 -0.174376 0.156127 56.000000
3.555130 -0.185431 0.156229 43.000000
3.554544 -0.196337 0.156229 43.000000
3.553925 -0.207242 0.156229 45.000000
3.550280 -0.217960 0.156127 49.000000
3.549595 -0.228851 0.156127 55.000000
3.549873 -0.239807 0.156161 47.000000
3.552111 -0.250909 0.156263 61.000000
3.550328 -0.261732 0.156229 49.000000
3.548512 -0.272546 0.156195 58.000000
3.550648 -0.283670 0.156297 44.000000
3.550757 -0.294645 0.156331 45.000000
3.551828 -0.305709 0.156398 39.000000
3.548882 -0.316427 0.156331 28.000000
3.548890 -0.327405 0.156364 41.000000
3.548864 -0.338386 0.156398 38.000000
3.536868 -0.348194 0.156026 18.000000
3.515897 -0.357022 0.155349 7.000000
3.502467 0.486784 0.112380 47.000000
3.500972 0.475632 0.112315 49.000000
3.505388 0.465285 0.112380 38.000000
3.504816 0.454270 0.112337 37.000000
3.499250 0.442635 0.112185 69.000000
3.503568 0.432266 0.112250 59.000000
3.505870 0.421635 0.112272 45.000000
3.509134 0.411110 0.112315 44.000000
3.509385 0.400229 0.112293 59.000000
3.507615 0.389128 0.112229 50.000000
3.510780 0.378580 0.112272 58.000000
3.510931 0.367703 0.112250 57.000000
3.511048 0.356829 0.112229 67.000000
3.513121 0.346154 0.112250 57.000000
3.516157 0.335564 0.112293 60.000000
3.514184 0.324499 0.112229 72.000000
3.523129 0.314429 0.112402 63.000000
3.523081 0.303533 0.112380 71.000000
3.530970 0.293305 0.112532 67.000000
3.530857 0.282390 0.112510 68.000000
3.527719 0.271249 0.112423 55.000000
3.524547 0.260129 0.112337 65.000000
3.521339 0.249031 0.112250 59.000000
3.517099 0.237887 0.112142 70.000000
3.515817 0.226967 0.112099 55.000000
3.512506 0.215932 0.112012 46.000000
3.518142 0.205448 0.112120 48.000000
3.522748 0.194876 0.112207 52.000000
3.523330 0.184067 0.112207 56.000000
3.523878 0.173257 0.112207 57.000000
3.527389 0.162584 0.112272 61.000000
3.524874 0.151632 0.112207 53.000000
3.527321 0.140897 0.112250 50.000000
3.526737 0.130038 0.112229 62.000000
3.525121 0.119149 0.112185 49.000000
3.530467 0.108489 0.112293 41.000000
3.528784 0.097601 0.112250 52.000000
3.531066 0.086824 0.112293 38.000000
3.533315 0.076034 0.112337 50.000000
3.532532 0.065175 0.112315 51.000000
3.524718 0.054212 0.112142 37.000000
3.524868 0.043398 0.112142 43.000000
3.519986 0.032535 0.112034 32.000000
3.525068 0.021769 0.112142 43.000000
3.522119 0.010943 0.112077 43.000000
3.528134 0.000140 0.112207 33.000000
3.536116 -0.010706 0.112380 37.000000
3.543065 -0.021595 0.112532 35.000000
3.543982 -0.032473 0.112553 35.000000
3.549864 -0.043417 0.112683 29.000000
3.547714 -0.054278 0.112640 40.000000
3.551530 -0.065234 0.112726 39.000000
3.544316 -0.075982 0.112575 37.000000
3.542067 -0.086807 0.112532 48.000000
3.538786 -0.097592 0.112467 54.000000
3.537471 -0.108418 0.112445 44.000000
3.538121 -0.119304 0.112467 33.000000
3.534740 -0.130049 0.112402 44.000000
3.532327 -0.140814 0.112358 46.000000
3.537872 -0.151905 0.112488 42.000000
3.537389 -0.162759 0.112488 52.000000
3.535874 -0.173562 0.112467 45.000000
3.532330 -0.184254 0.112402 54.000000
3.532747 -0.195145 0.112423 44.000000
3.533129 -0.206040 0.112445 49.000000
3.532480 -0.216878 0.112445 38.000000
3.529803 -0.227587 0.112402 37.000000
3.537068 -0.238952 0.112575 36.000000
3.539310 -0.250012 0.112640 38.000000
3.535535 -0.260650 0.112575 28.000000
3.538707 -0.271801 0.112661 41.000000
3.538852 -0.282735 0.112683 33.000000
3.541954 -0.293920 0.112770 34.000000
3.545020 -0.305127 0.112856 43.000000
3.541080 -0.315736 0.112791 33.000000
3.543081 -0.326873 0.112856 33.000000
3.548033 -0.338309 0.112986 31.000000
3.538023 -0.348314 0.112791 11.000000
3.486894 0.473120 0.068585 68.000000
3.515094 0.465965 0.068835 34.000000
3.511549 0.454538 0.068788 41.000000
3.506974 0.443011 0.068733 45.000000
3.510302 0.432494 0.068751 37.000000
3.515584 0.422199 0.068788 40.000000
3.520835 0.411876 0.068825 41.000000
3.516121 0.400394 0.068770 40.000000
3.513357 0.389165 0.068733 47.000000
3.514534 0.378384 0.068733 34.000000
3.512695 0.367288 0.068705 58.000000
3.513805 0.356510 0.068705 56.000000
3.515878 0.345825 0.068714 48.000000
3.516922 0.335037 0.068714 34.000000
3.525899 0.324979 0.068788 43.000000
3.526880 0.314160 0.068788 50.000000
3.525835 0.303167 0.068770 65.000000
3.527745 0.292431 0.068779 34.000000
3.524638 0.281289 0.068742 49.000000
3.525484 0.270475 0.068742 52.000000
3.525301 0.259584 0.068733 45.000000
3.524085 0.248627 0.068714 57.000000
3.532813 0.238351 0.068788 48.000000
3.543507 0.228153 0.068881 40.000000
3.542194 0.217159 0.068862 58.000000
3.548833 0.206638 0.068918 59.000000
3.551447 0.195860 0.068936 53.000000
3.573002 0.186053 0.069131 49.000000
3.568562 0.174846 0.069084 56.000000
3.557095 0.163348 0.068973 46.000000
3.561575 0.152605 0.069010 56.000000
3.569021 0.141955 0.069075 49.000000
3.551452 0.130346 0.068909 35.000000
3.556833 0.119617 0.068955 67.000000
3.578172 0.109344 0.069149 58.000000
3.581490 0.098448 0.069177 47.000000
3.591771 0.087702 0.069269 40.000000
3.569030 0.076194 0.069057 32.000000
3.598241 0.065771 0.069325 43.000000
3.596426 0.054701 0.069306 44.000000
3.567580 0.043318 0.069038 25.000000
3.613693 0.032785 0.069464 40.000000
3.608777 0.021669 0.069417 33.000000
3.625825 0.010645 0.069575 31.000000
3.650840 -0.000484 0.069806 42.000000
3.665820 -0.011735 0.069945 26.000000
3.703764 -0.023223 0.070296 31.000000
3.719675 -0.034737 0.070444 38.000000
3.769544 -0.046775 0.070907 27.000000
3.749387 -0.058028 0.070722 36.000000
3.761188 -0.069754 0.070833 31.000000
3.751959 -0.081097 0.070749 40.000000
3.758690 -0.092781 0.070814 32.000000
3.745393 -0.103950 0.070694 36.000000
3.846004 -0.118563 0.071628 11.000000
3.857615 -0.130770 0.071739 8.000000
3.817427 0.223025 0.023552 42.000000
3.815098 0.211146 0.023562 53.000000
3.809736 0.199125 0.023581 48.000000
3.802339 0.187041 0.023608 56.000000
3.794903 0.175003 0.023634 57.000000
3.784433 0.162883 0.023671 79.000000
3.774923 0.150870 0.023704 68.000000
3.765375 0.138916 0.023737 74.000000
3.756788 0.127056 0.023767 49.000000
3.754162 0.115437 0.023777 46.000000
3.754499 0.103919 0.023777 50.000000
3.751800 0.092325 0.023787 59.000000
3.752066 0.080814 0.023787 60.000000
3.753296 0.069321 0.023784 59.000000
3.757491 0.057869 0.023770 60.000000
3.761650 0.046391 0.023757 47.000000
3.756775 0.034803 0.023774 58.000000
3.759864 0.023296 0.023764 52.000000
3.761918 0.011768 0.023757 51.000000
3.773937 0.000231 0.023717 44.000000
3.776919 -0.011355 0.023707 48.000000
3.787867 -0.023006 0.023671 40.000000
3.797777 -0.034715 0.023638 52.000000
3.804653 -0.046450 0.023615 47.000000
3.810492 -0.058212 0.023595 43.000000
3.815294 -0.069992 0.023578 60.000000
3.824059 -0.081887 0.023548 39.000000
3.823790 -0.093619 0.023548 45.000000
3.852474 -0.106139 0.023452 22.000000
3.887114 -0.119019 0.023336 9.000000
3.830631 0.212561 -0.023841 34.000000
3.807301 0.199554 -0.023464 56.000000
3.789919 0.186988 -0.023181 68.000000
3.787479 0.175221 -0.023134 48.000000
3.773014 0.162955 -0.022898 61.000000
3.765503 0.151059 -0.022773 58.000000
3.758955 0.139248 -0.022663 76.000000
3.751370 0.127444 -0.022537 64.000000
3.747746 0.115811 -0.022474 69.000000
3.746084 0.104257 -0.022443 80.000000
3.748386 0.092813 -0.022474 69.000000
3.751652 0.081378 -0.022521 67.000000
3.751884 0.069867 -0.022521 75.000000
3.753080 0.058372 -0.022537 70.000000
3.752242 0.046845 -0.022521 60.000000
3.746369 0.035277 -0.022427 72.000000
3.746459 0.023783 -0.022427 66.000000
3.748515 0.012295 -0.022458 63.000000
3.754534 0.000796 -0.022553 79.000000
3.759518 -0.010738 -0.022631 72.000000
3.758468 -0.022266 -0.022616 44.000000
3.775379 -0.033951 -0.022883 63.000000
3.783255 -0.045631 -0.023008 62.000000
3.788096 -0.057314 -0.023087 61.000000
3.796900 -0.069100 -0.023228 45.000000
3.818662 -0.081218 -0.023574 36.000000
3.843385 -0.093544 -0.023966 20.000000
3.833085 -0.105060 -0.023809 31.000000
3.842738 -0.117125 -0.023966 24.000000
3.863172 0.237607 -0.070818 20.000000
3.827959 0.223644 -0.069820 32.000000
3.811659 0.210954 -0.069348 37.000000
3.760381 0.196530 -0.067905 66.000000
3.755974 0.184746 -0.067766 70.000000
3.753527 0.173082 -0.067683 53.000000
3.748049 0.161306 -0.067517 64.000000
3.743531 0.149605 -0.067378 51.000000
3.739977 0.137971 -0.067267 53.000000
3.736387 0.126360 -0.067156 47.000000
3.734759 0.114834 -0.067100 54.000000
3.729098 0.103208 -0.066934 65.000000
3.732395 0.091841 -0.067017 57.000000
3.730660 0.080346 -0.066962 71.000000
3.726892 0.068825 -0.066851 39.000000
3.730084 0.057438 -0.066934 46.000000
3.732242 0.046020 -0.066989 48.000000
3.729367 0.034540 -0.066906 61.000000
3.730454 0.023105 -0.066934 63.000000
3.738505 0.011688 -0.067156 49.000000
3.739523 0.000218 -0.067184 44.000000
3.750501 -0.011284 -0.067489 50.000000
3.760445 -0.022848 -0.067766 45.000000
3.765355 -0.034429 -0.067905 48.000000
3.770230 -0.046040 -0.068044 33.000000
3.778067 -0.057727 -0.068266 51.000000
3.782869 -0.069407 -0.068404 31.000000
3.793632 -0.081245 -0.068710 41.000000
3.811352 -0.093318 -0.069209 28.000000
3.833032 -0.105610 -0.069820 24.000000
3.836686 -0.117490 -0.069931 25.000000
3.853292 -0.129827 -0.070402 17.000000
3.807382 0.222992 -0.117032 22.000000
3.774127 0.209432 -0.115661 46.000000
3.771759 0.197695 -0.115540 61.000000
3.775342 0.186270 -0.115661 43.000000
3.764916 0.174180 -0.115218 58.000000
3.758445 0.162327 -0.114936 60.000000
3.752935 0.150556 -0.114694 79.000000
3.739400 0.138525 -0.114130 64.000000
3.730819 0.126748 -0.113767 61.000000
3.721204 0.114994 -0.113364 48.000000
3.715547 0.103410 -0.113122 43.000000
3.716845 0.092035 -0.113162 56.000000
3.717110 0.080632 -0.113162 57.000000
3.713344 0.069154 -0.113001 66.000000
3.710541 0.057715 -0.112880 59.000000
3.715696 0.046392 -0.113082 56.000000
3.717819 0.035011 -0.113162 66.000000
3.719908 0.023617 -0.113243 56.000000
3.723959 0.012217 -0.113404 45.000000
3.733971 0.000793 -0.113807 46.000000
3.750942 -0.010712 -0.114492 31.000000
3.756887 -0.022256 -0.114734 50.000000
3.770789 -0.033909 -0.115298 36.000000
3.770667 -0.045478 -0.115298 47.000000
3.777503 -0.057152 -0.115581 45.000000
3.788299 -0.068942 -0.116024 42.000000
3.793065 -0.080671 -0.116226 42.000000
3.795796 -0.092381 -0.116346 31.000000
3.814472 -0.104548 -0.117112 33.000000
3.810139 -0.116128 -0.116951 11.000000
3.751845 -0.125868 -0.114613 8.000000
3.831553 0.234315 -0.164172 18.000000
3.808328 0.221162 -0.162916 31.000000
3.779075 0.207823 -0.161346 49.000000
3.777700 0.196124 -0.161241 53.000000
3.767312 0.183994 -0.160666 67.000000
3.758881 0.172022 -0.160195 77.000000
3.750412 0.160103 -0.159724 85.000000
3.741904 0.148237 -0.159253 68.000000
3.733360 0.136425 -0.158782 54.000000
3.732763 0.124937 -0.158729 72.000000
3.734127 0.113515 -0.158782 102.000000
3.714493 0.101507 -0.157735 41.000000
3.714787 0.090111 -0.157735 44.000000
3.720037 0.078821 -0.157997 48.000000
3.720262 0.067407 -0.157997 53.000000
3.719453 0.055978 -0.157944 65.000000
3.714614 0.044505 -0.157683 49.000000
3.713735 0.033100 -0.157630 50.000000
3.713819 0.021706 -0.157630 49.000000
3.711870 0.010306 -0.157526 40.000000
3.717876 -0.001082 -0.157840 37.000000
3.722849 -0.012503 -0.158101 61.000000
3.727786 -0.023955 -0.158363 47.000000
3.736682 -0.035475 -0.158834 59.000000
3.744544 -0.047036 -0.159253 68.000000
3.756364 -0.058708 -0.159881 60.000000
3.765153 -0.070397 -0.160352 50.000000
3.769911 -0.082055 -0.160613 65.000000
3.778627 -0.093841 -0.161084 49.000000
3.786307 -0.105654 -0.161503 38.000000
3.796945 -0.117606 -0.162079 16.000000
3.797091 0.245778 -0.209523 15.000000
3.776911 0.232840 -0.208164 31.000000
3.761668 0.220320 -0.207129 49.000000
3.750370 0.208116 -0.206352 65.000000
3.751988 0.196661 -0.206417 53.000000
3.738620 0.184462 -0.205511 68.000000
3.731193 0.172623 -0.204994 53.000000
3.724726 0.160875 -0.204541 68.000000
3.719220 0.149207 -0.204152 75.000000
3.712679 0.137538 -0.203699 61.000000
3.716076 0.126248 -0.203894 83.000000
3.715448 0.114816 -0.203829 67.000000
3.715783 0.103417 -0.203829 61.000000
3.717080 0.092041 -0.203894 68.000000
3.717345 0.080637 -0.203894 74.000000
3.719571 0.069269 -0.204023 84.000000
3.720764 0.057872 -0.204088 57.000000
3.718928 0.046432 -0.203958 60.000000
3.722046 0.035050 -0.204152 48.000000
3.721139 0.023625 -0.204088 54.000000
3.721194 0.012209 -0.204088 73.000000
3.724207 0.000792 -0.204282 70.000000
3.725190 -0.010636 -0.204347 105.000000
3.730129 -0.022095 -0.204670 72.000000
3.738027 -0.033611 -0.205188 67.000000
3.745889 -0.045176 -0.205705 51.000000
3.753715 -0.056790 -0.206223 54.000000
3.760507 -0.068434 -0.206676 53.000000
3.768261 -0.080141 -0.207194 39.000000
3.771988 -0.091799 -0.207452 46.000000
3.776676 -0.103508 -0.207776 27.000000
3.778336 -0.115155 -0.207905 30.000000
3.764999 -0.126310 -0.207064 7.000000
3.779073 0.242730 -0.253328 25.000000
3.759897 0.229911 -0.251797 31.000000
3.753617 0.217968 -0.251261 38.000000
3.743317 0.205846 -0.250419 48.000000
3.731982 0.193736 -0.249501 66.000000
3.725588 0.181943 -0.248965 55.000000
3.723141 0.170375 -0.248735 49.000000
3.723646 0.158952 -0.248735 69.000000
3.723119 0.147487 -0.248659 55.000000
3.718572 0.135880 -0.248276 53.000000
3.718972 0.124471 -0.248276 48.000000
3.717344 0.113000 -0.248123 44.000000
3.716676 0.101567 -0.248046 44.000000
3.714977 0.090115 -0.247893 57.000000
3.713242 0.078675 -0.247740 56.000000
3.713465 0.067282 -0.247740 66.000000
3.715648 0.055920 -0.247893 44.000000
3.713809 0.044495 -0.247740 41.000000
3.716918 0.033129 -0.247970 38.000000
3.718000 0.021732 -0.248046 60.000000
3.724031 0.010343 -0.248506 46.000000
3.724046 -0.001082 -0.248506 56.000000
3.712060 -0.012471 -0.247587 128.000000
3.726960 -0.023950 -0.248735 77.000000
3.726869 -0.035384 -0.248735 50.000000
3.726743 -0.046818 -0.248735 51.000000
3.726582 -0.058251 -0.248735 41.000000
3.733364 -0.069812 -0.249271 38.000000
3.765031 -0.081950 -0.251721 21.000000
3.749810 -0.093134 -0.250572 54.000000
3.754490 -0.104776 -0.250955 41.000000
3.760130 -0.116477 -0.251414 42.000000
3.776696 -0.128584 -0.252716 28.000000
3.854005 0.259986 -0.306476 10.000000
3.764330 0.242347 -0.298402 36.000000
3.762074 0.230614 -0.298136 35.000000
3.743870 0.217973 -0.296450 56.000000
3.739549 0.206213 -0.296007 54.000000
3.730217 0.194222 -0.295119 75.000000
3.730795 0.182777 -0.295119 66.000000
3.728354 0.171193 -0.294853 79.000000
3.726871 0.159669 -0.294676 65.000000
3.723362 0.148077 -0.294321 84.000000
3.720812 0.136543 -0.294055 84.000000
3.724200 0.125228 -0.294321 61.000000
3.732532 0.114044 -0.295031 43.000000
3.738838 0.102756 -0.295563 45.000000
3.742123 0.091357 -0.295829 53.000000
3.746369 0.079961 -0.296184 59.000000
3.751576 0.068557 -0.296628 52.000000
3.751769 0.057047 -0.296628 50.000000
3.743958 0.045441 -0.295918 47.000000
3.746072 0.033972 -0.296095 60.000000
3.741179 0.022450 -0.295652 59.000000
3.750195 0.010997 -0.296450 107.000000
3.747222 -0.000508 -0.296184 105.000000
3.735251 -0.011964 -0.295119 41.000000
3.729220 -0.023386 -0.294587 58.000000
3.726143 -0.034799 -0.294321 65.000000
3.723031 -0.046193 -0.294055 50.000000
3.722871 -0.057615 -0.294055 61.000000
3.721681 -0.069017 -0.293966 49.000000
3.734397 -0.080716 -0.295119 36.000000
3.743094 -0.092395 -0.295918 47.000000
3.750758 -0.104100 -0.296628 36.000000
3.763364 -0.116007 -0.297781 28.000000
3.769958 -0.127789 -0.298402 26.000000
3.826285 -0.141458 -0.303459 8.000000
3.766975 0.254214 -0.346388 21.000000
3.749867 0.241499 -0.344565 45.000000
3.758534 0.230483 -0.345375 38.000000
3.745320 0.218137 -0.343958 54.000000
3.733058 0.205929 -0.342642 67.000000
3.725725 0.194059 -0.341832 69.000000
3.724315 0.182530 -0.341630 45.000000
3.714920 0.170643 -0.340617 72.000000
3.709462 0.158988 -0.340010 49.000000
3.712914 0.147726 -0.340314 57.000000
3.714344 0.136371 -0.340415 53.000000
3.718722 0.125110 -0.340820 47.000000
3.729032 0.114008 -0.341832 48.000000
3.732348 0.102650 -0.342136 63.000000
3.742591 0.091445 -0.343148 35.000000
3.751806 0.080156 -0.344059 59.000000
3.757007 0.068738 -0.344565 42.000000
3.766153 0.057350 -0.345476 82.000000
3.766311 0.045796 -0.345476 57.000000
3.766434 0.034240 -0.345476 59.000000
3.761547 0.022654 -0.344970 35.000000
3.759609 0.011107 -0.344768 38.000000
3.754651 -0.000429 -0.344262 41.000000
3.744684 -0.011919 -0.343249 57.000000
3.736671 -0.023360 -0.342440 53.000000
3.736582 -0.034824 -0.342440 62.000000
3.727504 -0.046180 -0.341529 33.000000
3.724361 -0.057570 -0.341225 40.000000
3.727150 -0.069050 -0.341529 48.000000
3.732889 -0.080612 -0.342136 52.000000
3.745554 -0.092379 -0.343452 38.000000
3.746247 -0.103897 -0.343553 51.000000
3.755855 -0.115693 -0.344565 39.000000
3.779345 -0.128016 -0.346995 17.000000
3.778809 0.243937 -0.392790 17.000000
3.752763 0.230699 -0.389738 46.000000
3.743534 0.218607 -0.388608 50.000000
3.723353 0.205970 -0.386234 83.000000
3.721983 0.194443 -0.386008 87.000000
3.720577 0.182926 -0.385782 78.000000
3.716158 0.171282 -0.385217 85.000000
3.716666 0.159880 -0.385217 89.000000
3.719125 0.148556 -0.385443 75.000000
3.721549 0.137218 -0.385669 84.000000
3.729897 0.126068 -0.386573 67.000000
3.740197 0.114928 -0.387704 75.000000
3.750464 0.103726 -0.388834 55.000000
3.764671 0.092560 -0.390416 50.000000
3.776858 0.081265 -0.391773 61.000000
3.799938 0.070096 -0.394372 36.000000
3.783246 0.058180 -0.392451 53.000000
3.789368 0.046646 -0.393129 74.000000
3.782538 0.034956 -0.392338 47.000000
3.778654 0.023327 -0.391886 47.000000
3.769765 0.011708 -0.390869 45.000000
3.761834 0.000143 -0.389964 37.000000
3.752875 -0.011370 -0.388947 54.000000
3.749842 -0.022866 -0.388608 52.000000
3.737831 -0.034259 -0.387252 63.000000
3.737708 -0.045727 -0.387252 54.000000
3.731590 -0.057102 -0.386573 89.000000
3.738351 -0.068678 -0.387365 48.000000
3.739116 -0.080168 -0.387478 70.000000
3.753752 -0.092006 -0.389173 36.000000
3.747493 -0.103357 -0.388495 42.000000
3.763048 -0.115342 -0.390303 35.000000
3.776578 -0.127357 -0.391886 13.000000
3.762323 0.242305 -0.438105 15.000000
3.751166 0.230029 -0.436601 50.000000
3.735017 0.217534 -0.434471 79.000000
3.739629 0.206294 -0.434972 53.000000
3.738263 0.194716 -0.434721 63.000000
3.732897 0.182953 -0.433969 76.000000
3.730468 0.171362 -0.433593 71.000000
3.730976 0.159916 -0.433593 63.000000
3.727484 0.148310 -0.433092 46.000000
3.735853 0.137167 -0.434095 57.000000
3.743196 0.125941 -0.434972 57.000000
3.748524 0.114610 -0.435599 50.000000
3.775635 0.103854 -0.438983 39.000000
3.764033 0.091975 -0.437479 54.000000
3.770249 0.080556 -0.438231 56.000000
3.865705 0.070760 -0.450263 15.000000
3.840274 0.046718 -0.447004 17.000000
3.809645 0.034647 -0.443119 33.000000
3.794852 0.022864 -0.441239 28.000000
3.781014 0.011177 -0.439484 42.000000
3.772102 -0.000425 -0.438356 47.000000
3.763154 -0.011972 -0.437228 48.000000
3.758139 -0.023488 -0.436601 52.000000
3.749120 -0.034937 -0.435473 62.000000
3.742051 -0.046355 -0.434596 30.000000
3.737923 -0.057775 -0.434095 57.000000
3.732769 -0.069153 -0.433468 44.000000
3.725596 -0.080456 -0.432591 72.000000
3.737234 -0.092176 -0.434095 53.000000
3.741892 -0.103777 -0.434721 33.000000
3.769322 -0.116103 -0.438231 28.000000
3.779855 -0.128033 -0.439609 12.000000
3.778658 0.233607 -0.486961 45.000000
3.771446 0.221549 -0.485861 64.000000
3.762219 0.209428 -0.484487 63.000000
3.750974 0.197262 -0.482837 66.000000
3.730786 0.184726 -0.479951 98.000000
3.729356 0.173188 -0.479676 86.000000
3.731849 0.161831 -0.479951 78.000000
3.734308 0.150461 -0.480226 84.000000
3.744650 0.139371 -0.481600 77.000000
3.754959 0.128219 -0.482975 78.000000
3.760285 0.116851 -0.483662 85.000000
3.768547 0.105535 -0.484761 78.000000
3.781726 0.094293 -0.486548 48.000000
3.803783 0.083164 -0.489572 35.000000
3.791641 0.036358 -0.487785 15.000000
3.791735 0.024725 -0.487785 37.000000
3.779907 0.013052 -0.486136 57.000000
3.776958 0.001455 -0.485724 50.000000
3.773973 -0.010125 -0.485311 54.000000
3.766000 -0.021657 -0.484212 42.000000
3.761954 -0.033175 -0.483662 44.000000
3.777682 -0.044906 -0.485861 35.000000
3.755737 -0.056168 -0.482837 71.000000
3.760499 -0.067780 -0.483524 53.000000
3.762254 -0.079359 -0.483799 47.000000
