ply
format ascii 1.0
element vertex 1273
property float x
property float y
property float z
property float intensity
end_header
3.506522 0.076086 0.583566 47.000000
3.500813 0.065218 0.582637 57.000000
3.498033 0.054431 0.582172 62.000000
3.498183 0.043699 0.582172 52.000000
3.495337 0.032939 0.581707 51.000000
3.498386 0.022234 0.582172 44.000000
3.502389 0.011513 0.582792 41.000000
3.505372 0.000769 0.583256 56.000000
3.507333 -0.009992 0.583566 55.000000
3.506298 -0.020746 0.583411 54.000000
3.507206 -0.031512 0.583566 56.000000
3.506105 -0.042260 0.583411 54.000000
3.506947 -0.053031 0.583566 41.000000
3.505780 -0.063772 0.583411 42.000000
3.503592 -0.074485 0.583101 56.000000
3.504335 -0.085258 0.583256 47.000000
3.501094 -0.095927 0.582792 47.000000
3.497821 -0.106577 0.582327 51.000000
3.490566 -0.117075 0.581243 27.000000
3.492165 -0.127856 0.581552 37.000000
3.493731 -0.138648 0.581862 36.000000
3.497237 -0.149535 0.582482 45.000000
3.497749 -0.160309 0.582637 46.000000
3.503161 -0.171330 0.583566 42.000000
3.501631 -0.182025 0.583411 39.000000
3.505002 -0.192985 0.584031 50.000000
3.501435 -0.203565 0.583566 32.000000
3.498822 -0.214185 0.583256 28.000000
3.492234 -0.224537 0.582327 31.000000
3.392959 -0.228598 0.566839 9.000000
3.494596 0.355765 0.541336 47.000000
3.499610 0.345432 0.541908 50.000000
3.495728 0.334221 0.541193 44.000000
3.498707 0.323678 0.541479 44.000000
3.497712 0.312765 0.541193 41.000000
3.499642 0.302118 0.541336 38.000000
3.503511 0.291627 0.541765 48.000000
3.505375 0.280957 0.541908 53.000000
3.503261 0.269972 0.541479 57.000000
3.505060 0.259296 0.541622 41.000000
3.500903 0.248190 0.540907 58.000000
3.499672 0.237314 0.540622 52.000000
3.497422 0.226383 0.540193 62.000000
3.494148 0.215407 0.539621 67.000000
3.495780 0.204744 0.539764 53.000000
3.497380 0.194074 0.539907 49.000000
3.502901 0.183604 0.540622 39.000000
3.500482 0.172709 0.540193 55.000000
3.500007 0.161923 0.540050 47.000000
3.501476 0.151227 0.540193 64.000000
3.504890 0.140604 0.540622 62.000000
3.502338 0.129739 0.540193 59.000000
3.502719 0.118994 0.540193 43.000000
3.503068 0.108247 0.540193 39.000000
3.505363 0.097555 0.540479 57.000000
3.506634 0.086825 0.540622 72.000000
3.504906 0.076023 0.540336 47.000000
3.504133 0.065251 0.540193 47.000000
3.504316 0.054500 0.540193 38.000000
3.505457 0.043761 0.540336 54.000000
3.504585 0.032997 0.540193 43.000000
3.501701 0.022225 0.539764 58.000000
3.500762 0.011478 0.539621 37.000000
3.495833 0.000735 0.538906 59.000000
3.494829 -0.009987 0.538763 54.000000
3.492802 -0.020698 0.538477 41.000000
3.492722 -0.031414 0.538477 33.000000
3.492609 -0.042129 0.538477 49.000000
3.498402 -0.052932 0.539335 42.000000
3.495254 -0.063612 0.538906 56.000000
3.499001 -0.074417 0.539478 46.000000
3.499745 -0.085176 0.539621 50.000000
3.496499 -0.095832 0.539192 46.000000
3.493221 -0.106469 0.538763 50.000000
3.493867 -0.117219 0.538906 46.000000
3.488545 -0.127758 0.538191 44.000000
3.493082 -0.138654 0.538906 55.000000
3.492640 -0.149370 0.538906 47.000000
3.489199 -0.159950 0.538477 48.000000
3.495612 -0.170990 0.539478 50.000000
3.495071 -0.181714 0.539478 53.000000
3.489556 -0.192165 0.538763 51.000000
3.492902 -0.203098 0.539335 51.000000
3.494238 -0.213934 0.539621 42.000000
3.483689 -0.224021 0.538191 29.000000
3.488910 -0.235105 0.539049 37.000000
3.489160 -0.245877 0.539192 33.000000
3.487402 -0.256508 0.539049 35.000000
3.490546 -0.267508 0.539621 41.000000
3.492668 -0.278450 0.540050 22.000000
3.596409 -0.308904 0.555348 5.000000
3.489884 0.398637 0.498402 30.000000
3.487149 0.387491 0.497878 36.000000
3.486351 0.376578 0.497616 35.000000
3.494391 0.366604 0.498533 47.000000
3.495500 0.355881 0.498533 43.000000
3.499535 0.345448 0.498926 28.000000
3.506500 0.335275 0.499713 52.000000
3.506525 0.324424 0.499582 43.000000
3.507504 0.313665 0.499582 49.000000
3.507462 0.302818 0.499451 46.000000
3.504422 0.291727 0.498926 48.000000
3.505301 0.280974 0.498926 54.000000
3.500216 0.269762 0.498140 50.000000
3.492129 0.258365 0.496961 60.000000
3.492905 0.247650 0.496961 39.000000
3.492659 0.236866 0.496830 57.000000
3.494358 0.226213 0.496961 56.000000
3.495036 0.215492 0.496961 59.000000
3.495681 0.204768 0.496961 57.000000
3.502231 0.194372 0.497747 52.000000
3.505782 0.183781 0.498140 50.000000
3.503359 0.172879 0.497747 73.000000
3.506843 0.162267 0.498140 58.000000
3.502372 0.151294 0.497485 52.000000
3.504801 0.140627 0.497747 67.000000
3.505216 0.129874 0.497747 61.000000
3.502626 0.119019 0.497354 58.000000
3.499011 0.108150 0.496830 57.000000
3.500317 0.097443 0.496961 39.000000
3.502582 0.086752 0.497223 58.000000
3.504814 0.076049 0.497485 55.000000
3.508004 0.065351 0.497878 64.000000
3.510170 0.054619 0.498140 81.000000
3.507348 0.043813 0.497747 57.000000
3.511431 0.033089 0.498271 75.000000
3.510525 0.022310 0.498140 64.000000
3.510576 0.011539 0.498140 79.000000
3.509604 0.000769 0.498009 61.000000
3.504633 -0.009984 0.497354 62.000000
3.503595 -0.020730 0.497223 47.000000
3.498558 -0.031433 0.496568 47.000000
3.492497 -0.042094 0.495781 59.000000
3.489378 -0.052764 0.495388 70.000000
3.486226 -0.063414 0.494995 47.000000
3.489979 -0.074194 0.495519 56.000000
3.497664 -0.085095 0.496568 43.000000
3.497386 -0.095825 0.496568 42.000000
3.494103 -0.106464 0.496174 54.000000
3.493760 -0.117183 0.496174 60.000000
3.487440 -0.127683 0.495388 55.000000
3.485050 -0.138303 0.495126 57.000000
3.481638 -0.148866 0.494733 55.000000
3.477204 -0.159365 0.494209 46.000000
3.481650 -0.170275 0.494864 51.000000
3.488041 -0.181317 0.495781 48.000000
3.487468 -0.192017 0.495781 57.000000
3.491812 -0.203004 0.496437 50.000000
3.492162 -0.213776 0.496568 45.000000
3.490500 -0.224425 0.496437 44.000000
3.489795 -0.235133 0.496437 56.000000
3.490047 -0.245908 0.496568 53.000000
3.486309 -0.256396 0.496174 68.000000
3.487483 -0.267242 0.496437 47.000000
3.485658 -0.277862 0.496305 34.000000
3.482814 -0.288390 0.496043 33.000000
3.479937 -0.298904 0.495781 29.000000
3.478016 -0.309491 0.495650 37.000000
3.472115 -0.319705 0.494995 39.000000
3.474201 0.440685 0.453745 33.000000
3.473566 0.429779 0.453507 50.000000
3.477825 0.419478 0.453864 48.000000
3.480082 0.408923 0.453983 42.000000
3.484280 0.398584 0.454339 57.000000
3.487460 0.388112 0.454577 46.000000
3.492582 0.377840 0.455053 64.000000
3.496687 0.367435 0.455410 71.000000
3.498786 0.356807 0.455529 69.000000
3.498876 0.345973 0.455410 66.000000
3.496956 0.334952 0.455053 68.000000
3.496979 0.324130 0.454934 61.000000
3.497957 0.313400 0.454934 57.000000
3.495934 0.302409 0.454577 66.000000
3.495856 0.291599 0.454458 66.000000
3.497724 0.280953 0.454577 63.000000
3.495600 0.269990 0.454220 69.000000
3.493441 0.259043 0.453864 61.000000
3.493228 0.248254 0.453745 74.000000
3.491993 0.237400 0.453507 60.000000
3.493695 0.226750 0.453626 56.000000
3.488429 0.215661 0.452912 49.000000
3.491056 0.205075 0.453150 43.000000
3.491669 0.194363 0.453150 49.000000
3.495223 0.183808 0.453507 61.000000
3.491804 0.172886 0.453031 62.000000
3.492318 0.162172 0.453031 68.000000
3.491807 0.151414 0.452912 71.000000
3.494239 0.140781 0.453150 61.000000
3.492671 0.129986 0.452912 77.000000
3.496030 0.119372 0.453269 63.000000
3.495387 0.108615 0.453150 56.000000
3.498682 0.097975 0.453507 61.000000
3.499958 0.087266 0.453626 54.000000
3.502195 0.076572 0.453864 63.000000
3.500428 0.065789 0.453626 48.000000
3.497635 0.055002 0.453269 58.000000
3.493816 0.044219 0.452793 38.000000
3.495921 0.033520 0.453031 51.000000
3.494022 0.022781 0.452793 48.000000
3.492089 0.012054 0.452556 58.000000
3.490124 0.001339 0.452318 68.000000
3.487133 -0.009362 0.451961 59.000000
3.486095 -0.020055 0.451842 56.000000
3.486017 -0.030750 0.451842 53.000000
3.481935 -0.041399 0.451366 41.000000
3.482784 -0.052096 0.451485 56.000000
3.483601 -0.062798 0.451604 50.000000
3.482399 -0.073465 0.451485 48.000000
3.488113 -0.084290 0.452199 56.000000
3.486845 -0.094964 0.452080 64.000000
3.484553 -0.105602 0.451842 44.000000
3.487190 -0.116390 0.452199 42.000000
3.489792 -0.127196 0.452556 44.000000
3.489386 -0.137902 0.452556 47.000000
3.490930 -0.148690 0.452793 59.000000
3.479547 -0.158905 0.451485 33.000000
3.489953 -0.170107 0.452793 48.000000
3.489414 -0.180814 0.452793 49.000000
3.487852 -0.191464 0.452674 45.000000
3.482291 -0.201878 0.452080 69.000000
3.482647 -0.212621 0.452199 42.000000
3.479996 -0.223178 0.451961 38.000000
3.481277 -0.233986 0.452199 45.000000
3.482523 -0.244804 0.452437 39.000000
3.482746 -0.255559 0.452556 52.000000
3.479966 -0.266092 0.452318 51.000000
3.480123 -0.276846 0.452437 35.000000
3.474309 -0.287114 0.451842 36.000000
3.470444 -0.297518 0.451485 28.000000
3.463581 -0.307639 0.450772 52.000000
3.463609 -0.318354 0.450891 25.000000
3.462616 -0.328979 0.450891 30.000000
3.457638 -0.339214 0.450415 40.000000
3.466460 -0.350817 0.451604 28.000000
3.487637 0.475072 0.412510 36.000000
3.483164 0.463584 0.411869 49.000000
3.485556 0.453023 0.411976 35.000000
3.486930 0.442328 0.411976 43.000000
3.488271 0.431628 0.411976 45.000000
3.493527 0.421400 0.412403 49.000000
3.490853 0.410216 0.411976 36.000000
3.495059 0.399843 0.412296 58.000000
3.497257 0.389228 0.412403 55.000000
3.501401 0.378818 0.412724 52.000000
3.498591 0.367659 0.412296 45.000000
3.496735 0.356621 0.411976 43.000000
3.495834 0.345696 0.411762 50.000000
3.494898 0.334780 0.411549 70.000000
3.496899 0.324148 0.411656 48.000000
3.491935 0.312886 0.411015 49.000000
3.487926 0.301744 0.410481 57.000000
3.487844 0.290959 0.410374 63.000000
3.487729 0.280177 0.410268 61.000000
3.488572 0.269476 0.410268 61.000000
3.490374 0.258845 0.410374 57.000000
3.491152 0.248136 0.410374 51.000000
3.494873 0.237626 0.410695 41.000000
3.499554 0.227160 0.411122 52.000000
3.498250 0.216300 0.410908 56.000000
3.496912 0.205450 0.410695 46.000000
3.494547 0.194555 0.410374 50.000000
3.492149 0.183677 0.410054 64.000000
3.489717 0.172815 0.409734 60.000000
3.490231 0.162108 0.409734 69.000000
3.486738 0.151227 0.409306 51.000000
3.488179 0.140569 0.409413 56.000000
3.489588 0.129904 0.409520 54.000000
3.494939 0.119366 0.410054 64.000000
3.494294 0.108613 0.409947 60.000000
3.493617 0.097864 0.409840 71.000000
3.494895 0.087170 0.409947 65.000000
3.493158 0.076404 0.409734 45.000000
3.493376 0.065687 0.409734 43.000000
3.491572 0.054938 0.409520 55.000000
3.489736 0.044201 0.409306 57.000000
3.489855 0.033494 0.409306 60.000000
3.491930 0.022800 0.409520 72.000000
3.491984 0.012087 0.409520 70.000000
3.492004 0.001374 0.409520 45.000000
3.490998 -0.009337 0.409413 47.000000
3.491947 -0.020053 0.409520 54.000000
3.489881 -0.030748 0.409306 57.000000
3.489770 -0.041455 0.409306 63.000000
3.490621 -0.052176 0.409413 61.000000
3.488456 -0.062849 0.409200 63.000000
3.484270 -0.073467 0.408772 40.000000
3.485023 -0.084180 0.408879 52.000000
3.480772 -0.094763 0.408452 69.000000
3.479471 -0.105411 0.408345 39.000000
3.480125 -0.116119 0.408452 38.000000
3.480746 -0.126831 0.408559 39.000000
3.488289 -0.137824 0.409413 50.000000
3.491823 -0.148695 0.409840 39.000000
3.493337 -0.159498 0.410054 50.000000
3.497797 -0.170457 0.410588 40.000000
3.493285 -0.180982 0.410161 45.000000
3.495692 -0.191862 0.410481 60.000000
3.494094 -0.202528 0.410374 47.000000
3.490479 -0.213065 0.410054 55.000000
3.483856 -0.223390 0.409413 47.000000
3.483154 -0.234077 0.409413 44.000000
3.481428 -0.244692 0.409306 48.000000
3.481652 -0.255445 0.409413 41.000000
3.477878 -0.265897 0.409093 35.000000
3.475063 -0.276408 0.408879 33.000000
3.478163 -0.287396 0.409306 41.000000
3.481227 -0.298406 0.409734 39.000000
3.477324 -0.308821 0.409413 32.000000
3.460519 -0.318030 0.407705 19.000000
3.472973 0.515919 0.369663 29.000000
3.473554 0.505118 0.369568 38.000000
3.476073 0.494599 0.369663 56.000000
3.476588 0.483795 0.369568 50.000000
3.475097 0.472723 0.369283 49.000000
3.476531 0.462059 0.369283 62.000000
3.472996 0.450749 0.368808 53.000000
3.481276 0.440970 0.369473 78.000000
3.484588 0.430532 0.369663 66.000000
3.487870 0.420078 0.369853 64.000000
3.492107 0.409725 0.370138 55.000000
3.498293 0.399576 0.370613 78.000000
3.496535 0.388510 0.370328 64.000000
3.495731 0.377567 0.370138 79.000000
3.489943 0.366111 0.369473 68.000000
3.486097 0.354897 0.368998 62.000000
3.483207 0.343807 0.368618 61.000000
3.480282 0.332739 0.368238 60.000000
3.480295 0.321968 0.368143 64.000000
3.480275 0.311200 0.368048 63.000000
3.480222 0.300435 0.367953 70.000000
3.481127 0.289757 0.367953 86.000000
3.481008 0.278996 0.367858 67.000000
3.480855 0.268238 0.367763 73.000000
3.479676 0.257410 0.367573 59.000000
3.483428 0.246945 0.367858 58.000000
3.481189 0.236054 0.367573 65.000000
3.481898 0.225373 0.367573 71.000000
3.483566 0.214751 0.367668 66.000000
3.477252 0.203653 0.367004 76.000000
3.476866 0.192929 0.366909 83.000000
3.479430 0.182366 0.367099 54.000000
3.475996 0.171492 0.366719 60.000000
3.477501 0.160874 0.366814 61.000000
3.476983 0.150161 0.366719 73.000000
3.476433 0.139453 0.366624 71.000000
3.477839 0.128824 0.366719 67.000000
3.478218 0.118153 0.366719 67.000000
3.478564 0.107482 0.366719 61.000000
3.475893 0.096725 0.366434 74.000000
3.473187 0.085986 0.366149 63.000000
3.473435 0.075330 0.366149 75.000000
3.474645 0.064692 0.366244 69.000000
3.474827 0.054032 0.366244 62.000000
3.474976 0.043371 0.366244 55.000000
3.476088 0.032719 0.366339 63.000000
3.477168 0.022061 0.366434 52.000000
3.477219 0.011393 0.366434 58.000000
3.474251 0.000724 0.366149 41.000000
3.477224 -0.009943 0.366434 56.000000
3.477177 -0.020611 0.366434 49.000000
3.479088 -0.031296 0.366624 47.000000
3.475990 -0.041934 0.366339 47.000000
3.472859 -0.052554 0.366054 56.000000
3.467704 -0.063120 0.365579 63.000000
3.465504 -0.073716 0.365389 50.000000
3.464266 -0.084324 0.365294 65.000000
3.463991 -0.094952 0.365294 51.000000
3.467663 -0.105699 0.365674 53.000000
3.471303 -0.116469 0.366054 63.000000
3.469934 -0.127082 0.365959 63.000000
3.477486 -0.138040 0.366719 62.000000
3.477046 -0.148709 0.366719 73.000000
3.483535 -0.159692 0.367383 63.000000
3.488994 -0.170669 0.367953 47.000000
3.487460 -0.181320 0.367858 64.000000
3.485893 -0.191965 0.367763 53.000000
3.486281 -0.202716 0.367858 51.000000
3.477694 -0.212926 0.367099 34.000000
3.470070 -0.223150 0.366434 48.000000
3.470362 -0.233862 0.366529 56.000000
3.463670 -0.244090 0.365959 36.000000
3.462905 -0.254715 0.365959 33.000000
3.466078 -0.265641 0.366339 30.000000
3.445400 -0.274698 0.364439 15.000000
3.455454 -0.286167 0.365484 9.000000
3.489860 0.562927 0.327363 35.000000
3.488618 0.551751 0.327116 45.000000
3.491279 0.541198 0.327199 42.000000
3.489966 0.530036 0.326951 40.000000
3.494534 0.519766 0.327199 36.000000
3.486249 0.507607 0.326374 39.000000
3.481871 0.496066 0.325879 57.000000
3.483376 0.485382 0.325879 64.000000
3.485837 0.474827 0.325962 50.000000
3.484313 0.463736 0.325714 51.000000
3.489672 0.453558 0.326044 41.000000
3.491047 0.442850 0.326044 39.000000
3.492389 0.432137 0.326044 55.000000
3.495678 0.421659 0.326209 49.000000
3.491016 0.410235 0.325714 51.000000
3.490278 0.399297 0.325549 59.000000
3.491487 0.388587 0.325549 59.000000
3.486717 0.377231 0.325055 47.000000
3.483894 0.366116 0.324725 57.000000
3.481035 0.355021 0.324395 66.000000
3.481116 0.344242 0.324312 54.000000
3.476203 0.332991 0.323818 41.000000
3.472247 0.321865 0.323405 43.000000
3.473218 0.311211 0.323405 63.000000
3.469192 0.300125 0.322993 66.000000
3.467117 0.289232 0.322746 44.000000
3.469975 0.278753 0.322911 56.000000
3.468826 0.267953 0.322746 63.000000
3.470626 0.257383 0.322828 71.000000
3.481340 0.247439 0.323653 48.000000
3.479100 0.236555 0.323405 55.000000
3.484782 0.226203 0.323818 57.000000
3.483470 0.215388 0.323653 56.000000
3.481130 0.204524 0.323405 57.000000
3.481741 0.193843 0.323405 63.000000
3.480329 0.183056 0.323240 66.000000
3.477888 0.172230 0.322993 48.000000
3.475414 0.161421 0.322746 67.000000
3.474896 0.150715 0.322663 43.000000
3.476338 0.140093 0.322746 46.000000
3.472768 0.129280 0.322416 73.000000
3.473149 0.118625 0.322416 44.000000
3.473496 0.107969 0.322416 71.000000
3.476800 0.097395 0.322663 58.000000
3.477082 0.086728 0.322663 66.000000
3.475339 0.076017 0.322498 69.000000
3.474560 0.065335 0.322416 63.000000
3.472750 0.054644 0.322251 48.000000
3.471905 0.043977 0.322168 45.000000
3.472024 0.033325 0.322168 51.000000
3.470117 0.022660 0.322004 51.000000
3.472163 0.012021 0.322168 55.000000
3.468197 0.001367 0.321839 60.000000
3.469182 -0.009276 0.321921 60.000000
3.468141 -0.019913 0.321839 62.000000
3.466070 -0.030536 0.321674 53.000000
3.464963 -0.041157 0.321591 68.000000
3.462828 -0.051757 0.321426 57.000000
3.461656 -0.062363 0.321344 51.000000
3.465434 -0.073067 0.321674 57.000000
3.468182 -0.083771 0.321921 37.000000
3.464921 -0.094329 0.321674 54.000000
3.466607 -0.105020 0.321839 56.000000
3.470253 -0.115788 0.322168 54.000000
3.472869 -0.126543 0.322416 45.000000
3.471469 -0.137158 0.322333 38.000000
3.478001 -0.148105 0.322911 65.000000
3.479522 -0.158866 0.323076 58.000000
3.481009 -0.169637 0.323240 41.000000
3.478481 -0.180213 0.323076 46.000000
3.472937 -0.190610 0.322663 33.000000
3.477310 -0.201553 0.323076 36.000000
3.476676 -0.212220 0.323076 37.000000
3.477002 -0.222950 0.323158 47.000000
3.475308 -0.233549 0.323076 32.000000
3.500422 -0.246029 0.325219 11.000000
3.500645 -0.256840 0.325302 7.000000
3.487967 0.593725 0.285578 47.000000
3.485837 0.582362 0.285295 47.000000
3.490561 0.572150 0.285507 29.000000
3.478513 0.559217 0.284518 46.000000
3.476270 0.547920 0.284236 62.000000
3.481878 0.537863 0.284518 45.000000
3.482526 0.527029 0.284448 57.000000
3.486100 0.516635 0.284589 49.000000
3.483720 0.505363 0.284306 49.000000
3.481304 0.494111 0.284024 60.000000
3.479839 0.483016 0.283812 71.000000
3.477351 0.471800 0.283529 47.000000
3.473838 0.460472 0.283176 62.000000
3.473256 0.449556 0.283035 43.000000
3.470661 0.438396 0.282753 41.000000
3.472979 0.427869 0.282823 59.000000
3.473285 0.417092 0.282753 54.000000
3.473558 0.406318 0.282682 63.000000
3.479743 0.396226 0.283035 45.000000
3.474994 0.384887 0.282611 56.000000
3.473183 0.373903 0.282399 49.000000
3.473322 0.363142 0.282329 49.000000
3.472435 0.352282 0.282187 53.000000
3.469529 0.341235 0.281905 57.000000
3.465594 0.330114 0.281552 66.000000
3.460631 0.318929 0.281128 51.000000
3.463580 0.308489 0.281269 77.000000
3.466498 0.298032 0.281411 59.000000
3.466402 0.287313 0.281340 54.000000
3.464284 0.276438 0.281128 82.000000
3.467105 0.265962 0.281269 65.000000
3.463926 0.255029 0.280987 59.000000
3.466682 0.244542 0.281128 46.000000
3.468411 0.233973 0.281199 64.000000
3.469113 0.223331 0.281199 41.000000
3.470777 0.212748 0.281269 61.000000
3.473405 0.202215 0.281411 53.000000
3.473013 0.191503 0.281340 60.000000
3.476573 0.181003 0.281552 64.000000
3.473126 0.170140 0.281269 60.000000
3.468650 0.159253 0.280916 53.000000
3.469122 0.148611 0.280916 51.000000
3.469562 0.137967 0.280916 57.000000
3.466979 0.127211 0.280704 73.000000
3.467352 0.116574 0.280704 61.000000
3.470685 0.106028 0.280916 42.000000
3.470994 0.095380 0.280916 60.000000
3.471270 0.084731 0.280916 37.000000
3.471514 0.074081 0.280916 56.000000
3.464743 0.063300 0.280422 51.000000
3.462926 0.052639 0.280281 46.000000
3.462074 0.042002 0.280210 45.000000
3.460192 0.031362 0.280069 42.000000
3.460272 0.020746 0.280069 57.000000
3.458324 0.010123 0.279927 47.000000
3.457341 -0.000487 0.279857 51.000000
3.458321 -0.011097 0.279927 49.000000
3.458271 -0.021707 0.279927 37.000000
3.454198 -0.032281 0.279645 41.000000
3.451090 -0.042842 0.279433 46.000000
3.450943 -0.053429 0.279433 59.000000
3.455749 -0.064107 0.279786 53.000000
3.459525 -0.074794 0.280069 40.000000
3.461274 -0.085456 0.280210 57.000000
3.461993 -0.096102 0.280281 59.000000
3.466667 -0.106874 0.280634 53.000000
3.466323 -0.117510 0.280634 44.000000
3.463952 -0.128070 0.280492 51.000000
3.461550 -0.138618 0.280351 53.000000
3.457121 -0.149067 0.280069 33.000000
3.465616 -0.160084 0.280704 23.000000
3.458134 -0.170374 0.280210 38.000000
3.461580 -0.181190 0.280492 56.000000
3.464992 -0.192028 0.280775 56.000000
3.521148 -0.205959 0.284801 9.000000
3.520500 -0.216761 0.284801 9.000000
3.471258 0.636069 0.240599 36.000000
3.470246 0.624886 0.240424 44.000000
3.475096 0.614758 0.240599 38.000000
3.476965 0.604093 0.240599 32.000000
3.473882 0.592585 0.240308 38.000000
3.471745 0.581265 0.240076 37.000000
3.477453 0.571258 0.240308 36.000000
3.467361 0.558682 0.239611 56.000000
3.465115 0.547419 0.239379 60.000000
3.467764 0.536939 0.239437 64.000000
3.468408 0.526147 0.239379 39.000000
3.471981 0.515797 0.239495 50.000000
3.473547 0.505143 0.239495 67.000000
3.470139 0.493781 0.239204 48.000000
3.469660 0.482858 0.239088 60.000000
3.467168 0.471673 0.238856 58.000000
3.462661 0.460245 0.238507 72.000000
3.465047 0.449748 0.238566 41.000000
3.465420 0.438990 0.238507 63.000000
3.469723 0.428723 0.238682 36.000000
3.466066 0.417479 0.238391 45.000000
3.464356 0.406495 0.238217 49.000000
3.469554 0.396317 0.238449 42.000000
3.466784 0.385231 0.238217 57.000000
3.461003 0.373843 0.237810 53.000000
3.462133 0.363223 0.237810 76.000000
3.460252 0.352297 0.237636 62.000000
3.458336 0.341385 0.237462 57.000000
3.458373 0.330679 0.237404 49.000000
3.454401 0.319608 0.237113 49.000000
3.458348 0.309275 0.237288 45.000000
3.461270 0.298835 0.237404 60.000000
3.467145 0.288628 0.237694 38.000000
3.472990 0.278388 0.237985 54.000000
3.471837 0.267578 0.237868 55.000000
3.471646 0.256852 0.237810 61.000000
3.472417 0.246200 0.237810 62.000000
3.472160 0.235478 0.237752 53.000000
3.476851 0.225082 0.237985 80.000000
3.472543 0.214108 0.237694 56.000000
3.472187 0.203395 0.237636 62.000000
3.478776 0.193072 0.237985 68.000000
3.476361 0.182242 0.237810 40.000000
3.480892 0.171773 0.238043 56.000000
3.479408 0.161000 0.237927 46.000000
3.481880 0.150411 0.238043 49.000000
3.479333 0.139608 0.237868 44.000000
3.475754 0.128786 0.237636 64.000000
3.473140 0.118020 0.237462 55.000000
3.470492 0.107272 0.237288 67.000000
3.467811 0.096541 0.237113 58.000000
3.466095 0.085852 0.236997 57.000000
3.461351 0.075110 0.236707 61.000000
3.462564 0.064509 0.236765 59.000000
3.464742 0.053917 0.236881 52.000000
3.460898 0.043238 0.236649 62.000000
3.460016 0.032610 0.236591 62.000000
3.454110 0.021957 0.236242 42.000000
3.457156 0.011370 0.236416 46.000000
3.457175 0.000763 0.236416 53.000000
3.457161 -0.009843 0.236416 57.000000
3.456116 -0.020444 0.236358 61.000000
3.456037 -0.031047 0.236358 43.000000
3.459919 -0.041698 0.236591 57.000000
3.462769 -0.052358 0.236765 48.000000
3.461594 -0.062963 0.236707 53.000000
3.462382 -0.073605 0.236765 52.000000
3.463138 -0.084251 0.236823 55.000000
3.463862 -0.094903 0.236881 44.000000
3.465550 -0.105590 0.236997 67.000000
3.459223 -0.116021 0.236649 44.000000
3.460846 -0.126706 0.236765 45.000000
3.457448 -0.137204 0.236591 29.000000
3.456014 -0.147768 0.236532 56.000000
3.447566 -0.158004 0.236068 25.000000
3.463499 0.588932 0.198057 15.000000
3.466275 0.578468 0.198103 45.000000
3.464090 0.567184 0.197918 46.000000
3.462855 0.556078 0.197779 38.000000
3.457638 0.544361 0.197456 45.000000
3.459292 0.533751 0.197456 38.000000
3.458938 0.522836 0.197363 47.000000
3.457561 0.511782 0.197225 43.000000
3.463069 0.501746 0.197410 45.000000
3.463603 0.490979 0.197363 42.000000
3.465093 0.480350 0.197363 52.000000
3.464571 0.469448 0.197271 50.000000
3.466985 0.458948 0.197317 49.000000
3.466396 0.448053 0.197225 45.000000
3.464781 0.437040 0.197086 49.000000
3.461148 0.425797 0.196855 54.000000
3.461446 0.415057 0.196808 50.000000
3.459727 0.404087 0.196670 49.000000
3.460951 0.393470 0.196670 52.000000
3.458170 0.382410 0.196485 58.000000
3.458334 0.371692 0.196439 39.000000
3.461445 0.361288 0.196531 39.000000
3.466512 0.351071 0.196716 50.000000
3.467573 0.340434 0.196716 57.000000
3.467607 0.329699 0.196670 49.000000
3.467607 0.318967 0.196624 63.000000
3.465584 0.308061 0.196485 55.000000
3.464523 0.297256 0.196392 65.000000
3.460441 0.286212 0.196161 58.000000
3.460307 0.275514 0.196115 59.000000
3.456156 0.264514 0.195884 48.000000
3.454959 0.253763 0.195791 48.000000
3.453728 0.243021 0.195699 65.000000
3.456451 0.232559 0.195791 53.000000
3.462132 0.222275 0.196022 51.000000
3.467783 0.211959 0.196254 42.000000
3.466423 0.201202 0.196161 58.000000
3.466027 0.190511 0.196115 40.000000
3.466595 0.179877 0.196115 52.000000
3.465134 0.169142 0.196022 45.000000
3.460648 0.158281 0.195791 61.000000
3.460119 0.147620 0.195745 49.000000
3.456563 0.136844 0.195560 49.000000
3.459961 0.126350 0.195699 40.000000
3.458336 0.115667 0.195606 46.000000
3.457676 0.105025 0.195560 57.000000
3.457982 0.094417 0.195560 42.000000
3.453263 0.083685 0.195329 48.000000
3.449508 0.073004 0.195144 49.000000
3.449716 0.062421 0.195144 62.000000
3.453886 0.051898 0.195329 44.000000
3.456027 0.041326 0.195421 39.000000
3.460133 0.030760 0.195606 33.000000
3.459212 0.020138 0.195560 51.000000
3.462255 0.009535 0.195699 53.000000
3.462268 -0.001088 0.195699 42.000000
3.461249 -0.011707 0.195653 39.000000
3.458200 -0.022307 0.195514 42.000000
3.456118 -0.032898 0.195421 46.000000
3.456000 -0.043501 0.195421 44.000000
3.453853 -0.054073 0.195329 31.000000
3.450674 -0.064614 0.195190 46.000000
3.452458 -0.075243 0.195283 39.000000
3.451212 -0.085811 0.195236 40.000000
3.448935 -0.096343 0.195144 52.000000
3.447625 -0.106893 0.195098 31.000000
3.440292 -0.117234 0.194774 18.000000
3.419951 -0.127053 0.193849 12.000000
3.449985 0.533574 0.153893 29.000000
3.463464 0.524782 0.154299 52.000000
3.463080 0.513861 0.154232 39.000000
3.462662 0.502947 0.154164 48.000000
3.459241 0.491619 0.153995 30.000000
3.452814 0.479904 0.153724 39.000000
3.447338 0.468367 0.153487 35.000000
3.450740 0.458052 0.153555 65.000000
3.454111 0.447719 0.153622 46.000000
3.453485 0.436870 0.153555 46.000000
3.449850 0.425661 0.153385 51.000000
3.451139 0.415075 0.153385 51.000000
3.455375 0.404834 0.153487 51.000000
3.458586 0.394457 0.153555 46.000000
3.458787 0.383734 0.153521 53.000000
3.457960 0.372907 0.153453 42.000000
3.463064 0.362712 0.153588 62.000000
3.464161 0.352086 0.153588 58.000000
3.462241 0.341163 0.153487 52.000000
3.459292 0.330160 0.153352 52.000000
3.455312 0.319086 0.153182 64.000000
3.449307 0.307863 0.152945 47.000000
3.451231 0.297365 0.152979 65.000000
3.449139 0.286528 0.152878 54.000000
3.450001 0.275944 0.152878 64.000000
3.449835 0.265282 0.152844 59.000000
3.449636 0.254623 0.152810 69.000000
3.449404 0.243969 0.152776 59.000000
3.450136 0.233385 0.152776 47.000000
3.448842 0.222670 0.152708 50.000000
3.451503 0.212211 0.152776 61.000000
3.450143 0.201504 0.152708 62.000000
3.448749 0.190808 0.152641 63.000000
3.447322 0.180123 0.152573 58.000000
3.443866 0.169350 0.152437 52.000000
3.443371 0.158737 0.152404 71.000000
3.444840 0.148215 0.152437 48.000000
3.442282 0.137527 0.152336 48.000000
3.447682 0.127149 0.152505 52.000000
3.447057 0.116537 0.152471 54.000000
3.447398 0.105961 0.152471 65.000000
3.445709 0.095329 0.152404 54.000000
3.442988 0.084684 0.152302 66.000000
3.442232 0.074099 0.152268 77.000000
3.445441 0.063593 0.152370 48.000000
3.447619 0.053053 0.152437 84.000000
3.451763 0.042525 0.152573 62.000000
3.452876 0.031944 0.152607 59.000000
3.456956 0.021375 0.152742 56.000000
3.457005 0.010769 0.152742 46.000000
3.456022 0.000163 0.152708 57.000000
3.455007 -0.010437 0.152674 62.000000
3.454959 -0.021037 0.152674 57.000000
3.454878 -0.031636 0.152674 58.000000
3.466757 -0.042384 0.153081 50.000000
3.455618 -0.052850 0.152708 62.000000
3.462435 -0.063581 0.152945 59.000000
3.523174 -0.075516 0.155010 32.000000
3.576879 -0.087653 0.156838 20.000000
3.676497 -0.101392 0.160224 12.000000
3.456417 0.491183 0.111406 22.000000
3.444045 0.478645 0.111103 45.000000
3.447478 0.468347 0.111147 39.000000
3.448899 0.457768 0.111147 42.000000
3.451278 0.447313 0.111168 35.000000
3.451643 0.436597 0.111147 33.000000
3.450981 0.425760 0.111103 41.000000
3.447309 0.414572 0.110995 49.000000
3.445586 0.403644 0.110930 52.000000
3.444821 0.392844 0.110887 53.000000
3.445017 0.382163 0.110865 41.000000
3.441203 0.371054 0.110757 51.000000
3.445308 0.360808 0.110822 46.000000
3.448388 0.350440 0.110865 57.000000
3.450442 0.339957 0.110887 52.000000
3.454454 0.329655 0.110952 44.000000
3.450472 0.318594 0.110844 45.000000
3.448446 0.307739 0.110779 58.000000
3.447381 0.296986 0.110735 33.000000
3.440306 0.285743 0.110562 39.000000
3.441166 0.275187 0.110562 51.000000
3.439004 0.264398 0.110497 56.000000
3.434814 0.253476 0.110389 47.000000
3.437570 0.243079 0.110432 56.000000
3.439297 0.232599 0.110454 50.000000
3.438997 0.221982 0.110432 41.000000
3.440660 0.211492 0.110454 52.000000
3.439296 0.200818 0.110411 48.000000
3.440894 0.190321 0.110432 44.000000
3.439465 0.179658 0.110389 38.000000
3.438003 0.169006 0.110346 35.000000
3.438505 0.158458 0.110346 54.000000
3.437976 0.147865 0.110324 49.000000
3.437415 0.137276 0.110303 51.000000
3.439818 0.126804 0.110346 44.000000
3.440191 0.116250 0.110346 52.000000
3.441530 0.105726 0.110367 63.000000
3.442838 0.095195 0.110389 46.000000
3.440116 0.084558 0.110324 41.000000
3.437360 0.073938 0.110259 49.000000
3.434572 0.063335 0.110194 48.000000
3.432751 0.052767 0.110151 51.000000
3.434896 0.042260 0.110194 34.000000
3.435009 0.031722 0.110194 35.000000
3.433091 0.021170 0.110151 37.000000
3.435139 0.010644 0.110194 41.000000
3.438155 0.000107 0.110259 25.000000
3.447137 -0.010466 0.110454 31.000000
3.465084 -0.021145 0.110844 32.000000
3.479999 -0.031908 0.111168 35.000000
3.554862 -0.043477 0.112791 31.000000
3.619689 -0.055356 0.114198 26.000000
3.736456 -0.068570 0.116730 48.000000
3.743225 -0.080181 0.116881 43.000000
3.768948 -0.092293 0.117444 33.000000
3.780640 -0.104182 0.117704 13.000000
3.432395 0.465731 0.068076 34.000000
3.439755 0.455987 0.068132 36.000000
3.452047 0.446842 0.068233 62.000000
3.453402 0.436249 0.068233 56.000000
3.455716 0.425775 0.068243 55.000000
3.451049 0.414456 0.068187 56.000000
3.448332 0.403402 0.068150 55.000000
3.444585 0.392256 0.068104 75.000000
3.439809 0.381026 0.068048 55.000000
3.434002 0.369723 0.067984 58.000000
3.432137 0.358874 0.067956 56.000000
3.434216 0.348443 0.067965 54.000000
3.437260 0.338101 0.067984 50.000000
3.440272 0.327744 0.068002 56.000000
3.440265 0.317096 0.067993 53.000000
3.436242 0.306097 0.067947 41.000000
3.443143 0.296066 0.068002 36.000000
3.445031 0.285584 0.068011 77.000000
3.442901 0.274775 0.067984 84.000000
3.438742 0.263829 0.067937 59.000000
3.441530 0.253425 0.067956 51.000000
3.441294 0.242795 0.067947 84.000000
3.443020 0.232303 0.067956 48.000000
3.440723 0.221547 0.067928 45.000000
3.441387 0.210990 0.067928 58.000000
3.442018 0.200431 0.067928 57.000000
3.442616 0.189870 0.067928 58.000000
3.443182 0.179307 0.067928 62.000000
3.446713 0.168889 0.067956 57.000000
3.451210 0.158497 0.067993 57.000000
3.447684 0.147737 0.067956 53.000000
3.448121 0.137159 0.067956 61.000000
3.445528 0.126470 0.067928 48.000000
3.443901 0.115832 0.067910 60.000000
3.442241 0.105205 0.067891 66.000000
3.440549 0.094589 0.067873 54.000000
3.438823 0.083984 0.067854 73.000000
3.439065 0.073434 0.067854 56.000000
3.435275 0.062810 0.067817 44.000000
3.438451 0.052316 0.067845 54.000000
3.443594 0.041827 0.067891 40.000000
3.453706 0.031351 0.067984 40.000000
3.462785 0.020808 0.068067 43.000000
3.479832 0.010233 0.068224 36.000000
3.507846 -0.000450 0.068483 34.000000
3.570825 -0.011420 0.069066 19.000000
3.666767 -0.022988 0.069954 42.000000
3.757671 -0.035096 0.070796 104.000000
3.749547 -0.046524 0.070722 63.000000
3.764384 -0.058261 0.070860 58.000000
3.788182 -0.070258 0.071082 26.000000
3.795947 -0.082053 0.071156 33.000000
3.799675 -0.093797 0.071193 31.000000
3.808366 -0.105705 0.071277 9.000000
3.445813 0.425120 0.024719 30.000000
3.441144 0.413828 0.024739 37.000000
3.439418 0.402919 0.024749 47.000000
3.431696 0.391343 0.024779 35.000000
3.429899 0.380481 0.024788 45.000000
3.427073 0.369526 0.024802 34.000000
3.430180 0.359219 0.024795 39.000000
3.425297 0.348085 0.024815 30.000000
3.436300 0.338559 0.024782 52.000000
3.439313 0.328205 0.024775 53.000000
3.442296 0.317837 0.024769 52.000000
3.440267 0.307007 0.024779 46.000000
3.438204 0.296192 0.024788 61.000000
3.436107 0.285393 0.024798 66.000000
3.435969 0.274770 0.024802 50.000000
3.434802 0.264073 0.024808 43.000000
3.432604 0.253312 0.024818 50.000000
3.433365 0.242780 0.024818 47.000000
3.434094 0.232245 0.024818 46.000000
3.437784 0.221903 0.024808 32.000000
3.440444 0.211478 0.024802 53.000000
3.440079 0.200864 0.024805 42.000000
3.439681 0.190253 0.024808 38.000000
3.439250 0.179647 0.024812 54.000000
3.438786 0.169045 0.024815 47.000000
3.438289 0.158448 0.024818 62.000000
3.432765 0.147639 0.024838 56.000000
3.431203 0.137026 0.024845 46.000000
3.429609 0.126424 0.024851 48.000000
3.429980 0.115902 0.024851 40.000000
3.427321 0.105285 0.024861 46.000000
3.429628 0.094826 0.024855 42.000000
3.429902 0.084303 0.024855 32.000000
3.442142 0.074042 0.024815 35.000000
3.459350 0.063801 0.024759 48.000000
3.470528 0.053360 0.024722 31.000000
3.496673 0.043041 0.024636 29.000000
3.598783 0.033290 0.024298 36.000000
3.629868 0.022451 0.024195 39.000000
3.677919 0.011479 0.024036 54.000000
3.672937 0.000194 0.024052 36.000000
3.702920 -0.011156 0.023953 48.000000
3.728868 -0.022666 0.023867 124.000000
3.740780 -0.034212 0.023827 71.000000
3.751657 -0.045819 0.023790 53.000000
3.764497 -0.057523 0.023747 33.000000
3.761303 -0.069018 0.023757 48.000000
3.763073 -0.080600 0.023751 38.000000
3.776804 -0.092483 0.023704 33.000000
3.784499 -0.104287 0.023678 23.000000
3.429841 0.349204 -0.017731 52.000000
3.428906 0.338483 -0.017699 34.000000
3.425947 0.327582 -0.017636 51.000000
3.426936 0.317070 -0.017636 36.000000
3.425900 0.306377 -0.017605 55.000000
3.422840 0.295521 -0.017542 47.000000
3.424726 0.285101 -0.017558 56.000000
3.429572 0.274912 -0.017621 61.000000
3.431396 0.264466 -0.017636 66.000000
3.432191 0.253937 -0.017636 61.000000
3.433952 0.243477 -0.017652 70.000000
3.434682 0.232941 -0.017652 65.000000
3.433385 0.222273 -0.017621 54.000000
3.431057 0.211554 -0.017573 59.000000
3.426699 0.200735 -0.017495 48.000000
3.421309 0.189889 -0.017401 60.000000
3.421875 0.179392 -0.017401 64.000000
3.422410 0.168893 -0.017401 62.000000
3.416919 0.158116 -0.017306 51.000000
3.423382 0.147890 -0.017401 61.000000
3.424818 0.137427 -0.017416 50.000000
3.430220 0.127104 -0.017495 50.000000
3.442585 0.116985 -0.017683 50.000000
3.447925 0.106577 -0.017762 59.000000
3.459230 0.096303 -0.017935 55.000000
3.482499 0.086257 -0.018296 47.000000
3.500741 0.075961 -0.018579 37.000000
3.600928 0.067072 -0.020149 43.000000
3.692095 0.057430 -0.021579 83.000000
3.675257 0.045892 -0.021312 62.000000
3.699377 0.034839 -0.021689 69.000000
3.700466 0.023496 -0.021705 68.000000
3.701521 0.012146 -0.021720 67.000000
3.703540 0.000790 -0.021752 56.000000
3.712524 -0.010599 -0.021893 88.000000
3.731471 -0.022103 -0.022191 114.000000
3.726387 -0.033505 -0.022113 61.000000
3.734265 -0.045035 -0.022239 35.000000
3.743107 -0.056628 -0.022380 61.000000
3.752913 -0.068295 -0.022537 77.000000
3.754685 -0.079851 -0.022568 55.000000
3.764418 -0.091614 -0.022725 45.000000
3.756123 -0.102943 -0.022600 22.000000
3.738800 -0.113946 -0.022333 12.000000
3.421966 0.294788 -0.058721 47.000000
3.426839 0.284620 -0.058832 55.000000
3.427696 0.274105 -0.058832 48.000000
3.428521 0.263588 -0.058832 44.000000
3.428317 0.252994 -0.058804 40.000000
3.427083 0.242334 -0.058748 41.000000
3.422823 0.231479 -0.058610 45.000000
3.421522 0.220848 -0.058554 41.000000
3.419191 0.210165 -0.058471 53.000000
3.416826 0.199498 -0.058388 66.000000
3.416424 0.188959 -0.058360 57.000000
3.414991 0.178372 -0.058305 48.000000
3.413525 0.167795 -0.058249 40.000000
3.419016 0.157553 -0.058388 38.000000
3.430470 0.147539 -0.058693 35.000000
3.431904 0.137054 -0.058721 34.000000
3.462276 0.127640 -0.059553 37.000000
3.497618 0.118210 -0.060524 40.000000
3.567903 0.109652 -0.062467 37.000000
3.630175 0.100439 -0.064187 54.000000
3.655448 0.089924 -0.064881 63.000000
3.666700 0.078949 -0.065186 63.000000
3.670923 0.067774 -0.065297 51.000000
3.677111 0.056606 -0.065463 46.000000
3.680266 0.045362 -0.065547 45.000000
3.682387 0.034090 -0.065602 49.000000
3.682474 0.022793 -0.065602 32.000000
3.693522 0.011533 -0.065907 80.000000
3.690542 0.000200 -0.065824 59.000000
3.694523 -0.011133 -0.065935 40.000000
3.701469 -0.022508 -0.066129 28.000000
3.711378 -0.033952 -0.066407 36.000000
3.721252 -0.045457 -0.066684 41.000000
3.727092 -0.056963 -0.066851 58.000000
3.731897 -0.068488 -0.066989 58.000000
3.742663 -0.080169 -0.067295 48.000000
3.761386 -0.092110 -0.067822 34.000000
3.770079 -0.103894 -0.068072 21.000000
3.780734 -0.115793 -0.068377 16.000000
3.441794 0.254647 -0.102400 24.000000
3.415648 0.242181 -0.101312 48.000000
3.410394 0.231296 -0.101070 46.000000
3.414079 0.221025 -0.101191 44.000000
3.416736 0.210673 -0.101272 50.000000
3.421355 0.200423 -0.101433 43.000000
3.433926 0.190588 -0.101917 41.000000
3.444473 0.180574 -0.102320 51.000000
3.462974 0.170890 -0.103045 58.000000
3.495422 0.161740 -0.104335 40.000000
3.559791 0.153768 -0.106915 41.000000
3.620149 0.145243 -0.109333 49.000000
3.672500 0.136054 -0.111429 72.000000
3.673898 0.124820 -0.111469 70.000000
3.679258 0.113702 -0.111671 68.000000
3.676593 0.102330 -0.111550 65.000000
3.673893 0.090976 -0.111429 53.000000
3.673156 0.079683 -0.111389 62.000000
3.672384 0.068395 -0.111348 58.000000
3.675574 0.057174 -0.111469 54.000000
3.681726 0.045972 -0.111711 63.000000
3.680851 0.034667 -0.111671 49.000000
3.684937 0.023399 -0.111832 54.000000
3.689987 0.012109 -0.112034 44.000000
3.693005 0.000789 -0.112155 48.000000
3.695987 -0.010550 -0.112276 43.000000
3.702931 -0.021931 -0.112558 50.000000
3.707843 -0.033337 -0.112759 24.000000
3.719712 -0.044858 -0.113243 30.000000
3.733544 -0.056483 -0.113807 32.000000
3.736350 -0.067992 -0.113928 39.000000
3.742118 -0.079582 -0.114170 33.000000
3.737861 -0.090965 -0.114009 20.000000
3.697612 -0.101333 -0.112396 5.000000
3.605594 0.231534 -0.152344 26.000000
3.520567 0.215203 -0.147843 32.000000
3.500276 0.203178 -0.146744 43.000000
3.558714 0.195637 -0.149780 44.000000
3.643069 0.189093 -0.154176 45.000000
3.670562 0.179239 -0.155589 52.000000
3.678078 0.168299 -0.155955 56.000000
3.687556 0.157400 -0.156426 56.000000
3.689019 0.146126 -0.156479 48.000000
3.688452 0.134770 -0.156426 67.000000
3.678868 0.123117 -0.155903 30.000000
3.674237 0.111676 -0.155641 20.000000
3.676559 0.100458 -0.155746 23.000000
3.684837 0.089375 -0.156165 23.000000
3.681100 0.077983 -0.155955 28.000000
3.673335 0.066542 -0.155537 34.000000
3.677515 0.055334 -0.155746 34.000000
3.677668 0.044051 -0.155746 50.000000
3.695760 0.032934 -0.156688 25.000000
3.681863 0.021509 -0.155955 45.000000
3.682910 0.010216 -0.156008 66.000000
3.686919 -0.001083 -0.156217 46.000000
3.690893 -0.012406 -0.156426 65.000000
3.695830 -0.023760 -0.156688 52.000000
3.702730 -0.035163 -0.157054 53.000000
3.711592 -0.046633 -0.157526 56.000000
3.726409 -0.058249 -0.158311 38.000000
3.731205 -0.069773 -0.158572 51.000000
3.746948 -0.081562 -0.159410 33.000000
3.779625 -0.093866 -0.161137 18.000000
3.759355 -0.104910 -0.160090 39.000000
3.763464 0.255202 -0.207388 20.000000
3.726388 0.241209 -0.204929 46.000000
3.717150 0.229162 -0.204282 57.000000
3.709866 0.217291 -0.203764 64.000000
3.707526 0.205743 -0.203570 70.000000
3.698174 0.193846 -0.202923 73.000000
3.692772 0.182205 -0.202535 53.000000
3.687332 0.170598 -0.202147 64.000000
3.684847 0.159156 -0.201952 82.000000
3.679336 0.147611 -0.201564 73.000000
3.676780 0.136212 -0.201370 63.000000
3.674188 0.124830 -0.201176 59.000000
3.671561 0.113465 -0.200982 66.000000
3.674885 0.102283 -0.201176 88.000000
3.677176 0.091057 -0.201305 109.000000
3.675443 0.079732 -0.201176 100.000000
3.660705 0.068179 -0.200205 55.000000
3.658901 0.056917 -0.200076 47.000000
3.661054 0.045716 -0.200205 57.000000
3.664171 0.034511 -0.200399 60.000000
3.667253 0.023288 -0.200594 47.000000
3.679282 0.012075 -0.201370 53.000000
3.685289 0.000788 -0.201758 92.000000
3.687270 -0.010524 -0.201888 100.000000
3.700193 -0.021915 -0.202729 47.000000
3.706095 -0.033321 -0.203117 46.000000
3.710965 -0.044752 -0.203441 56.000000
3.719790 -0.056273 -0.204023 58.000000
3.727582 -0.067831 -0.204541 55.000000
3.735337 -0.079438 -0.205058 40.000000
3.744055 -0.091116 -0.205641 48.000000
3.743758 -0.102603 -0.205641 35.000000
3.745420 -0.114149 -0.205770 9.000000
3.783481 0.266335 -0.253787 17.000000
3.731556 0.251161 -0.249730 32.000000
3.709424 0.238235 -0.247970 45.000000
3.714118 0.227098 -0.248276 40.000000
3.705839 0.215179 -0.247587 34.000000
3.689557 0.202873 -0.246286 59.000000
3.686180 0.191344 -0.245980 74.000000
3.679778 0.179692 -0.245444 51.000000
3.675332 0.168172 -0.245061 48.000000
3.672843 0.156767 -0.244832 59.000000
3.667328 0.145260 -0.244372 79.000000
3.664768 0.133898 -0.244143 55.000000
3.664165 0.122620 -0.244066 44.000000
3.661534 0.111286 -0.243836 48.000000
3.661858 0.100052 -0.243836 47.000000
3.663145 0.088842 -0.243913 41.000000
3.663400 0.077603 -0.243913 48.000000
3.660630 0.066308 -0.243683 39.000000
3.663807 0.055123 -0.243913 45.000000
3.658974 0.043821 -0.243530 37.000000
3.663079 0.032632 -0.243836 41.000000
3.667150 0.021419 -0.244143 57.000000
3.671187 0.010180 -0.244449 117.000000
3.674192 -0.001083 -0.244678 77.000000
3.678160 -0.012367 -0.244985 57.000000
3.679102 -0.023658 -0.245061 56.000000
3.684994 -0.035000 -0.245520 43.000000
3.693842 -0.046415 -0.246209 43.000000
3.702655 -0.057885 -0.246898 36.000000
3.714422 -0.069464 -0.247817 32.000000
3.724160 -0.081073 -0.248582 35.000000
3.728878 -0.092621 -0.248965 34.000000
3.739540 -0.104363 -0.249807 25.000000
3.744185 -0.115988 -0.250190 14.000000
3.712099 0.261870 -0.293877 19.000000
3.719842 0.250949 -0.294498 33.000000
3.718606 0.239408 -0.294321 36.000000
3.698445 0.226721 -0.292458 69.000000
3.690174 0.214853 -0.291659 67.000000
3.685843 0.203257 -0.291216 68.000000
3.675507 0.191379 -0.290240 81.000000
3.674088 0.180005 -0.290062 78.000000
3.671638 0.168595 -0.289796 93.000000
3.672138 0.157330 -0.289796 69.000000
3.673598 0.146103 -0.289885 68.000000
3.676020 0.134904 -0.290062 59.000000
3.679403 0.123726 -0.290328 74.000000
3.681756 0.112498 -0.290506 79.000000
3.688058 0.101365 -0.291038 62.000000
3.693331 0.090171 -0.291482 72.000000
3.692594 0.078819 -0.291393 46.000000
3.692819 0.067489 -0.291393 29.000000
3.696992 0.056220 -0.291748 47.000000
3.697147 0.044877 -0.291748 44.000000
3.702247 0.033579 -0.292192 61.000000
3.703329 0.022227 -0.292280 81.000000
3.697404 0.010848 -0.291748 95.000000
3.685467 -0.000493 -0.290683 47.000000
3.681464 -0.011786 -0.290328 60.000000
3.675434 -0.023043 -0.289796 55.000000
3.672358 -0.034291 -0.289530 64.000000
3.674227 -0.045582 -0.289707 58.000000
3.678054 -0.056916 -0.290062 45.000000
3.689813 -0.068423 -0.291127 36.000000
3.696556 -0.079894 -0.291748 38.000000
3.701272 -0.091358 -0.292192 49.000000
3.709936 -0.102963 -0.292990 36.000000
3.729514 -0.114960 -0.294764 25.000000
3.759008 -0.127417 -0.297426 6.000000
3.739383 0.263871 -0.343654 26.000000
3.721317 0.251118 -0.341731 45.000000
3.713134 0.239122 -0.340820 44.000000
3.703921 0.227117 -0.339808 54.000000
3.691689 0.214997 -0.338492 56.000000
3.686371 0.203339 -0.337884 69.000000
3.681017 0.191716 -0.337277 73.000000
3.680594 0.180373 -0.337176 75.000000
3.680136 0.169034 -0.337074 65.000000
3.680638 0.157743 -0.337074 72.000000
3.686075 0.146650 -0.337581 51.000000
3.692472 0.135561 -0.338188 51.000000
3.696848 0.124367 -0.338593 45.000000
3.707156 0.113332 -0.339605 47.000000
3.716437 0.102207 -0.340516 51.000000
3.722700 0.090952 -0.341124 60.000000
3.726940 0.079617 -0.341529 47.000000
3.747061 0.068553 -0.343553 115.000000
3.722384 0.056670 -0.341022 50.000000
3.727515 0.045312 -0.341529 57.000000
3.708735 0.033698 -0.339605 40.000000
3.705836 0.022301 -0.339301 46.000000
3.699918 0.010912 -0.338694 42.000000
3.691975 -0.000441 -0.337884 34.000000
3.688972 -0.011759 -0.337581 47.000000
3.682949 -0.023041 -0.336973 52.000000
3.678882 -0.034304 -0.336568 33.000000
3.678760 -0.045591 -0.336568 48.000000
3.679597 -0.056892 -0.336669 49.000000
3.688357 -0.068344 -0.337581 38.000000
3.694098 -0.079786 -0.338188 32.000000
3.699804 -0.091264 -0.338795 47.000000
3.706467 -0.102806 -0.339504 46.000000
3.710112 -0.114298 -0.339909 18.000000
3.769120 0.254926 -0.391773 23.000000
3.706427 0.239272 -0.384539 49.000000
3.689292 0.226804 -0.382504 74.000000
3.678068 0.214790 -0.381148 110.000000
3.678710 0.203505 -0.381148 83.000000
3.679316 0.192218 -0.381148 86.000000
3.679889 0.180929 -0.381148 66.000000
3.680427 0.169639 -0.381148 87.000000
3.688871 0.158687 -0.382052 59.000000
3.697284 0.147686 -0.382956 71.000000
3.705662 0.136634 -0.383861 62.000000
3.715994 0.125599 -0.384991 47.000000
3.721328 0.114350 -0.385556 66.000000
3.729607 0.103152 -0.386460 56.000000
3.740832 0.091976 -0.387704 44.000000
3.751030 0.080712 -0.388834 47.000000
3.754240 0.069258 -0.389173 44.000000
3.757416 0.057786 -0.389512 44.000000
3.752608 0.046197 -0.388947 38.000000
3.737828 0.034548 -0.387252 37.000000
3.728975 0.023026 -0.386234 50.000000
3.719092 0.011556 -0.385104 41.000000
3.708180 0.000146 -0.383861 42.000000
3.700215 -0.011205 -0.382956 44.000000
3.692214 -0.022508 -0.382052 63.000000
3.686167 -0.033780 -0.381374 68.000000
3.686045 -0.045089 -0.381374 57.000000
3.688870 -0.056444 -0.381713 55.000000
3.695634 -0.067889 -0.382504 48.000000
3.695408 -0.079227 -0.382504 56.000000
3.717000 -0.091102 -0.384991 29.000000
3.739547 -0.103137 -0.387591 23.000000
3.745172 -0.114793 -0.388269 20.000000
3.748774 -0.126417 -0.388721 10.000000
3.723948 0.251297 -0.433343 22.000000
3.712821 0.239102 -0.431839 39.000000
3.711556 0.227588 -0.431588 41.000000
3.699362 0.215446 -0.429959 71.000000
3.699015 0.204041 -0.429833 55.000000
3.697642 0.192587 -0.429583 65.000000
3.695243 0.181096 -0.429207 64.000000
3.698754 0.169895 -0.429583 57.000000
3.699258 0.158547 -0.429583 64.000000
3.702701 0.147316 -0.429959 58.000000
3.713050 0.136323 -0.431212 53.000000
3.723366 0.125268 -0.432465 44.000000
3.727700 0.113966 -0.432967 46.000000
3.728031 0.102530 -0.432967 53.000000
3.754115 0.091730 -0.436225 30.000000
3.790087 0.080986 -0.440737 14.000000
3.767855 0.045815 -0.437855 30.000000
3.759049 0.034171 -0.436727 44.000000
3.756160 0.022619 -0.436351 34.000000
3.744306 0.011057 -0.434847 51.000000
3.729441 -0.000434 -0.432967 54.000000
3.719501 -0.011847 -0.431713 38.000000
3.708534 -0.023193 -0.430335 36.000000
3.700509 -0.034499 -0.429332 40.000000
3.696417 -0.045804 -0.428831 51.000000
3.698243 -0.057174 -0.429081 55.000000
3.704002 -0.068629 -0.429833 52.000000
3.708734 -0.080098 -0.430460 37.000000
3.710454 -0.091524 -0.430711 32.000000
3.713131 -0.102988 -0.431087 30.000000
3.724698 -0.114743 -0.432591 20.000000
3.748271 0.243277 -0.482837 46.000000
3.745045 0.231532 -0.482287 54.000000
3.737827 0.219578 -0.481188 54.000000
3.726616 0.207450 -0.479539 65.000000
3.714376 0.195341 -0.477752 85.000000
3.709022 0.183651 -0.476927 89.000000
3.713525 0.172454 -0.477477 79.000000
3.719974 0.161317 -0.478302 98.000000
3.729359 0.150262 -0.479539 87.000000
3.742671 0.139297 -0.481325 61.000000
3.747040 0.127949 -0.481875 65.000000
3.752365 0.116606 -0.482562 58.000000
3.756665 0.105204 -0.483112 48.000000
3.763902 0.093850 -0.484074 33.000000
3.793622 0.036377 -0.488060 28.000000
3.767963 0.024572 -0.484487 36.000000
3.756135 0.012972 -0.482837 52.000000
3.735356 0.001443 -0.479951 72.000000
3.735343 -0.010017 -0.479951 62.000000
3.727371 -0.021431 -0.478851 58.000000
3.721345 -0.032813 -0.478027 49.000000
3.718255 -0.044194 -0.477614 51.000000
3.720083 -0.055631 -0.477889 58.000000
