ply
format ascii 1.0
element vertex 1268
property float x
property float y
property float z
property float intensity
end_header
3.422675 0.401609 0.489622 67.000000
3.425860 0.391331 0.489884 45.000000
3.425074 0.380600 0.489622 52.000000
3.425240 0.369984 0.489491 64.000000
3.423401 0.359164 0.489098 45.000000
3.425473 0.348760 0.489229 48.000000
3.424554 0.338054 0.488967 49.000000
3.427549 0.327735 0.489229 56.000000
3.429526 0.317309 0.489360 50.000000
3.430483 0.306786 0.489360 52.000000
3.428445 0.296004 0.488967 48.000000
3.430325 0.285567 0.489098 78.000000
3.430196 0.274962 0.488967 62.000000
3.431024 0.264437 0.488967 72.000000
3.428853 0.253691 0.488574 74.000000
3.428626 0.243100 0.488443 61.000000
3.425400 0.232312 0.487919 56.000000
3.428074 0.221930 0.488181 57.000000
3.431708 0.211594 0.488574 49.000000
3.434320 0.201181 0.488836 57.000000
3.436901 0.190753 0.489098 72.000000
3.442420 0.180467 0.489753 65.000000
3.449889 0.170246 0.490671 62.000000
3.455347 0.159890 0.491326 63.000000
3.459783 0.149459 0.491850 73.000000
3.460225 0.138844 0.491850 62.000000
3.460635 0.128227 0.491850 60.000000
3.459030 0.117542 0.491588 49.000000
3.460365 0.106960 0.491719 52.000000
3.455722 0.096206 0.491064 57.000000
3.455010 0.085579 0.490933 59.000000
3.455256 0.074979 0.490933 50.000000
3.456461 0.064396 0.491064 76.000000
3.458625 0.053822 0.491326 57.000000
3.455800 0.043174 0.490933 70.000000
3.450960 0.032526 0.490277 58.000000
3.450052 0.021932 0.490146 53.000000
3.448120 0.011341 0.489884 50.000000
3.451113 0.000763 0.490277 42.000000
3.454073 -0.009834 0.490671 52.000000
3.456009 -0.020443 0.490933 45.000000
3.462870 -0.031109 0.491850 47.000000
3.467714 -0.041793 0.492505 53.000000
3.472526 -0.052507 0.493160 55.000000
3.474331 -0.063197 0.493422 64.000000
3.474121 -0.073855 0.493422 61.000000
3.469913 -0.084417 0.492898 45.000000
3.467656 -0.095007 0.492636 60.000000
3.467348 -0.105645 0.492636 59.000000
3.472953 -0.116483 0.493422 55.000000
3.473570 -0.127173 0.493553 54.000000
3.476135 -0.137948 0.493947 49.000000
3.479657 -0.148782 0.494471 44.000000
3.489088 -0.159911 0.495781 40.000000
3.488581 -0.170615 0.495781 70.000000
3.491011 -0.181472 0.496174 55.000000
3.487468 -0.192017 0.495781 46.000000
3.484884 -0.202600 0.495519 58.000000
3.488204 -0.213534 0.496043 46.000000
3.494457 -0.224680 0.496961 54.000000
3.493752 -0.235400 0.496961 45.000000
3.495980 -0.246327 0.497354 58.000000
3.492241 -0.256833 0.496961 47.000000
3.494402 -0.267773 0.497354 43.000000
3.497517 -0.278808 0.497878 43.000000
3.498621 -0.289701 0.498140 39.000000
3.499692 -0.300603 0.498402 49.000000
3.500728 -0.311515 0.498664 46.000000
3.502717 -0.322526 0.499057 38.000000
3.511580 -0.334211 0.500368 31.000000
3.509552 -0.344886 0.500237 37.000000
3.493683 -0.354150 0.498271 20.000000
3.408516 0.496243 0.446847 32.000000
3.411988 0.486064 0.447085 45.000000
3.414447 0.475731 0.447204 51.000000
3.415890 0.465253 0.447204 41.000000
3.417302 0.454771 0.447204 63.000000
3.417696 0.444157 0.447085 53.000000
3.419043 0.433669 0.447085 54.000000
3.419372 0.423056 0.446966 51.000000
3.423611 0.412921 0.447323 49.000000
3.420917 0.401951 0.446847 53.000000
3.421148 0.391340 0.446728 61.000000
3.423319 0.380953 0.446847 66.000000
3.424472 0.370448 0.446847 68.000000
3.424605 0.359836 0.446728 47.000000
3.427668 0.349530 0.446966 58.000000
3.426748 0.338817 0.446728 60.000000
3.430737 0.328587 0.447085 62.000000
3.431729 0.318060 0.447085 61.000000
3.433677 0.307619 0.447204 64.000000
3.434605 0.297083 0.447204 62.000000
3.436489 0.286627 0.447323 55.000000
3.436363 0.276003 0.447204 58.000000
3.440163 0.265690 0.447561 62.000000
3.440962 0.255134 0.447561 63.000000
3.441729 0.244576 0.447561 70.000000
3.439491 0.233813 0.447204 76.000000
3.438210 0.223130 0.446966 58.000000
3.438879 0.212581 0.446966 70.000000
3.440506 0.202088 0.447085 50.000000
3.441110 0.191532 0.447085 54.000000
3.444656 0.181131 0.447442 51.000000
3.450154 0.170810 0.448036 76.000000
3.455621 0.160456 0.448631 57.000000
3.458081 0.149940 0.448869 78.000000
3.459516 0.139370 0.448988 71.000000
3.458935 0.128719 0.448869 62.000000
3.457330 0.118038 0.448631 71.000000
3.457676 0.107431 0.448631 73.000000
3.456004 0.096766 0.448393 49.000000
3.456284 0.086162 0.448393 69.000000
3.458518 0.075602 0.448631 67.000000
3.458734 0.064991 0.448631 77.000000
3.464873 0.054476 0.449345 60.000000
3.468002 0.043884 0.449701 62.000000
3.468121 0.033244 0.449701 47.000000
3.473171 0.022638 0.450296 40.000000
3.475210 0.011990 0.450534 36.000000
3.471259 0.001325 0.450058 50.000000
3.477204 -0.009339 0.450772 42.000000
3.472194 -0.019980 0.450177 46.000000
3.474102 -0.030649 0.450415 59.000000
3.477963 -0.041353 0.450891 44.000000
3.481791 -0.052081 0.451366 65.000000
3.484593 -0.062816 0.451723 68.000000
3.485377 -0.073526 0.451842 66.000000
3.484143 -0.084195 0.451723 45.000000
3.484860 -0.094911 0.451842 56.000000
3.481575 -0.105513 0.451485 47.000000
3.484212 -0.116292 0.451842 54.000000
3.485823 -0.127052 0.452080 60.000000
3.485417 -0.137746 0.452080 41.000000
3.487954 -0.148564 0.452437 63.000000
3.493434 -0.159534 0.453150 41.000000
3.493920 -0.170299 0.453269 55.000000
3.499330 -0.181324 0.453983 59.000000
3.500740 -0.192167 0.454220 54.000000
3.502116 -0.203021 0.454458 62.000000
3.505442 -0.214005 0.454934 45.000000
3.510714 -0.225137 0.455648 48.000000
3.510997 -0.235973 0.455766 60.000000
3.510257 -0.246744 0.455766 43.000000
3.509483 -0.257512 0.455766 54.000000
3.511647 -0.268504 0.456123 52.000000
3.510807 -0.279276 0.456123 49.000000
3.510923 -0.290127 0.456242 40.000000
3.510016 -0.300897 0.456242 54.000000
3.511055 -0.311839 0.456480 40.000000
3.516014 -0.323153 0.457194 33.000000
3.517971 -0.334219 0.457550 42.000000
3.518906 -0.345204 0.457788 42.000000
3.517830 -0.355998 0.457788 43.000000
3.517709 -0.366892 0.457907 58.000000
3.517554 -0.377788 0.458026 48.000000
3.567699 -0.394232 0.464210 12.000000
3.425066 0.498706 0.406210 26.000000
3.429533 0.488616 0.406530 41.000000
3.437909 0.479051 0.407278 58.000000
3.441333 0.468770 0.407491 62.000000
3.441769 0.458079 0.407384 58.000000
3.445130 0.447774 0.407598 65.000000
3.440569 0.436452 0.406957 54.000000
3.440906 0.425772 0.406850 62.000000
3.439234 0.414857 0.406530 75.000000
3.433578 0.403492 0.405783 57.000000
3.433812 0.392843 0.405676 43.000000
3.431048 0.381867 0.405249 54.000000
3.430227 0.371125 0.405035 43.000000
3.434316 0.360911 0.405355 46.000000
3.434418 0.350272 0.405249 41.000000
3.443392 0.340516 0.406103 79.000000
3.437492 0.329287 0.405355 57.000000
3.438486 0.318740 0.405355 75.000000
3.444400 0.308632 0.405889 60.000000
3.442358 0.297807 0.405569 71.000000
3.446229 0.287492 0.405889 68.000000
3.446103 0.276838 0.405783 53.000000
3.450901 0.266570 0.406210 66.000000
3.454678 0.256202 0.406530 54.000000
3.457431 0.245743 0.406744 47.000000
3.458169 0.235134 0.406744 61.000000
3.458874 0.224524 0.406744 64.000000
3.461531 0.214033 0.406957 71.000000
3.463164 0.203471 0.407064 61.000000
3.460794 0.192680 0.406744 56.000000
3.460376 0.182009 0.406637 70.000000
3.459925 0.171343 0.406530 69.000000
3.460434 0.160727 0.406530 64.000000
3.463891 0.150239 0.406850 61.000000
3.467316 0.139731 0.407171 63.000000
3.467729 0.129093 0.407171 68.000000
3.471090 0.118555 0.407491 69.000000
3.476406 0.108059 0.408025 59.000000
3.476721 0.097393 0.408025 59.000000
3.479985 0.086800 0.408345 61.000000
3.484211 0.076210 0.408772 67.000000
3.484429 0.065520 0.408772 63.000000
3.490578 0.054923 0.409413 71.000000
3.491725 0.044226 0.409520 62.000000
3.490849 0.033504 0.409413 67.000000
3.491930 0.022800 0.409520 61.000000
3.492978 0.012090 0.409627 66.000000
3.488027 0.001373 0.409093 84.000000
3.494975 -0.009348 0.409840 45.000000
3.493936 -0.020064 0.409734 59.000000
3.493858 -0.030784 0.409734 66.000000
3.499712 -0.041574 0.410374 47.000000
3.500562 -0.052326 0.410481 63.000000
3.502373 -0.063101 0.410695 66.000000
3.505146 -0.073909 0.411015 73.000000
3.501920 -0.084590 0.410695 53.000000
3.503632 -0.095388 0.410908 48.000000
3.501335 -0.106076 0.410695 55.000000
3.494037 -0.116584 0.409947 52.000000
3.496644 -0.127412 0.410268 52.000000
3.497230 -0.138179 0.410374 53.000000
3.496790 -0.148907 0.410374 55.000000
3.499296 -0.159771 0.410695 52.000000
3.494817 -0.170312 0.410268 55.000000
3.499243 -0.181291 0.410801 69.000000
3.505620 -0.192408 0.411549 45.000000
3.500050 -0.202874 0.411015 48.000000
3.502388 -0.213793 0.411335 58.000000
3.506677 -0.224856 0.411869 50.000000
3.503987 -0.235479 0.411656 47.000000
3.511183 -0.246787 0.412510 57.000000
3.513384 -0.257776 0.412830 48.000000
3.512576 -0.268554 0.412830 52.000000
3.515700 -0.279645 0.413257 50.000000
3.516808 -0.290594 0.413471 41.000000
3.520853 -0.301807 0.414005 50.000000
3.523872 -0.312960 0.414432 53.000000
3.524875 -0.323951 0.414646 55.000000
3.525844 -0.334952 0.414859 55.000000
3.527769 -0.346059 0.415180 50.000000
3.526691 -0.356881 0.415180 56.000000
3.527557 -0.367905 0.415393 66.000000
3.524434 -0.378514 0.415180 41.000000
3.532151 -0.390308 0.416141 11.000000
3.437151 0.478293 0.365769 30.000000
3.436629 0.467477 0.365579 53.000000
3.441994 0.457457 0.365959 60.000000
3.446343 0.447281 0.366244 50.000000
3.445724 0.436455 0.366054 52.000000
3.450011 0.426248 0.366339 57.000000
3.449326 0.415423 0.366149 63.000000
3.450584 0.404839 0.366149 74.000000
3.451810 0.394251 0.366149 73.000000
3.451024 0.383438 0.365959 74.000000
3.451195 0.372742 0.365864 67.000000
3.454302 0.362360 0.366054 68.000000
3.454407 0.351660 0.365959 62.000000
3.456460 0.341158 0.366054 68.000000
3.452536 0.330077 0.365579 71.000000
3.449568 0.319115 0.365199 54.000000
3.450531 0.308530 0.365199 70.000000
3.446502 0.297513 0.364724 75.000000
3.450375 0.287187 0.365009 68.000000
3.449255 0.276440 0.364819 64.000000
3.452072 0.266010 0.365009 74.000000
3.452872 0.255418 0.365009 86.000000
3.456618 0.245036 0.365294 70.000000
3.456360 0.234362 0.365199 65.000000
3.456070 0.223693 0.365104 62.000000
3.460714 0.213335 0.365484 60.000000
3.462346 0.202775 0.365579 64.000000
3.465933 0.192318 0.365864 72.000000
3.469489 0.181841 0.366149 69.000000
3.469037 0.171147 0.366054 62.000000
3.473523 0.160688 0.366434 81.000000
3.474994 0.150074 0.366529 74.000000
3.472454 0.139292 0.366244 68.000000
3.474855 0.128712 0.366434 60.000000
3.472249 0.117948 0.366149 65.000000
3.475579 0.107388 0.366434 66.000000
3.474897 0.096697 0.366339 64.000000
3.472192 0.085961 0.366054 52.000000
3.476420 0.075395 0.366434 76.000000
3.478626 0.064767 0.366624 57.000000
3.475822 0.054047 0.366339 61.000000
3.479953 0.043434 0.366719 59.000000
3.479075 0.032748 0.366624 45.000000
3.482145 0.022094 0.366909 56.000000
3.486179 0.011426 0.367288 62.000000
3.486197 0.000730 0.367288 55.000000
3.489169 -0.009973 0.367573 55.000000
3.495095 -0.020711 0.368143 61.000000
3.493024 -0.031416 0.367953 56.000000
3.497889 -0.042191 0.368428 56.000000
3.498738 -0.052937 0.368523 60.000000
3.503536 -0.063760 0.368998 54.000000
3.503324 -0.074508 0.368998 49.000000
3.506064 -0.085327 0.369283 60.000000
3.505786 -0.096083 0.369283 68.000000
3.503484 -0.106779 0.369093 57.000000
3.498166 -0.117361 0.368618 73.000000
3.498784 -0.128129 0.368713 60.000000
3.495390 -0.138745 0.368428 78.000000
3.497932 -0.149595 0.368713 62.000000
3.500440 -0.160461 0.368998 74.000000
3.502914 -0.171345 0.369283 62.000000
3.507343 -0.182348 0.369758 58.000000
3.508755 -0.193216 0.369948 50.000000
3.510133 -0.204095 0.370138 58.000000
3.508497 -0.214802 0.370043 48.000000
3.508815 -0.225628 0.370138 57.000000
3.509099 -0.236459 0.370233 48.000000
3.511336 -0.247432 0.370518 49.000000
3.517511 -0.258713 0.371183 51.000000
3.517693 -0.269579 0.371278 45.000000
3.522804 -0.280842 0.371847 45.000000
3.532839 -0.292549 0.372892 58.000000
3.535892 -0.303726 0.373272 48.000000
3.535935 -0.314660 0.373367 44.000000
3.539910 -0.325962 0.373842 28.000000
3.529974 -0.335974 0.372987 42.000000
3.525954 -0.346511 0.372702 36.000000
3.493180 -0.354125 0.369663 18.000000
3.453249 0.470392 0.323240 48.000000
3.451712 0.459401 0.322993 44.000000
3.452117 0.448681 0.322911 40.000000
3.452489 0.437963 0.322828 56.000000
3.453816 0.427368 0.322828 51.000000
3.456100 0.416889 0.322911 69.000000
3.454394 0.405936 0.322663 49.000000
3.458594 0.395675 0.322911 63.000000
3.460782 0.385173 0.322993 63.000000
3.462938 0.374661 0.323076 54.000000
3.465062 0.364139 0.323158 56.000000
3.466163 0.353506 0.323158 59.000000
3.471198 0.343263 0.323488 52.000000
3.473227 0.332706 0.323570 48.000000
3.469270 0.321590 0.323158 54.000000
3.467262 0.310678 0.322911 63.000000
3.465220 0.299782 0.322663 58.000000
3.466124 0.289149 0.322663 64.000000
3.464014 0.278275 0.322416 61.000000
3.467833 0.267876 0.322663 48.000000
3.471620 0.257457 0.322911 51.000000
3.480346 0.247369 0.323570 54.000000
3.481089 0.236690 0.323570 74.000000
3.481799 0.226009 0.323570 73.000000
3.482476 0.215326 0.323570 59.000000
3.482125 0.204583 0.323488 48.000000
3.479751 0.193733 0.323240 60.000000
3.482319 0.183161 0.323405 67.000000
3.480874 0.172378 0.323240 60.000000
3.485369 0.161882 0.323570 60.000000
3.486845 0.151232 0.323653 55.000000
3.489284 0.140614 0.323818 62.000000
3.489699 0.129908 0.323818 59.000000
3.490081 0.119201 0.323818 53.000000
3.491426 0.108524 0.323900 62.000000
3.491743 0.097812 0.323900 55.000000
3.492026 0.087099 0.323900 66.000000
3.492277 0.076385 0.323900 54.000000
3.490502 0.065633 0.323735 59.000000
3.492680 0.054956 0.323900 66.000000
3.495822 0.044277 0.324147 74.000000
3.497934 0.033571 0.324312 75.000000
3.501011 0.022859 0.324560 80.000000
3.501064 0.012118 0.324560 56.000000
3.502082 0.001377 0.324642 56.000000
3.504062 -0.009373 0.324807 49.000000
3.508004 -0.020147 0.325137 70.000000
3.505932 -0.030891 0.324972 63.000000
3.510803 -0.041707 0.325384 44.000000
3.512652 -0.052508 0.325549 51.000000
3.520446 -0.063429 0.326209 62.000000
3.526213 -0.074356 0.326704 53.000000
3.527961 -0.085222 0.326869 56.000000
3.527683 -0.096045 0.326869 58.000000
3.530360 -0.106958 0.327116 61.000000
3.531011 -0.117822 0.327199 58.000000
3.530633 -0.128655 0.327199 52.000000
3.526238 -0.139328 0.326869 52.000000
3.526790 -0.150188 0.326951 57.000000
3.525317 -0.160962 0.326869 51.000000
3.524806 -0.171777 0.326869 45.000000
3.524263 -0.182590 0.326869 54.000000
3.523686 -0.193401 0.326869 64.000000
3.524071 -0.204269 0.326951 43.000000
3.525418 -0.215201 0.327116 56.000000
3.524740 -0.226016 0.327116 45.000000
3.529997 -0.237230 0.327611 56.000000
3.532235 -0.248269 0.327858 49.000000
3.533444 -0.259250 0.328023 56.000000
3.533626 -0.270166 0.328106 62.000000
3.533774 -0.281085 0.328188 49.000000
3.542827 -0.292747 0.329013 38.000000
3.540919 -0.303529 0.328930 50.000000
3.538979 -0.314303 0.328848 50.000000
3.543952 -0.325707 0.329342 29.000000
3.539960 -0.336295 0.329095 38.000000
3.540895 -0.347349 0.329260 41.000000
3.530889 -0.357306 0.328518 27.000000
3.373166 -0.351786 0.315489 6.000000
3.449676 0.468035 0.281552 51.000000
3.447140 0.456924 0.281269 43.000000
3.447537 0.446218 0.281199 39.000000
3.453838 0.436266 0.281552 61.000000
3.458130 0.426034 0.281764 63.000000
3.466353 0.416258 0.282258 54.000000
3.475539 0.406551 0.282823 62.000000
3.476770 0.395886 0.282823 57.000000
3.480942 0.385548 0.283035 59.000000
3.482109 0.374867 0.283035 78.000000
3.480266 0.363870 0.282823 58.000000
3.478389 0.352888 0.282611 63.000000
3.481441 0.342411 0.282753 72.000000
3.479496 0.331443 0.282541 63.000000
3.483476 0.321043 0.282753 57.000000
3.486432 0.310532 0.282894 73.000000
3.487368 0.299834 0.282894 52.000000
3.490260 0.289299 0.283035 56.000000
3.488148 0.278350 0.282823 66.000000
3.488986 0.267648 0.282823 53.000000
3.489790 0.256942 0.282823 49.000000
3.488572 0.246094 0.282682 59.000000
3.487320 0.235255 0.282541 63.000000
3.489021 0.224619 0.282611 56.000000
3.487703 0.213791 0.282470 52.000000
3.491329 0.203265 0.282682 67.000000
3.487953 0.192332 0.282399 72.000000
3.488527 0.181630 0.282399 56.000000
3.485082 0.170730 0.282117 59.000000
3.483597 0.159945 0.281976 54.000000
3.487061 0.149386 0.282187 64.000000
3.491489 0.138847 0.282470 58.000000
3.493893 0.128208 0.282611 42.000000
3.497260 0.117590 0.282823 63.000000
3.497604 0.106860 0.282823 61.000000
3.502901 0.096268 0.283176 57.000000
3.501186 0.085471 0.283035 55.000000
3.495448 0.074599 0.282611 51.000000
3.496658 0.063894 0.282682 50.000000
3.498832 0.053197 0.282823 44.000000
3.501971 0.042500 0.283035 74.000000
3.506075 0.031793 0.283318 58.000000
3.502166 0.021011 0.283035 66.000000
3.504209 0.010273 0.283176 43.000000
3.507217 -0.000477 0.283388 40.000000
3.496226 -0.011206 0.282611 30.000000
3.503158 -0.021973 0.283106 37.000000
3.505069 -0.032739 0.283247 55.000000
3.506947 -0.043516 0.283388 40.000000
3.513778 -0.054381 0.283883 54.000000
3.520576 -0.065288 0.284377 51.000000
3.523351 -0.076152 0.284589 62.000000
3.528087 -0.087083 0.284942 58.000000
3.527803 -0.097906 0.284942 59.000000
3.532471 -0.108881 0.285295 48.000000
3.535112 -0.119818 0.285507 57.000000
3.534727 -0.130663 0.285507 49.000000
3.536303 -0.141586 0.285648 50.000000
3.535852 -0.152435 0.285648 43.000000
3.531382 -0.163099 0.285366 49.000000
3.531861 -0.173981 0.285436 46.000000
3.533303 -0.184920 0.285578 44.000000
3.532720 -0.195759 0.285578 57.000000
3.531106 -0.206538 0.285507 63.000000
3.530456 -0.217371 0.285507 35.000000
3.531764 -0.228329 0.285648 36.000000
3.536022 -0.239499 0.286001 56.000000
3.553182 -0.251608 0.287273 30.000000
3.536476 -0.261337 0.286143 54.000000
3.539636 -0.272490 0.286425 53.000000
3.544749 -0.283824 0.286849 61.000000
3.543862 -0.294698 0.286849 40.000000
3.548904 -0.306082 0.287273 52.000000
3.547948 -0.316968 0.287273 52.000000
3.545966 -0.327760 0.287202 27.000000
3.549909 -0.339110 0.287555 46.000000
3.547859 -0.349902 0.287485 41.000000
3.478292 -0.353842 0.282611 10.000000
3.472230 -0.363993 0.282258 8.000000
3.465189 0.471404 0.238740 33.000000
3.464640 0.460508 0.238624 50.000000
3.467027 0.450005 0.238682 42.000000
3.464429 0.438864 0.238449 51.000000
3.460805 0.427622 0.238159 53.000000
3.464083 0.417241 0.238275 64.000000
3.463364 0.406379 0.238159 55.000000
3.466578 0.395978 0.238275 50.000000
3.469761 0.385561 0.238391 55.000000
3.467950 0.374593 0.238217 53.000000
3.477026 0.364784 0.238682 50.000000
3.484088 0.354721 0.239030 64.000000
3.484166 0.343932 0.238972 69.000000
3.487193 0.333431 0.239088 55.000000
3.487206 0.322639 0.239030 63.000000
3.488179 0.311939 0.239030 55.000000
3.494093 0.301665 0.239321 63.000000
3.495001 0.290944 0.239321 57.000000
3.492892 0.279981 0.239146 40.000000
3.497716 0.269570 0.239379 47.000000
3.497531 0.258764 0.239321 60.000000
3.501296 0.248244 0.239495 57.000000
3.503037 0.237569 0.239553 59.000000
3.501757 0.226692 0.239437 46.000000
3.499447 0.215763 0.239263 43.000000
3.504079 0.205259 0.239495 68.000000
3.502698 0.194397 0.239379 63.000000
3.503278 0.183650 0.239379 48.000000
3.499837 0.172705 0.239146 54.000000
3.498356 0.161875 0.239030 77.000000
3.500831 0.151227 0.239146 54.000000
3.504271 0.140606 0.239321 44.000000
3.501693 0.129744 0.239146 76.000000
3.504070 0.119068 0.239263 64.000000
3.505416 0.108348 0.239321 60.000000
3.514714 0.097842 0.239843 73.000000
3.515995 0.087083 0.239901 47.000000
3.516246 0.076296 0.239901 45.000000
3.518460 0.065544 0.240018 57.000000
3.518644 0.054750 0.240018 57.000000
3.520792 0.043979 0.240134 49.000000
3.520911 0.033177 0.240134 39.000000
3.515006 0.022338 0.239785 57.000000
3.513062 0.011547 0.239669 59.000000
3.514079 0.000770 0.239727 66.000000
3.515063 -0.010014 0.239785 45.000000
3.517012 -0.020811 0.239901 68.000000
3.524918 -0.031673 0.240366 45.000000
3.528797 -0.042536 0.240599 54.000000
3.533641 -0.053438 0.240889 58.000000
3.537453 -0.064352 0.241121 54.000000
3.539235 -0.075247 0.241237 38.000000
3.536991 -0.086056 0.241121 56.000000
3.536711 -0.096907 0.241121 46.000000
3.534401 -0.107696 0.241005 52.000000
3.535052 -0.118572 0.241063 49.000000
3.539660 -0.129600 0.241354 34.000000
3.543236 -0.140618 0.241586 49.000000
3.544782 -0.151573 0.241702 42.000000
3.552278 -0.162814 0.242167 53.000000
3.552759 -0.173761 0.242225 49.000000
3.556197 -0.184867 0.242457 44.000000
3.557607 -0.195887 0.242573 41.000000
3.550013 -0.206394 0.242167 42.000000
3.552352 -0.217468 0.242341 66.000000
3.550672 -0.228301 0.242283 54.000000
3.550951 -0.239260 0.242341 40.000000
3.556175 -0.250575 0.242690 35.000000
3.552403 -0.261264 0.242515 50.000000
3.555566 -0.272467 0.242748 44.000000
3.559690 -0.283771 0.243038 40.000000
3.556812 -0.294526 0.242922 35.000000
3.563849 -0.306121 0.243387 46.000000
3.564882 -0.317231 0.243503 46.000000
3.566874 -0.328441 0.243677 48.000000
3.571812 -0.339951 0.244026 42.000000
3.570753 -0.350907 0.244026 40.000000
3.584557 -0.363372 0.244897 17.000000
3.578290 -0.384932 0.244665 7.000000
3.474469 0.470793 0.197733 34.000000
3.476888 0.460263 0.197779 47.000000
3.478283 0.449593 0.197779 42.000000
3.478655 0.438795 0.197733 35.000000
3.478002 0.427876 0.197641 48.000000
3.474339 0.416607 0.197410 49.000000
3.472625 0.405597 0.197271 58.000000
3.470876 0.394602 0.197132 51.000000
3.465120 0.383181 0.196808 48.000000
3.463300 0.372227 0.196670 39.000000
3.464425 0.361600 0.196670 34.000000
3.468500 0.351273 0.196808 60.000000
3.470556 0.340728 0.196855 53.000000
3.473573 0.330268 0.196947 61.000000
3.476560 0.319794 0.197040 68.000000
3.481504 0.309481 0.197225 71.000000
3.488409 0.299313 0.197502 66.000000
3.489311 0.288609 0.197502 60.000000
3.495158 0.278301 0.197733 63.000000
3.496991 0.267653 0.197779 48.000000
3.492815 0.256556 0.197548 61.000000
3.498568 0.246191 0.197779 75.000000
3.502297 0.235659 0.197918 58.000000
3.501010 0.224784 0.197826 60.000000
3.507665 0.214410 0.198103 39.000000
3.502323 0.203298 0.197826 42.000000
3.504925 0.192662 0.197918 60.000000
3.508492 0.182065 0.198057 59.000000
3.506041 0.171153 0.197918 52.000000
3.509543 0.160534 0.198057 46.000000
3.514012 0.149937 0.198242 73.000000
3.516451 0.139236 0.198334 73.000000
3.518858 0.128520 0.198427 63.000000
3.520234 0.117758 0.198473 45.000000
3.520579 0.106957 0.198473 55.000000
3.523887 0.096238 0.198612 49.000000
3.518173 0.085280 0.198334 49.000000
3.516421 0.074443 0.198242 53.000000
3.518630 0.063691 0.198334 44.000000
3.524802 0.052988 0.198612 40.000000
3.525947 0.042186 0.198658 45.000000
3.528057 0.031387 0.198750 57.000000
3.532133 0.020587 0.198935 46.000000
3.538173 0.009769 0.199213 51.000000
3.540184 -0.001086 0.199305 45.000000
3.540164 -0.011947 0.199305 48.000000
3.540111 -0.022808 0.199305 42.000000
3.540024 -0.033669 0.199305 41.000000
3.544899 -0.044590 0.199536 34.000000
3.537753 -0.055359 0.199213 55.000000
3.536568 -0.066194 0.199166 44.000000
3.536349 -0.077044 0.199166 65.000000
3.536096 -0.087893 0.199166 45.000000
3.536808 -0.098768 0.199213 53.000000
3.535489 -0.109588 0.199166 54.000000
3.534138 -0.120400 0.199120 46.000000
3.537745 -0.131389 0.199305 52.000000
3.542316 -0.142442 0.199536 52.000000
3.544857 -0.153437 0.199675 43.000000
3.547363 -0.164450 0.199814 50.000000
3.547839 -0.175381 0.199860 37.000000
3.553270 -0.186577 0.200137 60.000000
3.554676 -0.197588 0.200230 63.000000
3.552058 -0.208376 0.200137 58.000000
3.553396 -0.219395 0.200230 50.000000
3.551710 -0.230232 0.200184 41.000000
3.552980 -0.241262 0.200276 53.000000
3.557205 -0.252513 0.200507 42.000000
3.559402 -0.263645 0.200646 38.000000
3.564553 -0.275023 0.200923 54.000000
3.569667 -0.286436 0.201201 48.000000
3.568771 -0.297386 0.201201 39.000000
3.572818 -0.308762 0.201432 33.000000
3.572849 -0.319810 0.201478 33.000000
3.571851 -0.330770 0.201478 27.000000
3.558887 -0.340589 0.200923 39.000000
3.563790 -0.352093 0.201201 17.000000
3.564680 -0.363227 0.201293 15.000000
3.463183 0.470518 0.154029 28.000000
3.467583 0.460285 0.154130 48.000000
3.470960 0.449902 0.154198 39.000000
3.475299 0.439627 0.154299 45.000000
3.480599 0.429452 0.154435 46.000000
3.484877 0.419129 0.154536 54.000000
3.491110 0.409016 0.154706 37.000000
3.495327 0.398643 0.154807 54.000000
3.493554 0.387588 0.154706 58.000000
3.495720 0.376975 0.154739 45.000000
3.494872 0.366040 0.154672 43.000000
3.492002 0.354913 0.154536 44.000000
3.492079 0.344100 0.154503 49.000000
3.484165 0.332531 0.154198 47.000000
3.482183 0.321565 0.154096 44.000000
3.487135 0.311235 0.154232 44.000000
3.487077 0.300450 0.154198 46.000000
3.489975 0.289915 0.154266 54.000000
3.498818 0.279843 0.154536 47.000000
3.503646 0.269414 0.154672 53.000000
3.511433 0.259178 0.154909 61.000000
3.514205 0.248544 0.154976 44.000000
3.512957 0.237627 0.154909 61.000000
3.515665 0.226977 0.154976 40.000000
3.512354 0.215945 0.154841 55.000000
3.511005 0.205052 0.154773 45.000000
3.507626 0.194059 0.154638 45.000000
3.513195 0.183557 0.154807 43.000000
3.516736 0.172925 0.154909 55.000000
3.517250 0.162135 0.154909 43.000000
3.521725 0.151515 0.155044 35.000000
3.529164 0.140988 0.155281 43.000000
3.530578 0.130197 0.155315 33.000000
3.541949 0.119735 0.155687 43.000000
3.541300 0.108837 0.155654 37.000000
3.540618 0.097944 0.155620 47.000000
3.537905 0.087008 0.155518 49.000000
3.541153 0.076218 0.155620 39.000000
3.545367 0.065427 0.155755 37.000000
3.541554 0.054488 0.155620 50.000000
3.541704 0.043623 0.155620 50.000000
3.547818 0.032811 0.155823 52.000000
3.556896 0.021981 0.156127 43.000000
3.562943 0.011087 0.156331 50.000000
3.568958 0.000155 0.156534 42.000000
3.571939 -0.010803 0.156635 42.000000
3.573888 -0.021774 0.156703 41.000000
3.582799 -0.032822 0.157008 31.000000
3.579684 -0.043777 0.156906 39.000000
3.575535 -0.054697 0.156771 44.000000
3.574351 -0.065648 0.156737 39.000000
3.568138 -0.076485 0.156534 49.000000
3.565888 -0.087382 0.156466 39.000000
3.569599 -0.098432 0.156601 46.000000
3.564286 -0.109230 0.156432 42.000000
3.556942 -0.119928 0.156195 44.000000
3.557556 -0.130877 0.156229 48.000000
3.560133 -0.141910 0.156331 36.000000
3.566671 -0.153133 0.156568 31.000000
3.566185 -0.164074 0.156568 34.000000
3.564666 -0.174965 0.156534 33.000000
3.570101 -0.186214 0.156737 32.000000
3.574502 -0.197442 0.156906 25.000000
3.564900 -0.207883 0.156601 37.000000
3.564246 -0.218819 0.156601 34.000000
3.559568 -0.229495 0.156466 27.000000
3.567822 -0.241022 0.156771 33.000000
3.573047 -0.252390 0.156974 47.000000
3.573253 -0.263424 0.157008 35.000000
3.578407 -0.274845 0.157211 43.000000
3.583524 -0.286301 0.157414 30.000000
3.584621 -0.297459 0.157482 39.000000
3.588670 -0.308884 0.157651 33.000000
3.584719 -0.319626 0.157549 37.000000
3.583722 -0.330622 0.157549 27.000000
3.586670 -0.341995 0.157685 28.000000
3.573669 -0.351821 0.157278 33.000000
3.616322 -0.367231 0.158768 9.000000
3.687739 -0.385925 0.161239 6.000000
3.752501 0.253888 0.117249 23.000000
3.657486 0.236159 0.115172 39.000000
3.683140 0.226479 0.115713 47.000000
3.709767 0.216702 0.116275 81.000000
3.705423 0.205042 0.116167 76.000000
3.678080 0.192203 0.115561 54.000000
3.692632 0.181610 0.115864 62.000000
3.699163 0.170559 0.115994 74.000000
3.687683 0.158689 0.115734 55.000000
3.683158 0.147174 0.115626 51.000000
3.650623 0.134647 0.114912 34.000000
3.683992 0.124572 0.115626 54.000000
3.691351 0.113486 0.115778 59.000000
3.690683 0.102133 0.115756 58.000000
3.688980 0.090759 0.115713 49.000000
3.698237 0.079638 0.115907 56.000000
3.702462 0.068367 0.115994 49.000000
3.706653 0.057070 0.116081 54.000000
3.712809 0.045774 0.116210 54.000000
3.730927 0.034555 0.116600 64.000000
3.716019 0.023011 0.116275 42.000000
3.715072 0.011607 0.116254 48.000000
3.744083 0.000220 0.116881 57.000000
3.748066 -0.011277 0.116968 63.000000
3.755012 -0.022817 0.117119 53.000000
3.717934 -0.034010 0.116319 30.000000
3.759800 -0.045916 0.117227 43.000000
3.763640 -0.057511 0.117314 40.000000
3.769443 -0.069165 0.117444 47.000000
3.763216 -0.080603 0.117314 38.000000
3.775944 -0.092462 0.117595 22.000000
3.798200 0.256227 0.071249 12.000000
3.751070 0.241494 0.070805 28.000000
3.736821 0.229069 0.070666 37.000000
3.730519 0.217197 0.070601 60.000000
3.728172 0.205586 0.070574 69.000000
3.727786 0.194096 0.070564 63.000000
3.727365 0.182609 0.070555 49.000000
3.729906 0.171265 0.070574 65.000000
3.734410 0.159991 0.070611 65.000000
3.731886 0.148415 0.070583 60.000000
3.733323 0.137001 0.070592 58.000000
3.732727 0.125513 0.070583 51.000000
3.727097 0.113878 0.070527 76.000000
3.726429 0.102416 0.070518 64.000000
3.726726 0.090983 0.070518 69.000000
3.730986 0.079634 0.070555 71.000000
3.737212 0.068296 0.070611 76.000000
3.740403 0.056875 0.070638 72.000000
3.743560 0.045436 0.070666 68.000000
3.748681 0.033995 0.070712 52.000000
3.753768 0.022524 0.070759 41.000000
3.757819 0.011019 0.070796 61.000000
3.759835 -0.000511 0.070814 74.000000
3.767815 -0.012072 0.070888 77.000000
3.768760 -0.023638 0.070897 50.000000
3.768670 -0.035200 0.070897 48.000000
3.772544 -0.046812 0.070934 47.000000
3.776382 -0.058448 0.070971 45.000000
3.779184 -0.070090 0.070999 37.000000
3.784950 -0.081814 0.071055 39.000000
3.777683 -0.093252 0.070990 26.000000
3.774075 0.243725 0.023691 33.000000
3.761830 0.231343 0.023734 46.000000
3.749544 0.219038 0.023777 45.000000
3.732226 0.206534 0.023837 63.000000
3.723855 0.194610 0.023867 63.000000
3.716444 0.182789 0.023893 55.000000
3.712992 0.171201 0.023906 51.000000
3.710502 0.159679 0.023916 67.000000
3.707977 0.148173 0.023926 60.000000
3.706416 0.136722 0.023933 65.000000
3.706818 0.125351 0.023933 55.000000
3.704186 0.113885 0.023943 62.000000
3.706518 0.102576 0.023936 67.000000
3.707814 0.091229 0.023933 60.000000
3.710077 0.079897 0.023926 52.000000
3.714303 0.068589 0.023913 61.000000
3.718496 0.057256 0.023900 49.000000
3.723654 0.045911 0.023883 47.000000
3.730777 0.034554 0.023860 39.000000
3.734865 0.023134 0.023847 51.000000
3.736918 0.011682 0.023840 47.000000
3.744936 0.000220 0.023814 50.000000
3.752919 -0.011291 0.023787 47.000000
3.758867 -0.022839 0.023767 44.000000
3.761779 -0.034397 0.023757 37.000000
3.764656 -0.045974 0.023747 58.000000
3.772496 -0.057643 0.023721 44.000000
3.774301 -0.069253 0.023714 41.000000
3.790067 -0.081170 0.023661 23.000000
3.805796 -0.093184 0.023608 12.000000
3.792818 0.257189 -0.023291 12.000000
3.745695 0.242456 -0.022537 56.000000
3.748417 0.231086 -0.022568 39.000000
3.734136 0.218710 -0.022333 59.000000
3.731795 0.207087 -0.022286 54.000000
3.722427 0.195115 -0.022129 59.000000
3.718015 0.183448 -0.022050 72.000000
3.715564 0.171902 -0.022003 58.000000
3.710080 0.160243 -0.021909 75.000000
3.707557 0.148740 -0.021862 70.000000
3.704998 0.137254 -0.021814 72.000000
3.704403 0.125853 -0.021799 63.000000
3.705771 0.114518 -0.021814 92.000000
3.706105 0.103149 -0.021814 72.000000
3.708403 0.091827 -0.021846 54.000000
3.714665 0.080579 -0.021940 59.000000
3.724891 0.069367 -0.022097 92.000000
3.725087 0.057939 -0.022097 75.000000
3.729247 0.046560 -0.022160 85.000000
3.730371 0.035128 -0.022176 79.000000
3.731462 0.023689 -0.022191 54.000000
3.732517 0.012245 -0.022207 67.000000
3.737536 0.000794 -0.022286 53.000000
3.737521 -0.010673 -0.022286 60.000000
3.744470 -0.022181 -0.022396 67.000000
3.749383 -0.033715 -0.022474 58.000000
3.755261 -0.045290 -0.022568 58.000000
3.773100 -0.057085 -0.022851 44.000000
3.784904 -0.068880 -0.023040 42.000000
3.791672 -0.080641 -0.023150 41.000000
3.813397 -0.092811 -0.023495 26.000000
3.833085 -0.105060 -0.023809 17.000000
3.778864 0.255680 -0.068515 29.000000
3.764668 0.243114 -0.068099 36.000000
3.759410 0.231193 -0.067933 38.000000
3.751121 0.219131 -0.067683 37.000000
3.741795 0.207066 -0.067406 40.000000
3.729435 0.194903 -0.067045 59.000000
3.720031 0.182966 -0.066767 46.000000
3.711588 0.171135 -0.066518 48.000000
3.705106 0.159445 -0.066323 60.000000
3.702580 0.147956 -0.066240 52.000000
3.701019 0.136522 -0.066185 75.000000
3.695426 0.124962 -0.066018 67.000000
3.692795 0.113531 -0.065935 55.000000
3.690129 0.102117 -0.065852 46.000000
3.693422 0.090870 -0.065935 57.000000
3.692684 0.079517 -0.065907 57.000000
3.693910 0.068206 -0.065935 58.000000
3.696101 0.056904 -0.065990 44.000000
3.700257 0.045615 -0.066101 32.000000
3.703378 0.034291 -0.066185 55.000000
3.706464 0.022949 -0.066268 54.000000
3.709516 0.011588 -0.066351 45.000000
3.716532 0.000210 -0.066545 44.000000
3.721513 -0.011206 -0.066684 68.000000
3.732457 -0.022687 -0.066989 50.000000
3.742365 -0.034226 -0.067267 37.000000
3.754237 -0.045850 -0.067600 33.000000
3.771070 -0.057622 -0.068072 26.000000
3.778872 -0.069335 -0.068293 46.000000
3.786636 -0.081097 -0.068515 40.000000
3.795363 -0.092931 -0.068765 38.000000
3.798058 -0.104657 -0.068848 30.000000
3.754092 0.242999 -0.114936 29.000000
3.754820 0.231480 -0.114936 45.000000
3.746535 0.219435 -0.114573 60.000000
3.738212 0.207442 -0.114210 66.000000
3.714883 0.194720 -0.113243 103.000000
3.718457 0.183469 -0.113364 74.000000
3.710019 0.171646 -0.113001 84.000000
3.704539 0.160005 -0.112759 82.000000
3.698023 0.148359 -0.112477 61.000000
3.692470 0.136791 -0.112235 73.000000
3.690875 0.125395 -0.112155 80.000000
3.684251 0.113856 -0.111872 68.000000
3.681587 0.102469 -0.111752 72.000000
3.680885 0.091149 -0.111711 68.000000
3.680149 0.079834 -0.111671 47.000000
3.679377 0.068525 -0.111631 58.000000
3.681568 0.057267 -0.111711 62.000000
3.683725 0.045996 -0.111792 63.000000
3.685847 0.034713 -0.111872 52.000000
3.689933 0.023430 -0.112034 52.000000
3.692985 0.012119 -0.112155 52.000000
3.699000 0.000790 -0.112396 49.000000
3.708977 -0.010588 -0.112799 62.000000
3.716920 -0.022015 -0.113122 51.000000
3.722830 -0.033473 -0.113364 53.000000
3.737696 -0.045077 -0.113968 47.000000
3.742536 -0.056620 -0.114170 49.000000
3.754333 -0.068321 -0.114654 63.000000
3.766093 -0.080095 -0.115137 31.000000
3.769825 -0.091746 -0.115298 14.000000
3.735389 0.251420 -0.159200 29.000000
3.733153 0.239766 -0.159043 41.000000
3.728888 0.228006 -0.158782 43.000000
3.723588 0.216215 -0.158468 49.000000
3.716257 0.204349 -0.158049 71.000000
3.709886 0.192582 -0.157683 56.000000
3.706469 0.181004 -0.157473 64.000000
3.699027 0.169264 -0.157054 77.000000
3.696536 0.157786 -0.156897 62.000000
3.693011 0.146285 -0.156688 51.000000
3.690449 0.134844 -0.156531 58.000000
3.685854 0.123353 -0.156269 52.000000
3.661262 0.111278 -0.154961 18.000000
3.670570 0.100293 -0.155432 33.000000
3.674854 0.089129 -0.155641 32.000000
3.680102 0.077962 -0.155903 44.000000
3.680324 0.066671 -0.155903 35.000000
3.686502 0.055472 -0.156217 40.000000
3.688652 0.044186 -0.156322 33.000000
3.694762 0.032925 -0.156636 33.000000
3.702834 0.021638 -0.157054 48.000000
3.705879 0.010287 -0.157211 67.000000
3.700900 -0.001082 -0.156950 41.000000
3.710865 -0.012467 -0.157473 46.000000
3.711808 -0.023858 -0.157526 55.000000
3.717709 -0.035300 -0.157840 48.000000
3.722576 -0.046767 -0.158101 39.000000
3.727408 -0.058264 -0.158363 38.000000
3.732204 -0.069791 -0.158625 48.000000
3.745949 -0.081541 -0.159357 32.000000
3.731705 -0.092690 -0.158625 20.000000
3.742384 -0.104442 -0.159200 11.000000
3.739569 0.253584 -0.205835 25.000000
3.734354 0.241723 -0.205447 37.000000
3.726114 0.229714 -0.204864 57.000000
3.720824 0.217932 -0.204476 66.000000
3.716493 0.206239 -0.204152 64.000000
3.709136 0.194419 -0.203635 56.000000
3.701742 0.182646 -0.203117 56.000000
3.693313 0.170875 -0.202535 78.000000
3.686841 0.159242 -0.202082 71.000000
3.682327 0.147731 -0.201758 66.000000
3.682763 0.136433 -0.201758 75.000000
3.681170 0.125066 -0.201629 56.000000
3.683530 0.113833 -0.201758 56.000000
3.687853 0.102643 -0.202017 83.000000
3.688150 0.091328 -0.202017 86.000000
3.696394 0.080185 -0.202535 113.000000
3.682655 0.068585 -0.201629 54.000000
3.681850 0.057271 -0.201564 52.000000
3.672030 0.045852 -0.200917 32.000000
3.681134 0.034669 -0.201499 47.000000
3.685215 0.023401 -0.201758 46.000000
3.692255 0.012117 -0.202211 55.000000
3.697264 0.000789 -0.202535 84.000000
3.702238 -0.010568 -0.202858 76.000000
3.704184 -0.021939 -0.202988 64.000000
3.712082 -0.033375 -0.203505 52.000000
3.716952 -0.044824 -0.203829 30.000000
3.721786 -0.056304 -0.204152 58.000000
3.728580 -0.067849 -0.204605 55.000000
3.736335 -0.079459 -0.205123 37.000000
3.742060 -0.091068 -0.205511 39.000000
3.751738 -0.102822 -0.206158 23.000000
3.756627 0.264436 -0.251721 14.000000
3.746478 0.252170 -0.250879 29.000000
3.729324 0.239519 -0.249501 53.000000
3.720089 0.227465 -0.248735 53.000000
3.710816 0.215470 -0.247970 47.000000
3.688562 0.202818 -0.246209 83.000000
3.685184 0.191292 -0.245903 62.000000
3.677787 0.179594 -0.245291 73.000000
3.675332 0.168172 -0.245061 61.000000
3.673839 0.156810 -0.244908 42.000000
3.671313 0.145419 -0.244678 40.000000
3.671742 0.134155 -0.244678 54.000000
3.673133 0.122923 -0.244755 62.000000
3.677480 0.111776 -0.245061 44.000000
3.676808 0.100465 -0.244985 34.000000
3.677099 0.089185 -0.244985 45.000000
3.672372 0.077796 -0.244602 43.000000
3.673590 0.066547 -0.244678 50.000000
3.671782 0.055246 -0.244525 50.000000
3.673929 0.044005 -0.244678 50.000000
3.673049 0.032724 -0.244602 49.000000
3.662165 0.021388 -0.243760 30.000000
3.677170 0.010199 -0.244908 49.000000
3.684163 -0.001083 -0.245444 138.000000
3.686136 -0.012392 -0.245597 47.000000
3.690069 -0.023725 -0.245903 67.000000
3.686988 -0.035018 -0.245674 43.000000
3.698827 -0.046476 -0.246592 34.000000
3.705646 -0.057931 -0.247128 35.000000
3.710435 -0.069391 -0.247511 34.000000
3.718179 -0.080945 -0.248123 39.000000
3.715920 -0.092303 -0.247970 34.000000
3.735553 -0.104253 -0.249501 28.000000
3.727003 0.262920 -0.295208 32.000000
3.719842 0.250949 -0.294498 37.000000
3.706678 0.238641 -0.293256 54.000000
3.700434 0.226842 -0.292635 53.000000
3.692163 0.214968 -0.291837 64.000000
3.681865 0.203038 -0.290861 71.000000
3.678491 0.191534 -0.290506 79.000000
3.678067 0.180199 -0.290417 70.000000
3.675618 0.168777 -0.290151 77.000000
3.677113 0.157543 -0.290240 77.000000
3.675589 0.146182 -0.290062 66.000000
3.672038 0.134759 -0.289707 70.000000
3.673430 0.123526 -0.289796 56.000000
3.676778 0.112346 -0.290062 59.000000
3.680093 0.101147 -0.290328 69.000000
3.687356 0.090026 -0.290950 66.000000
3.690603 0.078776 -0.291216 70.000000
3.692819 0.067489 -0.291393 54.000000
3.698984 0.056250 -0.291925 38.000000
3.702127 0.044937 -0.292192 59.000000
3.702247 0.033579 -0.292192 48.000000
3.702333 0.022221 -0.292192 59.000000
3.689435 0.010825 -0.291038 124.000000
3.699411 -0.000496 -0.291925 40.000000
3.693416 -0.011826 -0.291393 51.000000
3.695355 -0.023170 -0.291571 56.000000
3.693274 -0.034488 -0.291393 51.000000
3.696139 -0.045856 -0.291659 62.000000
3.706936 -0.057366 -0.292635 46.000000
3.707739 -0.068757 -0.292724 44.000000
3.715477 -0.080305 -0.293434 40.000000
3.726166 -0.091975 -0.294410 34.000000
3.718897 -0.103212 -0.293789 19.000000
3.700642 -0.114067 -0.292192 13.000000
3.721521 0.262604 -0.341832 30.000000
3.702457 0.249840 -0.339808 54.000000
3.706185 0.238672 -0.340111 37.000000
3.692005 0.226383 -0.338593 62.000000
3.690696 0.214939 -0.338390 55.000000
3.687365 0.203394 -0.337985 38.000000
3.685985 0.191977 -0.337783 57.000000
3.682581 0.180471 -0.337378 57.000000
3.677155 0.168897 -0.336771 46.000000
3.685607 0.157958 -0.337581 60.000000
3.686075 0.146650 -0.337581 57.000000
3.687501 0.135377 -0.337682 55.000000
3.695854 0.124333 -0.338492 65.000000
3.700195 0.113117 -0.338897 51.000000
3.706492 0.101930 -0.339504 41.000000
3.720711 0.090903 -0.340921 55.000000
3.723956 0.079552 -0.341225 50.000000
3.743082 0.068479 -0.343148 101.000000
3.731337 0.056809 -0.341933 58.000000
3.733483 0.045386 -0.342136 69.000000
3.721667 0.033820 -0.340921 45.000000
3.715785 0.022364 -0.340314 39.000000
3.709867 0.010944 -0.339706 54.000000
3.697944 -0.000440 -0.338492 45.000000
3.693946 -0.011773 -0.338087 39.000000
3.693893 -0.023106 -0.338087 47.000000
3.692810 -0.034430 -0.337985 43.000000
3.699650 -0.045843 -0.338694 49.000000
3.710434 -0.057359 -0.339808 48.000000
3.716209 -0.068851 -0.340415 46.000000
3.721948 -0.080379 -0.341022 47.000000
3.749532 -0.092475 -0.343857 30.000000
3.747241 -0.103924 -0.343654 29.000000
3.816513 -0.117542 -0.350740 7.000000
3.691797 0.249705 -0.382956 29.000000
3.683621 0.237802 -0.381939 72.000000
3.694251 0.227108 -0.383069 48.000000
3.686003 0.215253 -0.382052 79.000000
3.686646 0.203944 -0.382052 95.000000
3.688246 0.192684 -0.382165 90.000000
3.690805 0.181465 -0.382391 89.000000
3.693330 0.170232 -0.382617 72.000000
3.698798 0.159113 -0.383182 83.000000
3.705226 0.148002 -0.383861 73.000000
3.709634 0.136780 -0.384313 59.000000
3.719966 0.125733 -0.385443 63.000000
3.730266 0.114624 -0.386573 68.000000
3.739539 0.103425 -0.387591 54.000000
3.754738 0.092317 -0.389286 49.000000
3.765931 0.081031 -0.390529 43.000000
3.765168 0.069459 -0.390416 66.000000
3.774305 0.058044 -0.391434 35.000000
3.764530 0.046343 -0.390303 36.000000
3.745777 0.034620 -0.388156 49.000000
3.731956 0.023044 -0.386573 62.000000
3.725053 0.011573 -0.385782 33.000000
3.715136 0.000146 -0.384652 46.000000
3.703196 -0.011215 -0.383296 57.000000
3.704137 -0.022582 -0.383409 62.000000
3.705044 -0.033955 -0.383522 59.000000
3.708896 -0.045371 -0.383974 58.000000
3.717681 -0.056887 -0.384991 57.000000
3.727423 -0.068476 -0.386121 36.000000
3.731169 -0.079997 -0.386573 41.000000
3.742826 -0.091737 -0.387930 42.000000
3.747493 -0.103357 -0.388495 29.000000
3.767020 -0.115465 -0.390756 14.000000
3.691283 0.249082 -0.429207 22.000000
3.699950 0.238269 -0.430209 34.000000
3.698684 0.226795 -0.429959 44.000000
3.694410 0.215156 -0.429332 66.000000
3.694062 0.203766 -0.429207 54.000000
3.694670 0.192432 -0.429207 60.000000
3.692270 0.180949 -0.428831 69.000000
3.691817 0.169575 -0.428705 71.000000
3.698267 0.158504 -0.429457 53.000000
3.703692 0.147356 -0.430084 60.000000
3.714041 0.136360 -0.431337 46.000000
3.738239 0.125773 -0.434345 32.000000
3.736624 0.114242 -0.434095 45.000000
3.742908 0.102943 -0.434847 47.000000
3.759074 0.091852 -0.436852 41.000000
3.792071 0.081029 -0.440988 12.000000
3.773807 0.045889 -0.438607 25.000000
3.753097 0.034115 -0.435975 38.000000
3.748223 0.022569 -0.435348 28.000000
3.744306 0.011057 -0.434847 38.000000
3.738370 -0.000432 -0.434095 45.000000
3.730414 -0.011878 -0.433092 50.000000
3.720439 -0.023264 -0.431839 55.000000
3.718366 -0.034660 -0.431588 54.000000
3.717250 -0.046056 -0.431463 51.000000
3.718083 -0.057475 -0.431588 52.000000
3.725825 -0.069026 -0.432591 45.000000
3.728572 -0.080520 -0.432967 40.000000
3.738225 -0.092200 -0.434220 35.000000
3.760735 -0.104294 -0.437103 26.000000
3.807997 -0.117283 -0.443119 13.000000
3.732455 0.242252 -0.480638 54.000000
3.728238 0.230495 -0.479951 62.000000
3.722995 0.218708 -0.479126 60.000000
3.720682 0.207120 -0.478714 69.000000
3.712397 0.195237 -0.477477 90.000000
3.711000 0.183749 -0.477202 84.000000
3.712536 0.172408 -0.477339 81.000000
3.712058 0.160975 -0.477202 78.000000
3.723421 0.150023 -0.478714 73.000000
3.732772 0.138930 -0.479951 74.000000
3.744070 0.127848 -0.481463 61.000000
3.754345 0.116667 -0.482837 48.000000
3.760626 0.105314 -0.483662 41.000000
3.796579 0.094662 -0.488610 31.000000
3.823206 0.048388 -0.492183 14.000000
3.764899 0.036104 -0.484074 45.000000
3.759049 0.024515 -0.483250 52.000000
3.756135 0.012972 -0.482837 48.000000
3.750214 0.001447 -0.482013 51.000000
3.744258 -0.010042 -0.481188 60.000000
3.736285 -0.021483 -0.480088 68.000000
3.734221 -0.032928 -0.479813 70.000000
3.731131 -0.044348 -0.479401 63.000000
3.728997 -0.055765 -0.479126 62.000000
3.734750 -0.067313 -0.479951 51.000000
3.733536 -0.078750 -0.479813 41.000000
3.734267 -0.090228 -0.479951 35.000000
3.740903 -0.101873 -0.480913 42.000000
3.777509 0.242629 -0.532562 39.000000
3.760471 0.229947 -0.529877 50.000000
3.778927 0.219446 -0.532562 38.000000
3.737128 0.205504 -0.526147 60.000000
3.723917 0.193315 -0.524058 81.000000
3.719554 0.181647 -0.523312 74.000000
3.719106 0.170189 -0.523163 54.000000
3.717635 0.158693 -0.522865 71.000000
3.723044 0.147484 -0.523611 66.000000
3.736325 0.136535 -0.525550 43.000000
3.740680 0.125205 -0.526147 50.000000
3.742035 0.113758 -0.526296 52.000000
3.756204 0.102660 -0.528385 25.000000
3.775255 0.033667 -0.531070 40.000000
3.773363 0.022073 -0.530772 31.000000
3.763525 0.010465 -0.529280 46.000000
3.756617 -0.001081 -0.528235 44.000000
3.749675 -0.012585 -0.527191 56.000000
3.739731 -0.024029 -0.525699 43.000000
3.732718 -0.035438 -0.524655 41.000000
3.733580 -0.046902 -0.524804 45.000000
3.743306 -0.058508 -0.526296 34.000000
3.748052 -0.070083 -0.527042 49.000000
3.760671 -0.081857 -0.528981 24.000000
3.760402 -0.093394 -0.528981 34.000000
3.756144 -0.104821 -0.528385 25.000000
3.695516 -0.114496 -0.519284 8.000000
3.795677 0.233995 -0.581942 29.000000
3.751055 0.219699 -0.574532 50.000000
3.731017 0.207044 -0.571150 70.000000
3.725721 0.195287 -0.570183 90.000000
3.732217 0.184147 -0.571150 85.000000
3.735722 0.172832 -0.571633 90.000000
3.743137 0.161668 -0.572760 79.000000
3.757422 0.150736 -0.575016 70.000000
3.765757 0.139499 -0.576304 57.000000
3.776031 0.128279 -0.577915 55.000000
3.785285 0.116967 -0.579365 57.000000
3.808317 0.105983 -0.583070 27.000000
3.803792 0.024141 -0.582103 43.000000
3.794966 0.012443 -0.580654 42.000000
3.788078 0.000799 -0.579526 42.000000
3.777207 -0.010790 -0.577754 42.000000
3.767287 -0.022319 -0.576143 54.000000
3.757331 -0.033787 -0.574532 47.000000
3.752276 -0.045254 -0.573727 49.000000
3.771855 -0.057066 -0.576949 29.000000
3.762782 -0.068475 -0.575499 51.000000
3.783275 -0.080462 -0.578882 28.000000
3.787943 -0.092189 -0.579687 29.000000
3.809347 -0.104407 -0.583231 16.000000
3.850226 0.247322 -0.638573 25.000000
3.780185 0.231158 -0.626120 60.000000
3.773011 0.219101 -0.624736 68.000000
3.772682 0.207470 -0.624563 60.000000
3.763465 0.195381 -0.622833 65.000000
3.758144 0.183543 -0.621796 95.000000
3.759673 0.172058 -0.621969 96.000000
3.766088 0.160777 -0.623006 77.000000
3.771484 0.149418 -0.623871 71.000000
3.776846 0.138028 -0.624736 75.000000
3.787095 0.126773 -0.626466 39.000000
3.796326 0.115426 -0.628022 22.000000
3.792156 0.010554 -0.626985 31.000000
3.787246 -0.001080 -0.626120 55.000000
3.784271 -0.012691 -0.625601 57.000000
3.780274 -0.024276 -0.624909 65.000000
3.770333 -0.035784 -0.623179 54.000000
3.767251 -0.047314 -0.622661 37.000000
3.771027 -0.058932 -0.623352 31.000000
3.765905 -0.070411 -0.622488 55.000000
3.798166 -0.082661 -0.628195 28.000000
3.821526 -0.094893 -0.632346 22.000000
3.843862 -0.107242 -0.636324 12.000000
3.787167 0.243815 -0.673128 75.000000
3.786916 0.232135 -0.672943 76.000000
3.787611 0.220515 -0.672943 93.000000
3.785325 0.208732 -0.672390 67.000000
3.782022 0.196914 -0.671652 94.000000
3.782609 0.185310 -0.671652 90.000000
3.784141 0.173749 -0.671836 91.000000
3.784656 0.162139 -0.671836 74.000000
3.796921 0.150994 -0.674050 95.000000
3.815045 0.139992 -0.677370 120.000000
3.794829 0.127595 -0.673496 80.000000
3.803061 0.116191 -0.674972 38.000000
3.808767 -0.000522 -0.675710 45.000000
3.805799 -0.012198 -0.675157 67.000000
3.797881 -0.023824 -0.673681 51.000000
3.792876 -0.035429 -0.672759 65.000000
3.790784 -0.047040 -0.672390 59.000000
3.790622 -0.058670 -0.672390 61.000000
3.796320 -0.070409 -0.673496 78.000000
3.801982 -0.082184 -0.674603 58.000000
3.807607 -0.093994 -0.675710 43.000000
3.818108 -0.105976 -0.677739 44.000000
3.871795 -0.119361 -0.687885 13.000000
3.789477 0.255078 -0.720282 23.000000
3.812748 0.244903 -0.724793 55.000000
3.789992 0.231761 -0.720086 86.000000
3.778939 0.219447 -0.717733 106.000000
3.788405 0.208339 -0.719498 73.000000
3.785110 0.196511 -0.718714 91.000000
3.790592 0.185138 -0.719694 73.000000
3.793101 0.173598 -0.720086 79.000000
3.799494 0.162213 -0.721263 68.000000
3.802913 0.150673 -0.721851 73.000000
3.806297 0.139114 -0.722440 78.000000
3.812587 0.127634 -0.723616 59.000000
3.834522 0.116599 -0.727931 20.000000
3.811780 -0.001080 -0.723028 29.000000
3.813720 -0.012780 -0.723420 44.000000
