ply
format ascii 1.0
element vertex 1248
property float x
property float y
property float z
property float intensity
end_header
3.720277 -0.457316 0.483238 44.000000
3.719841 -0.468852 0.483357 54.000000
3.722324 -0.480769 0.483833 41.000000
3.724769 -0.492707 0.484308 46.000000
3.725208 -0.504398 0.484546 53.000000
3.731511 -0.516911 0.485497 41.000000
3.732857 -0.528774 0.485854 43.000000
3.730235 -0.540082 0.485735 67.000000
3.731507 -0.551958 0.486092 51.000000
3.727833 -0.563108 0.485854 45.000000
3.724125 -0.574240 0.485616 45.000000
3.720384 -0.585355 0.485379 42.000000
3.717590 -0.596609 0.485260 43.000000
3.712802 -0.607531 0.484903 36.000000
3.710921 -0.618919 0.484903 62.000000
3.709983 -0.630467 0.485022 50.000000
3.709989 -0.642184 0.485260 58.000000
3.712891 -0.654424 0.485854 57.000000
3.711843 -0.665987 0.485973 46.000000
3.714666 -0.678262 0.486568 54.000000
3.712568 -0.689655 0.486568 44.000000
3.711410 -0.701226 0.486687 52.000000
3.713142 -0.713357 0.487162 62.000000
3.709961 -0.724555 0.487043 49.000000
3.710643 -0.736513 0.487400 47.000000
3.708366 -0.747894 0.487400 66.000000
3.706054 -0.759267 0.487400 54.000000
3.710512 -0.772047 0.488233 65.000000
3.710069 -0.783837 0.488471 50.000000
3.705705 -0.794800 0.488233 45.000000
3.708100 -0.807220 0.488827 43.000000
3.710454 -0.819661 0.489422 51.000000
3.706953 -0.830824 0.489303 51.000000
3.707292 -0.842853 0.489660 47.000000
3.704688 -0.854223 0.489660 53.000000
3.704951 -0.866262 0.490017 41.000000
3.704208 -0.878082 0.490254 39.000000
3.701497 -0.889442 0.490254 45.000000
3.696821 -0.900324 0.490017 49.000000
3.695969 -0.912137 0.490254 55.000000
3.694117 -0.923712 0.490373 43.000000
3.691266 -0.935041 0.490373 42.000000
3.692227 -0.947348 0.490849 58.000000
3.691225 -0.959170 0.491087 45.000000
3.694987 -0.972256 0.491919 48.000000
3.694866 -0.984354 0.492276 43.000000
3.694705 -0.996459 0.492633 49.000000
3.688756 -1.007006 0.492276 36.000000
3.686607 -1.018583 0.492395 52.000000
3.682508 -1.029621 0.492276 55.000000
3.679332 -1.040914 0.492276 55.000000
3.678985 -1.053016 0.492633 57.000000
3.678598 -1.065126 0.492990 48.000000
3.677219 -1.076964 0.493228 41.000000
3.677706 -1.089367 0.493703 56.000000
3.676250 -1.101214 0.493941 40.000000
3.675705 -1.113350 0.494298 54.000000
3.675120 -1.125493 0.494655 60.000000
3.679238 -1.139110 0.495606 55.000000
3.680465 -1.151874 0.496201 39.000000
3.679754 -1.164057 0.496557 34.000000
3.679948 -1.176550 0.497033 41.000000
3.678211 -1.188444 0.497271 41.000000
3.671716 -1.198799 0.496914 41.000000
3.671793 -1.211301 0.497390 44.000000
3.671828 -1.223815 0.497866 33.000000
3.668997 -1.235391 0.497984 39.000000
3.667070 -1.247280 0.498222 26.000000
3.660408 -1.257558 0.497866 16.000000
3.750555 -0.414466 0.439740 17.000000
3.741363 -0.425072 0.438886 39.000000
3.734116 -0.435856 0.438245 43.000000
3.732761 -0.447310 0.438245 40.000000
3.732358 -0.458881 0.438352 44.000000
3.729946 -0.470206 0.438245 48.000000
3.729472 -0.481774 0.438352 33.000000
3.729948 -0.493475 0.438565 42.000000
3.733343 -0.505583 0.439099 39.000000
3.736698 -0.517718 0.439633 57.000000
3.739030 -0.529737 0.440060 47.000000
3.734435 -0.540778 0.439740 33.000000
3.733742 -0.552378 0.439847 50.000000
3.734979 -0.564277 0.440167 41.000000
3.729300 -0.575126 0.439740 54.000000
3.726535 -0.586410 0.439633 38.000000
3.727664 -0.598313 0.439954 43.000000
3.724830 -0.609586 0.439847 66.000000
3.724903 -0.621338 0.440060 44.000000
3.721999 -0.632597 0.439954 33.000000
3.715143 -0.643164 0.439420 48.000000
3.714131 -0.654731 0.439526 44.000000
3.713083 -0.666299 0.439633 52.000000
3.712000 -0.677866 0.439740 47.000000
3.706970 -0.688706 0.439420 45.000000
3.703863 -0.699891 0.439313 45.000000
3.705604 -0.712002 0.439740 45.000000
3.704378 -0.723558 0.439847 44.000000
3.707017 -0.735888 0.440381 47.000000
3.705716 -0.747454 0.440488 40.000000
3.704380 -0.759019 0.440594 38.000000
3.711768 -0.772407 0.441662 40.000000
3.712299 -0.784408 0.441983 42.000000
3.706959 -0.795167 0.441662 59.000000
3.705473 -0.806748 0.441769 39.000000
3.704922 -0.818542 0.441983 36.000000
3.704334 -0.830340 0.442196 37.000000
3.703708 -0.842141 0.442410 41.000000
3.703045 -0.853947 0.442623 47.000000
3.703311 -0.865984 0.442944 42.000000
3.703540 -0.878030 0.443264 39.000000
3.700829 -0.889388 0.443264 37.000000
3.699049 -0.900973 0.443371 45.000000
3.697232 -0.912556 0.443478 35.000000
3.698273 -0.924859 0.443905 42.000000
3.695419 -0.936201 0.443905 37.000000
3.696381 -0.948523 0.444332 30.000000
3.696341 -0.960609 0.444652 46.000000
3.699145 -0.973464 0.445293 41.000000
3.699984 -0.985833 0.445720 40.000000
3.699822 -0.997956 0.446040 41.000000
3.699620 -1.010089 0.446361 52.000000
3.697463 -1.021699 0.446467 37.000000
3.696225 -1.033574 0.446681 48.000000
3.694951 -1.045450 0.446895 46.000000
3.689814 -1.056234 0.446681 57.000000
3.686556 -1.067549 0.446681 45.000000
3.686126 -1.079693 0.447001 46.000000
3.685656 -1.091844 0.447322 28.000000
3.683242 -1.103432 0.447429 39.000000
3.680791 -1.115015 0.447535 45.000000
3.682106 -1.127759 0.448069 38.000000
3.681478 -1.139933 0.448390 53.000000
3.679861 -1.151816 0.448603 47.000000
3.673466 -1.162200 0.448283 36.000000
3.672724 -1.174374 0.448603 42.000000
3.670050 -1.185942 0.448710 47.000000
3.665449 -1.196887 0.448603 43.000000
3.664593 -1.209062 0.448924 33.000000
3.660866 -1.220299 0.448924 33.000000
3.659932 -1.232477 0.449244 44.000000
3.660840 -1.245301 0.449778 32.000000
3.644778 -1.252325 0.448390 15.000000
3.787135 -0.395567 0.397966 6.000000
3.783647 -0.418688 0.397871 15.000000
3.741790 -0.425693 0.393977 51.000000
3.736511 -0.436710 0.393597 48.000000
3.741084 -0.448881 0.394167 39.000000
3.729809 -0.459143 0.393217 50.000000
3.728383 -0.470584 0.393217 57.000000
3.721985 -0.481383 0.392742 57.000000
3.721478 -0.492930 0.392837 29.000000
3.716988 -0.503945 0.392552 48.000000
3.718383 -0.515756 0.392837 58.000000
3.722697 -0.527998 0.393407 51.000000
3.722045 -0.539559 0.393502 50.000000
3.723326 -0.551412 0.393787 50.000000
3.729492 -0.564021 0.394547 51.000000
3.727744 -0.575460 0.394547 57.000000
3.723011 -0.586430 0.394262 73.000000
3.721194 -0.597850 0.394262 53.000000
3.716395 -0.608781 0.393977 65.000000
3.713527 -0.620017 0.393882 49.000000
3.707682 -0.630740 0.393502 46.000000
3.703768 -0.641773 0.393312 49.000000
3.702762 -0.653305 0.393407 59.000000
3.707600 -0.665892 0.394072 41.000000
3.703580 -0.676906 0.393882 69.000000
3.704422 -0.688810 0.394167 52.000000
3.707183 -0.701096 0.394642 51.000000
3.706969 -0.712841 0.394832 34.000000
3.703788 -0.724020 0.394737 51.000000
3.701549 -0.735380 0.394737 52.000000
3.695372 -0.745946 0.394357 53.000000
3.695017 -0.757679 0.394547 58.000000
3.695599 -0.769619 0.394832 53.000000
3.691273 -0.780542 0.394642 58.000000
3.688860 -0.791863 0.394642 57.000000
3.688359 -0.803600 0.394832 60.000000
3.691709 -0.816200 0.395402 49.000000
3.692102 -0.828175 0.395687 47.000000
3.691485 -0.839939 0.395877 44.000000
3.692771 -0.852154 0.396256 58.000000
3.694986 -0.864612 0.396731 51.000000
3.696191 -0.876862 0.397111 57.000000
3.694451 -0.888430 0.397206 55.000000
3.692675 -0.899996 0.397301 45.000000
3.690863 -0.911559 0.397396 55.000000
3.692878 -0.924085 0.397871 55.000000
3.692921 -0.936143 0.398156 57.000000
3.693888 -0.948458 0.398536 48.000000
3.695779 -0.961037 0.399011 57.000000
3.691850 -0.972118 0.398916 50.000000
3.691736 -0.984208 0.399201 46.000000
3.690622 -0.996048 0.399391 42.000000
3.687549 -1.007366 0.399391 49.000000
3.684441 -1.018674 0.399391 56.000000
3.676504 -1.028633 0.398916 65.000000
3.677163 -1.040991 0.399296 57.000000
3.680652 -1.054185 0.399961 61.000000
3.679312 -1.066025 0.400151 53.000000
3.680802 -1.078706 0.400625 53.000000
3.680339 -1.090842 0.400910 51.000000
3.675067 -1.101557 0.400720 38.000000
3.680245 -1.115422 0.401575 64.000000
3.676806 -1.126708 0.401575 45.000000
3.675234 -1.138572 0.401765 50.000000
3.674574 -1.150733 0.402050 48.000000
3.671975 -1.162301 0.402145 59.000000
3.669340 -1.173864 0.402240 48.000000
3.672353 -1.187258 0.402905 40.000000
3.672478 -1.199754 0.403285 49.000000
3.672562 -1.212263 0.403665 36.000000
3.670714 -1.224154 0.403855 26.000000
3.671659 -1.236997 0.404330 27.000000
3.675387 -1.250819 0.405089 46.000000
3.660233 -1.258209 0.403950 11.000000
3.817683 -0.421891 0.352679 10.000000
3.758939 -0.427071 0.347896 33.000000
3.744742 -0.437098 0.346824 44.000000
3.743383 -0.448584 0.346824 40.000000
3.734077 -0.459093 0.346164 45.000000
3.732651 -0.470547 0.346164 53.000000
3.728225 -0.481613 0.345917 47.000000
3.722777 -0.492525 0.345587 54.000000
3.721249 -0.503944 0.345587 44.000000
3.726595 -0.516317 0.346164 60.000000
3.727954 -0.528167 0.346412 49.000000
3.731247 -0.540316 0.346824 50.000000
3.726615 -0.551323 0.346577 35.000000
3.727862 -0.563201 0.346824 49.000000
3.727101 -0.574787 0.346907 49.000000
3.723351 -0.585909 0.346742 58.000000
3.720552 -0.597171 0.346659 55.000000
3.715752 -0.608100 0.346412 53.000000
3.714852 -0.619661 0.346494 44.000000
3.713916 -0.631222 0.346577 45.000000
3.715890 -0.643293 0.346907 44.000000
3.715862 -0.655037 0.347071 51.000000
3.722663 -0.668019 0.347814 49.000000
3.723537 -0.679974 0.348061 36.000000
3.724373 -0.691941 0.348308 48.000000
3.725170 -0.703919 0.348556 52.000000
3.721035 -0.714968 0.348391 40.000000
3.716869 -0.725999 0.348226 48.000000
3.712669 -0.737010 0.348061 54.000000
3.705505 -0.747411 0.347649 52.000000
3.705148 -0.759176 0.347814 57.000000
3.700850 -0.770134 0.347649 47.000000
3.700419 -0.781896 0.347814 43.000000
3.703850 -0.794500 0.348308 34.000000
3.702369 -0.806072 0.348391 40.000000
3.707663 -0.819148 0.349051 34.000000
3.710967 -0.831827 0.349545 51.000000
3.706454 -0.842766 0.349380 35.000000
3.705793 -0.854581 0.349545 39.000000
3.703154 -0.865947 0.349545 47.000000
3.698541 -0.876844 0.349380 38.000000
3.695833 -0.888187 0.349380 40.000000
3.695027 -0.899993 0.349545 58.000000
3.694184 -0.911803 0.349710 36.000000
3.692336 -0.923374 0.349793 35.000000
3.689486 -0.934697 0.349793 47.000000
3.688531 -0.946508 0.349958 51.000000
3.689468 -0.958823 0.350287 46.000000
3.690364 -0.971152 0.350617 33.000000
3.688330 -0.982726 0.350700 33.000000
3.686260 -0.994297 0.350782 45.000000
3.687999 -1.006914 0.351194 47.000000
3.687774 -1.019021 0.351442 40.000000
3.684631 -1.030330 0.351442 35.000000
3.680494 -1.041358 0.351359 42.000000
3.681114 -1.053742 0.351689 37.000000
3.680735 -1.065863 0.351937 42.000000
3.680317 -1.077991 0.352184 49.000000
3.679859 -1.090126 0.352431 44.000000
3.675543 -1.101125 0.352349 51.000000
3.675962 -1.113552 0.352679 51.000000
3.677293 -1.126284 0.353091 48.000000
3.673820 -1.137561 0.353091 34.000000
3.674117 -1.150017 0.353421 50.000000
3.675322 -1.162788 0.353833 45.000000
3.675534 -1.175272 0.354163 59.000000
3.674757 -1.187463 0.354410 43.000000
3.675833 -1.200279 0.354823 57.000000
3.673079 -1.211862 0.354905 37.000000
3.669344 -1.223126 0.354905 35.000000
3.675019 -1.237559 0.355730 47.000000
3.664600 -1.246580 0.355153 36.000000
3.635312 -1.249071 0.352926 15.000000
3.546729 -1.230804 0.345505 5.000000
3.884944 -0.407118 0.311639 10.000000
3.748795 -0.404523 0.302034 44.000000
3.739604 -0.415144 0.301469 63.000000
3.735340 -0.426277 0.301257 59.000000
3.741940 -0.438661 0.301822 42.000000
3.736615 -0.449664 0.301539 41.000000
3.731259 -0.460638 0.301257 47.000000
3.737745 -0.473082 0.301822 39.000000
3.731330 -0.483908 0.301469 54.000000
3.729827 -0.495353 0.301469 58.000000
3.727302 -0.506659 0.301398 37.000000
3.725730 -0.518092 0.301398 54.000000
3.725110 -0.529660 0.301469 54.000000
3.724455 -0.541229 0.301539 52.000000
3.721791 -0.552507 0.301469 39.000000
3.721064 -0.564072 0.301539 61.000000
3.722273 -0.575942 0.301751 44.000000
3.720489 -0.587359 0.301751 55.000000
3.714730 -0.598138 0.301469 45.000000
3.710909 -0.609209 0.301327 39.000000
3.710990 -0.620920 0.301469 52.000000
3.712017 -0.632804 0.301681 50.000000
3.710059 -0.644189 0.301681 53.000000
3.710029 -0.655915 0.301822 52.000000
3.711927 -0.668000 0.302104 38.000000
3.714766 -0.680281 0.302457 47.000000
3.715604 -0.692222 0.302669 54.000000
3.712482 -0.703433 0.302599 54.000000
3.710307 -0.714819 0.302599 46.000000
3.709075 -0.726390 0.302669 59.000000
3.706829 -0.737766 0.302669 53.000000
3.700638 -0.748345 0.302387 61.000000
3.698324 -0.759695 0.302387 50.000000
3.696953 -0.771242 0.302457 47.000000
3.695545 -0.782786 0.302528 54.000000
3.697027 -0.794958 0.302811 34.000000
3.696520 -0.806721 0.302952 46.000000
3.696949 -0.818704 0.303164 42.000000
3.699287 -0.831135 0.303517 44.000000
3.698665 -0.842923 0.303658 41.000000
3.697033 -0.854490 0.303729 55.000000
3.698279 -0.866738 0.304011 40.000000
3.696573 -0.878310 0.304082 53.000000
3.694831 -0.889880 0.304152 49.000000
3.697899 -0.902629 0.304576 32.000000
3.695112 -0.913970 0.304576 39.000000
3.689387 -0.924576 0.304364 43.000000
3.686534 -0.935890 0.304364 39.000000
3.682679 -0.946948 0.304294 43.000000
3.685549 -0.959748 0.304717 51.000000
3.687410 -0.972321 0.305071 46.000000
3.684410 -0.983629 0.305071 52.000000
3.689079 -0.997008 0.305636 54.000000
3.688889 -1.009109 0.305848 31.000000
3.687699 -1.020954 0.305989 46.000000
3.689352 -1.033607 0.306342 44.000000
3.684244 -1.044377 0.306201 53.000000
3.678146 -1.054851 0.305989 60.000000
3.673935 -1.065853 0.305918 52.000000
3.671604 -1.077400 0.305989 57.000000
3.668282 -1.088659 0.305989 52.000000
3.668746 -1.101054 0.306271 47.000000
3.665351 -1.112305 0.306271 51.000000
3.666690 -1.125006 0.306624 53.000000
3.667985 -1.137726 0.306978 71.000000
3.671141 -1.151061 0.307472 51.000000
3.671396 -1.163523 0.307754 60.000000
3.670659 -1.175693 0.307966 46.000000
3.672730 -1.188790 0.308390 49.000000
3.675703 -1.202221 0.308885 38.000000
3.673892 -1.214117 0.309026 44.000000
3.677719 -1.227908 0.309591 42.000000
3.673935 -1.239185 0.309591 40.000000
3.673893 -1.251737 0.309873 49.000000
3.673809 -1.264299 0.310156 53.000000
3.668028 -1.274910 0.310015 59.000000
3.657510 -1.283847 0.309520 28.000000
3.835622 -0.400743 0.259651 5.000000
3.769857 -0.405561 0.255875 28.000000
3.741805 -0.414157 0.254307 51.000000
3.736548 -0.425182 0.254075 48.000000
3.736218 -0.436760 0.254133 43.000000
3.729905 -0.447625 0.253842 68.000000
3.727523 -0.458944 0.253784 68.000000
3.723126 -0.470003 0.253610 47.000000
3.719687 -0.481166 0.253494 44.000000
3.719182 -0.492707 0.253552 55.000000
3.718643 -0.504249 0.253610 56.000000
3.716089 -0.515518 0.253552 56.000000
3.717455 -0.527338 0.253726 68.000000
3.716808 -0.538884 0.253784 62.000000
3.719087 -0.550870 0.254017 59.000000
3.723303 -0.563173 0.254365 54.000000
3.720570 -0.574441 0.254307 61.000000
3.720762 -0.586164 0.254423 64.000000
3.721904 -0.598052 0.254597 54.000000
3.717096 -0.608983 0.254423 53.000000
3.719149 -0.621042 0.254656 52.000000
3.715258 -0.632114 0.254539 48.000000
3.713301 -0.643510 0.254539 43.000000
3.712292 -0.655072 0.254597 52.000000
3.713213 -0.666988 0.254772 46.000000
3.712131 -0.678557 0.254830 47.000000
3.712976 -0.690490 0.255004 43.000000
3.710840 -0.701878 0.255004 42.000000
3.711611 -0.713825 0.255178 45.000000
3.709403 -0.725209 0.255178 50.000000
3.711077 -0.737365 0.255411 46.000000
3.705862 -0.748154 0.255236 52.000000
3.705505 -0.759921 0.255353 38.000000
3.705111 -0.771693 0.255469 33.000000
3.703703 -0.783263 0.255527 37.000000
3.704210 -0.795251 0.255701 44.000000
3.702729 -0.806824 0.255759 46.000000
3.705109 -0.819259 0.256050 39.000000
3.704527 -0.831059 0.256166 45.000000
3.699039 -0.841756 0.255992 51.000000
3.698385 -0.853549 0.256108 43.000000
3.696721 -0.865119 0.256166 35.000000
3.695021 -0.876687 0.256224 43.000000
3.695226 -0.888720 0.256398 38.000000
3.692482 -0.900053 0.256398 40.000000
3.691641 -0.911856 0.256514 47.000000
3.691731 -0.923905 0.256689 62.000000
3.692750 -0.936208 0.256921 35.000000
3.689861 -0.947533 0.256921 42.000000
3.689835 -0.959603 0.257095 37.000000
3.689770 -0.971682 0.257269 49.000000
3.688700 -0.983512 0.257386 36.000000
3.690485 -0.996125 0.257676 46.000000
3.689337 -1.007969 0.257792 37.000000
3.686227 -1.019283 0.257792 46.000000
3.685967 -1.031395 0.257966 47.000000
3.688548 -1.044330 0.258315 37.000000
3.679569 -1.053992 0.257966 30.000000
3.683989 -1.067499 0.258431 55.000000
3.679739 -1.078516 0.258373 41.000000
3.674498 -1.089232 0.258257 29.000000
3.678789 -1.102794 0.258722 47.000000
3.672522 -1.113206 0.258547 50.000000
3.666226 -1.123590 0.258373 48.000000
3.666576 -1.136015 0.258605 48.000000
3.664026 -1.147557 0.258664 41.000000
3.664295 -1.159998 0.258896 49.000000
3.663571 -1.172148 0.259070 49.000000
3.663758 -1.184611 0.259302 51.000000
3.670544 -1.199257 0.259941 58.000000
3.670640 -1.211765 0.260174 45.000000
3.671640 -1.224600 0.260464 33.000000
3.674488 -1.238091 0.260871 53.000000
3.674452 -1.250645 0.261103 50.000000
3.672486 -1.262562 0.261219 50.000000
3.668595 -1.273823 0.261219 51.000000
3.661844 -1.284081 0.261045 38.000000
3.958325 -0.440053 0.219787 9.000000
3.753493 -0.429003 0.210309 31.000000
3.751167 -0.440401 0.210263 31.000000
3.730954 -0.449642 0.209384 40.000000
3.727574 -0.460842 0.209292 42.000000
3.722179 -0.471774 0.209107 51.000000
3.720714 -0.483192 0.209107 51.000000
3.722185 -0.494999 0.209246 49.000000
3.715700 -0.505744 0.209014 34.000000
3.723035 -0.518378 0.209431 44.000000
3.727361 -0.530641 0.209708 54.000000
3.727693 -0.542360 0.209800 55.000000
3.728976 -0.554234 0.209939 37.000000
3.722319 -0.564924 0.209708 51.000000
3.719581 -0.576188 0.209662 53.000000
3.716810 -0.587442 0.209615 58.000000
3.720907 -0.599794 0.209893 37.000000
3.717078 -0.610883 0.209800 53.000000
3.717157 -0.622614 0.209893 55.000000
3.717199 -0.634350 0.209985 48.000000
3.718188 -0.646264 0.210124 45.000000
3.716188 -0.657668 0.210124 39.000000
3.718085 -0.669773 0.210309 40.000000
3.716996 -0.681357 0.210355 42.000000
3.717834 -0.693306 0.210494 42.000000
3.717653 -0.705080 0.210586 45.000000
3.716452 -0.716671 0.210633 42.000000
3.714236 -0.728070 0.210633 66.000000
3.711985 -0.739461 0.210633 51.000000
3.706762 -0.750253 0.210494 52.000000
3.703464 -0.761420 0.210448 48.000000
3.698177 -0.772167 0.210309 59.000000
3.693836 -0.783096 0.210217 45.000000
3.687510 -0.793585 0.210032 41.000000
3.688961 -0.805746 0.210217 49.000000
3.690373 -0.817923 0.210401 41.000000
3.689796 -0.829679 0.210494 52.000000
3.692103 -0.842104 0.210725 55.000000
3.693395 -0.854327 0.210910 45.000000
3.694647 -0.866565 0.211095 47.000000
3.691000 -0.877665 0.211049 36.000000
3.686347 -0.888518 0.210956 37.000000
3.686515 -0.900533 0.211095 35.000000
3.685675 -0.912318 0.211187 45.000000
3.687703 -0.924835 0.211419 45.000000
3.690658 -0.937618 0.211696 45.000000
3.689699 -0.949434 0.211789 35.000000
3.692569 -0.962259 0.212066 41.000000
3.688634 -0.973329 0.212020 51.000000
3.685630 -0.984641 0.212020 41.000000
3.683557 -0.996204 0.212066 47.000000
3.680483 -1.007500 0.212066 51.000000
3.676412 -1.018521 0.212020 58.000000
3.677118 -1.030872 0.212205 51.000000
3.674898 -1.042421 0.212251 62.000000
3.674564 -1.054516 0.212390 55.000000
3.675149 -1.066898 0.212574 50.000000
3.671859 -1.078168 0.212574 61.000000
3.671406 -1.090280 0.212713 71.000000
3.677612 -1.104409 0.213176 55.000000
3.676119 -1.116266 0.213268 53.000000
3.671722 -1.127246 0.213222 62.000000
3.671108 -1.139393 0.213360 56.000000
3.666642 -1.150352 0.213314 55.000000
3.663096 -1.161596 0.213314 43.000000
3.659515 -1.172828 0.213314 56.000000
3.654949 -1.183742 0.213268 65.000000
3.654149 -1.195881 0.213407 46.000000
3.657102 -1.209280 0.213730 48.000000
3.653375 -1.220494 0.213730 35.000000
3.652453 -1.232654 0.213869 44.000000
3.653382 -1.245464 0.214100 42.000000
3.654267 -1.258291 0.214331 28.000000
3.723750 -0.424380 0.162593 41.000000
3.702578 -0.433476 0.161916 27.000000
3.715123 -0.446505 0.162390 39.000000
3.719687 -0.458635 0.162593 49.000000
3.718262 -0.470045 0.162593 43.000000
3.720767 -0.481964 0.162729 46.000000
3.725215 -0.494166 0.162932 56.000000
3.728633 -0.506265 0.163101 47.000000
3.730032 -0.518115 0.163203 55.000000
3.729415 -0.529697 0.163237 66.000000
3.726783 -0.540992 0.163203 54.000000
3.725106 -0.552423 0.163203 53.000000
3.719441 -0.563250 0.163067 54.000000
3.720658 -0.575117 0.163169 56.000000
3.715915 -0.586062 0.163067 54.000000
3.718046 -0.598094 0.163203 50.000000
3.719153 -0.609984 0.163304 56.000000
3.715292 -0.621062 0.163237 41.000000
3.715340 -0.632793 0.163304 39.000000
3.711411 -0.643846 0.163237 49.000000
3.709419 -0.655230 0.163237 60.000000
3.708375 -0.666784 0.163270 64.000000
3.707295 -0.678338 0.163304 46.000000
3.708144 -0.690258 0.163406 44.000000
3.712882 -0.702933 0.163643 51.000000
3.715615 -0.715266 0.163812 40.000000
3.709480 -0.725894 0.163677 37.000000
3.709196 -0.737661 0.163744 48.000000
3.708875 -0.749433 0.163812 46.000000
3.703621 -0.760205 0.163711 47.000000
3.701271 -0.771564 0.163711 42.000000
3.695954 -0.782295 0.163609 30.000000
3.692559 -0.793420 0.163575 51.000000
3.693037 -0.805384 0.163677 44.000000
3.694452 -0.817574 0.163812 35.000000
3.694851 -0.829562 0.163914 49.000000
3.695212 -0.841560 0.164015 32.000000
3.699430 -0.854468 0.164252 46.000000
3.698737 -0.866269 0.164320 37.000000
3.698979 -0.878306 0.164421 39.000000
3.699182 -0.890352 0.164523 38.000000
3.694491 -0.901223 0.164455 55.000000
3.696559 -0.913753 0.164625 49.000000
3.693739 -0.925089 0.164625 46.000000
3.695727 -0.937647 0.164794 52.000000
3.696705 -0.949976 0.164929 38.000000
3.695707 -0.961816 0.164997 38.000000
3.694672 -0.973660 0.165065 38.000000
3.688770 -0.984217 0.164963 48.000000
3.683804 -0.995008 0.164895 52.000000
3.685554 -1.007623 0.165065 48.000000
3.678592 -1.017859 0.164929 52.000000
3.678339 -1.029949 0.165031 46.000000
3.678047 -1.042047 0.165132 40.000000
3.676754 -1.053877 0.165200 27.000000
3.682142 -1.067658 0.165505 40.000000
3.680768 -1.079512 0.165572 37.000000
3.677438 -1.090799 0.165572 40.000000
3.680775 -1.104087 0.165809 36.000000
3.682153 -1.116825 0.165979 52.000000
3.679664 -1.128410 0.166012 44.000000
3.676185 -1.139694 0.166012 63.000000
3.677439 -1.152462 0.166182 44.000000
3.674839 -1.164040 0.166216 43.000000
3.674106 -1.176224 0.166317 48.000000
3.670480 -1.187490 0.166317 33.000000
3.666820 -1.198745 0.166317 48.000000
3.667870 -1.211557 0.166486 30.000000
3.669824 -1.224703 0.166690 31.000000
3.664155 -1.235317 0.166622 33.000000
3.663186 -1.247520 0.166723 34.000000
3.663121 -1.260053 0.166859 24.000000
3.708091 -0.422523 0.116622 23.000000
3.728625 -0.436447 0.117098 55.000000
3.723297 -0.447409 0.117011 48.000000
3.723891 -0.459074 0.117054 41.000000
3.721474 -0.470371 0.117033 58.000000
3.721005 -0.481914 0.117054 43.000000
3.722482 -0.493721 0.117119 49.000000
3.725904 -0.505810 0.117227 50.000000
3.727305 -0.517650 0.117292 59.000000
3.729659 -0.529644 0.117379 47.000000
3.727027 -0.540941 0.117357 42.000000
3.728317 -0.552812 0.117422 43.000000
3.724626 -0.563949 0.117379 48.000000
3.724855 -0.575678 0.117422 56.000000
3.721096 -0.586792 0.117379 43.000000
3.718291 -0.598047 0.117357 38.000000
3.714465 -0.609129 0.117314 52.000000
3.709621 -0.620028 0.117249 48.000000
3.704744 -0.630904 0.117184 44.000000
3.702791 -0.642267 0.117184 38.000000
3.697850 -0.653103 0.117119 52.000000
3.701733 -0.665504 0.117249 44.000000
3.701640 -0.677217 0.117292 43.000000
3.701511 -0.688936 0.117336 52.000000
3.704292 -0.701217 0.117444 36.000000
3.703105 -0.712767 0.117466 41.000000
3.702863 -0.724508 0.117509 45.000000
3.700623 -0.735864 0.117509 32.000000
3.699328 -0.747412 0.117530 42.000000
3.691142 -0.757554 0.117401 38.000000
3.696630 -0.770504 0.117574 47.000000
3.694249 -0.781841 0.117574 46.000000
3.698676 -0.794640 0.117725 57.000000
3.697197 -0.806196 0.117747 61.000000
3.697635 -0.818182 0.117812 49.000000
3.697058 -0.829960 0.117855 48.000000
3.700344 -0.842628 0.117985 41.000000
3.698716 -0.854201 0.118007 55.000000
3.699971 -0.866456 0.118093 54.000000
3.700215 -0.878495 0.118158 50.000000
3.705278 -0.891712 0.118331 37.000000
3.698640 -0.902129 0.118245 47.000000
3.700708 -0.914670 0.118353 38.000000
3.696914 -0.925776 0.118331 37.000000
3.694057 -0.937114 0.118331 38.000000
3.695038 -0.949437 0.118418 54.000000
3.694043 -0.961272 0.118461 38.000000
3.691076 -0.972600 0.118461 39.000000
3.691940 -0.984949 0.118548 42.000000
3.686004 -0.995490 0.118483 49.000000
3.683897 -1.007058 0.118504 52.000000
3.681754 -1.018621 0.118526 36.000000
3.680537 -1.030450 0.118569 32.000000
3.676397 -1.041465 0.118548 48.000000
3.676068 -1.053564 0.118612 49.000000
3.672818 -1.064838 0.118612 52.000000
3.672412 -1.076944 0.118677 62.000000
3.669091 -1.088205 0.118677 46.000000
3.671481 -1.101179 0.118807 44.000000
3.671913 -1.113597 0.118894 46.000000
3.672303 -1.126028 0.118980 53.000000
3.672651 -1.138472 0.119067 52.000000
3.672958 -1.150929 0.119153 59.000000
3.670362 -1.162493 0.119175 54.000000
3.669636 -1.174662 0.119240 51.000000
3.666014 -1.185915 0.119240 44.000000
3.661409 -1.196846 0.119218 54.000000
3.659618 -1.208700 0.119262 52.000000
3.660635 -1.221503 0.119370 45.000000
3.659713 -1.233685 0.119435 38.000000
3.658750 -1.245873 0.119500 36.000000
3.661529 -1.259366 0.119651 26.000000
3.741540 -0.427068 0.070870 29.000000
3.739219 -0.438429 0.070860 44.000000
3.737857 -0.449898 0.070860 52.000000
3.735466 -0.461241 0.070851 45.000000
3.733042 -0.472574 0.070842 62.000000
3.731574 -0.484024 0.070842 59.000000
3.731063 -0.495602 0.070851 71.000000
3.730516 -0.507181 0.070860 46.000000
3.731913 -0.519038 0.070888 59.000000
3.733273 -0.530907 0.070916 71.000000
3.731627 -0.542358 0.070916 46.000000
3.727967 -0.553510 0.070897 45.000000
3.725263 -0.564795 0.070888 51.000000
3.723512 -0.576221 0.070888 52.000000
3.718764 -0.587174 0.070860 68.000000
3.720894 -0.599216 0.070897 38.000000
3.715092 -0.609981 0.070860 63.000000
3.711230 -0.621045 0.070842 39.000000
3.710293 -0.632596 0.070851 48.000000
3.705379 -0.643463 0.070823 48.000000
3.702403 -0.654653 0.070814 39.000000
3.705298 -0.666895 0.070860 40.000000
3.704218 -0.678440 0.070870 47.000000
3.712932 -0.691817 0.070971 42.000000
3.716687 -0.704323 0.071027 41.000000
3.717455 -0.716290 0.071055 45.000000
3.715239 -0.727692 0.071055 41.000000
3.710047 -0.738500 0.071027 51.000000
3.709724 -0.750276 0.071045 31.000000
3.705446 -0.761251 0.071027 54.000000
3.706030 -0.773229 0.071055 43.000000
3.703640 -0.784595 0.071055 41.000000
3.710014 -0.797847 0.071138 53.000000
3.711456 -0.810079 0.071175 38.000000
3.712858 -0.822327 0.071212 45.000000
3.709342 -0.833494 0.071203 38.000000
3.707743 -0.845093 0.071212 36.000000
3.703184 -0.856013 0.071193 60.000000
3.700541 -0.867371 0.071193 44.000000
3.695917 -0.878257 0.071175 38.000000
3.696121 -0.890295 0.071203 41.000000
3.693372 -0.901630 0.071203 43.000000
3.694472 -0.913918 0.071240 39.000000
3.692620 -0.925491 0.071249 62.000000
3.690732 -0.937062 0.071258 43.000000
3.690745 -0.949128 0.071286 38.000000
3.692655 -0.961707 0.071332 49.000000
3.691620 -0.973542 0.071351 49.000000
3.689582 -0.985121 0.071360 40.000000
3.685577 -0.996175 0.071351 46.000000
3.685397 -1.008269 0.071378 43.000000
3.685178 -1.020372 0.071406 46.000000
3.682993 -1.031943 0.071415 42.000000
3.679809 -1.043237 0.071415 36.000000
3.682359 -1.056176 0.071471 37.000000
3.683903 -1.068863 0.071517 40.000000
3.686363 -1.081850 0.071573 42.000000
3.687819 -1.094577 0.071619 48.000000
3.685401 -1.106174 0.071628 45.000000
3.681034 -1.117185 0.071619 44.000000
3.680457 -1.129353 0.071647 33.000000
3.675065 -1.140047 0.071628 34.000000
3.668687 -1.150418 0.071600 40.000000
3.665141 -1.161668 0.071600 56.000000
3.663464 -1.173517 0.071619 46.000000
3.660798 -1.185059 0.071628 41.000000
3.660946 -1.197529 0.071665 40.000000
3.659154 -1.209383 0.071684 49.000000
3.658272 -1.221553 0.071711 34.000000
3.658297 -1.234050 0.071748 35.000000
3.659225 -1.246881 0.071795 24.000000
3.655383 -1.258101 0.071795 20.000000
3.687397 -1.281790 0.072146 7.000000
3.734770 -0.425554 0.023767 29.000000
3.732454 -0.436894 0.023770 35.000000
3.730103 -0.448224 0.023774 26.000000
3.724740 -0.459178 0.023787 34.000000
3.724305 -0.470728 0.023784 48.000000
3.723836 -0.482280 0.023780 63.000000
3.724321 -0.493965 0.023774 48.000000
3.727743 -0.506059 0.023757 47.000000
3.727164 -0.517631 0.023754 43.000000
3.731498 -0.529905 0.023734 39.000000
3.730845 -0.541494 0.023731 42.000000
3.721252 -0.551767 0.023757 43.000000
3.716576 -0.562732 0.023767 39.000000
3.712855 -0.573827 0.023774 44.000000
3.705150 -0.584283 0.023794 59.000000
3.705315 -0.595964 0.023787 43.000000
3.705443 -0.607652 0.023780 44.000000
3.706520 -0.619511 0.023770 39.000000
3.714461 -0.632555 0.023737 27.000000
3.712502 -0.643948 0.023737 37.000000
3.716418 -0.656376 0.023717 46.000000
3.714387 -0.667775 0.023717 44.000000
3.713304 -0.679347 0.023714 43.000000
3.713169 -0.691102 0.023707 33.000000
3.711031 -0.702490 0.023707 51.000000
3.710823 -0.714250 0.023701 45.000000
3.706651 -0.725248 0.023707 55.000000
3.702447 -0.736227 0.023714 45.000000
3.703112 -0.748175 0.023704 43.000000
3.704717 -0.760336 0.023691 35.000000
3.696493 -0.770476 0.023711 43.000000
3.698025 -0.782640 0.023697 46.000000
3.701473 -0.795240 0.023678 52.000000
3.705856 -0.808081 0.023654 38.000000
3.707265 -0.820310 0.023641 57.000000
3.706683 -0.832117 0.023634 57.000000
3.702162 -0.843042 0.023641 45.000000
3.703456 -0.855295 0.023628 55.000000
3.697894 -0.865970 0.023638 47.000000
3.691327 -0.876388 0.023651 56.000000
3.690566 -0.888176 0.023644 40.000000
3.690738 -0.900204 0.023634 48.000000
3.686988 -0.911283 0.023638 62.000000
3.687085 -0.923318 0.023628 52.000000
3.686174 -0.935117 0.023621 61.000000
3.684256 -0.946670 0.023618 38.000000
3.686174 -0.959227 0.023601 46.000000
3.687082 -0.971549 0.023588 49.000000
3.684084 -0.982856 0.023588 57.000000
3.684913 -0.995196 0.023575 43.000000
3.681843 -1.006496 0.023575 42.000000
3.679701 -1.018054 0.023571 39.000000
3.680413 -1.030415 0.023558 34.000000
3.677234 -1.041702 0.023558 41.000000
3.678828 -1.054355 0.023542 38.000000
3.684221 -1.068140 0.023512 53.000000
3.687644 -1.081406 0.023489 50.000000
3.689103 -1.094134 0.023472 42.000000
3.685729 -1.105447 0.023472 47.000000
3.684234 -1.117329 0.023465 56.000000
3.678876 -1.128041 0.023472 51.000000
3.673488 -1.138731 0.023479 46.000000
3.666160 -1.148801 0.023492 47.000000
3.659758 -1.159138 0.023502 48.000000
3.661899 -1.172188 0.023482 42.000000
3.661141 -1.184340 0.023472 48.000000
3.663193 -1.197429 0.023452 42.000000
3.668049 -1.211482 0.023422 35.000000
3.668110 -1.223994 0.023409 38.000000
3.669076 -1.236838 0.023392 48.000000
3.670944 -1.250021 0.023373 33.000000
3.664255 -1.260303 0.023382 30.000000
3.757941 -0.439302 -0.023008 47.000000
3.749626 -0.449994 -0.022898 42.000000
3.740289 -0.460517 -0.022773 58.000000
3.734890 -0.471489 -0.022710 40.000000
3.730451 -0.482560 -0.022663 52.000000
3.728953 -0.494003 -0.022663 55.000000
3.724448 -0.505037 -0.022616 52.000000
3.719909 -0.516049 -0.022568 50.000000
3.724249 -0.528302 -0.022663 50.000000
3.725579 -0.540156 -0.022710 51.000000
3.724893 -0.551730 -0.022725 39.000000
3.726149 -0.563604 -0.022773 44.000000
3.721438 -0.574575 -0.022725 47.000000
3.719657 -0.585990 -0.022725 36.000000
3.718829 -0.597557 -0.022741 37.000000
3.719939 -0.609449 -0.022788 35.000000
3.713120 -0.620035 -0.022710 38.000000
3.747671 -0.637633 -0.023291 30.000000
3.710232 -0.642977 -0.022725 63.000000
3.737781 -0.659573 -0.023197 35.000000
3.715073 -0.667323 -0.022867 50.000000
3.719893 -0.679976 -0.022977 49.000000
3.742365 -0.695958 -0.023369 45.000000
3.753966 -0.710040 -0.023589 44.000000
3.761589 -0.723443 -0.023746 41.000000
3.758370 -0.734788 -0.023731 48.000000
3.754137 -0.745925 -0.023699 40.000000
3.750850 -0.757241 -0.023684 47.000000
3.747530 -0.768544 -0.023668 51.000000
3.738303 -0.778610 -0.023558 44.000000
3.744700 -0.791938 -0.023699 40.000000
3.739321 -0.802793 -0.023652 36.000000
3.730978 -0.812983 -0.023558 43.000000
3.740182 -0.827017 -0.023746 43.000000
3.731773 -0.837174 -0.023652 35.000000
3.730162 -0.848841 -0.023668 39.000000
3.725592 -0.859831 -0.023637 30.000000
3.727805 -0.872397 -0.023715 28.000000
3.734839 -0.886139 -0.023872 34.000000
3.741824 -0.899932 -0.024029 33.000000
3.740017 -0.911645 -0.024045 29.000000
3.749821 -0.926233 -0.024249 39.000000
3.753751 -0.939433 -0.024359 40.000000
3.744067 -0.949224 -0.024249 48.000000
3.756633 -0.964687 -0.024500 34.000000
3.748817 -0.974948 -0.024422 33.000000
3.735172 -0.983643 -0.024249 45.000000
3.721510 -0.992263 -0.024076 37.000000
3.731962 -1.007325 -0.024296 28.000000
3.698955 -1.010598 -0.023809 49.000000
3.688128 -1.019809 -0.023684 40.000000
3.692684 -1.033275 -0.023809 47.000000
3.686611 -1.043782 -0.023762 28.000000
3.685314 -1.055638 -0.023794 36.000000
3.687820 -1.068610 -0.023888 36.000000
3.684524 -1.079919 -0.023888 38.000000
3.685028 -1.092355 -0.023951 33.000000
3.685490 -1.104804 -0.024013 26.000000
3.676342 -1.114365 -0.023919 31.000000
3.679598 -1.127690 -0.024029 20.000000
3.672301 -1.137789 -0.023966 23.000000
3.674517 -1.150844 -0.024061 20.000000
3.665250 -1.160301 -0.023966 31.000000
3.673101 -1.175198 -0.024155 24.000000
3.668526 -1.186153 -0.024139 34.000000
3.670573 -1.199266 -0.024233 33.000000
3.667825 -1.210835 -0.024249 27.000000
3.665991 -1.222715 -0.024281 27.000000
3.664117 -1.234596 -0.024312 21.000000
3.662205 -1.246475 -0.024343 24.000000
3.974904 -0.701946 -0.075425 10.000000
3.956990 -0.711313 -0.074981 27.000000
3.957739 -0.723988 -0.075064 19.000000
3.944688 -0.734118 -0.074759 26.000000
3.921791 -0.742319 -0.074176 43.000000
3.907715 -0.752084 -0.073843 50.000000
3.903427 -0.763686 -0.073787 42.000000
3.890280 -0.773516 -0.073482 46.000000
3.882989 -0.784460 -0.073343 55.000000
3.876647 -0.795566 -0.073232 54.000000
3.865381 -0.805623 -0.072983 51.000000
3.858001 -0.816445 -0.072844 48.000000
3.849613 -0.827019 -0.072678 33.000000
3.849988 -0.839463 -0.072761 54.000000
3.851299 -0.852134 -0.072872 61.000000
3.853544 -0.865039 -0.073011 61.000000
3.849897 -0.876635 -0.072983 44.000000
3.852060 -0.889566 -0.073122 45.000000
3.856126 -0.902973 -0.073316 59.000000
3.853337 -0.914799 -0.073316 62.000000
3.857316 -0.928252 -0.073510 44.000000
3.857364 -0.940791 -0.073593 42.000000
3.865135 -0.955256 -0.073898 40.000000
3.877702 -0.970990 -0.074342 45.000000
3.882457 -0.984846 -0.074564 37.000000
3.893941 -1.000480 -0.074981 30.000000
3.897625 -1.014181 -0.075175 28.000000
3.904162 -1.028679 -0.075452 20.000000
3.914511 -1.044255 -0.075841 11.000000
3.892951 -1.051313 -0.075314 16.000000
3.933795 -0.706634 -0.124408 11.000000
3.941437 -0.720497 -0.124811 40.000000
3.928403 -0.730575 -0.124367 32.000000
3.921234 -0.741695 -0.124166 38.000000
3.911091 -0.752211 -0.123843 46.000000
3.896997 -0.761905 -0.123360 39.000000
3.889741 -0.772883 -0.123158 46.000000
3.881475 -0.783626 -0.122916 50.000000
3.878074 -0.795329 -0.122876 43.000000
3.867790 -0.805593 -0.122554 49.000000
3.858458 -0.816007 -0.122271 43.000000
3.854959 -0.827631 -0.122231 46.000000
3.847521 -0.838390 -0.122030 45.000000
3.836150 -0.848248 -0.121667 27.000000
3.834505 -0.860232 -0.121707 52.000000
3.826976 -0.870883 -0.121506 43.000000
3.825260 -0.882844 -0.121546 38.000000
3.826425 -0.895487 -0.121707 34.000000
3.828520 -0.908376 -0.121909 41.000000
3.830573 -0.921286 -0.122110 31.000000
3.835494 -0.934928 -0.122433 37.000000
3.841338 -0.948848 -0.122795 36.000000
3.853917 -0.964511 -0.123440 44.000000
3.864499 -0.979769 -0.124005 30.000000
3.875024 -0.995102 -0.124569 31.000000
3.881623 -1.009501 -0.124972 29.000000
3.886237 -1.023441 -0.125294 26.000000
3.882113 -1.035102 -0.125254 17.000000
3.866379 -1.043621 -0.124730 12.000000
3.939097 -0.709516 -0.172755 26.000000
3.928061 -0.719980 -0.172284 26.000000
3.914052 -0.729834 -0.171656 37.000000
3.909832 -0.741467 -0.171552 39.000000
3.899694 -0.751949 -0.171133 46.000000
3.897369 -0.763909 -0.171133 42.000000
3.890110 -0.774889 -0.170871 61.000000
3.885756 -0.786424 -0.170767 71.000000
3.887238 -0.799145 -0.170976 40.000000
3.878902 -0.809844 -0.170662 46.000000
3.870538 -0.820500 -0.170348 38.000000
3.862144 -0.831112 -0.170034 25.000000
3.850795 -0.841042 -0.169563 37.000000
3.843321 -0.851773 -0.169301 39.000000
3.836793 -0.862685 -0.169092 30.000000
3.829259 -0.873343 -0.168830 36.000000
3.826562 -0.885087 -0.168830 33.000000
3.828690 -0.897961 -0.169092 39.000000
3.834661 -0.911780 -0.169563 45.000000
3.834759 -0.924241 -0.169720 37.000000
3.835786 -0.936948 -0.169929 34.000000
3.839680 -0.950389 -0.170295 37.000000
3.846433 -0.964591 -0.170819 56.000000
3.852167 -0.978598 -0.171290 60.000000
3.857852 -0.992648 -0.171761 41.000000
3.861553 -1.006240 -0.172127 42.000000
3.866173 -1.020118 -0.172546 45.000000
3.875568 -1.035322 -0.173226 22.000000
3.882015 -1.049811 -0.173750 13.000000
3.934656 -0.706789 -0.222011 17.000000
3.897131 -0.712393 -0.219682 40.000000
3.891003 -0.723616 -0.219423 46.000000
3.884843 -0.734808 -0.219164 68.000000
3.882570 -0.746723 -0.219164 49.000000
3.877323 -0.758056 -0.218970 36.000000
3.874979 -0.769948 -0.218970 57.000000
3.868686 -0.781042 -0.218711 52.000000
3.863338 -0.792306 -0.218517 53.000000
3.857959 -0.803544 -0.218323 72.000000
3.852547 -0.814757 -0.218129 45.000000
3.841248 -0.824686 -0.217547 37.000000
3.844550 -0.837742 -0.217935 47.000000
3.843910 -0.849964 -0.218064 65.000000
3.843232 -0.862190 -0.218194 71.000000
3.831812 -0.871984 -0.217611 31.000000
3.834952 -0.885082 -0.218000 46.000000
3.835134 -0.897526 -0.218194 43.000000
3.801293 -0.901913 -0.216123 20.000000
3.844108 -0.924543 -0.219164 42.000000
3.851918 -0.938933 -0.219876 55.000000
3.852894 -0.951703 -0.220135 61.000000
3.856732 -0.965216 -0.220588 48.000000
3.861491 -0.979006 -0.221105 28.000000
3.862335 -0.991842 -0.221364 40.000000
3.859274 -1.003687 -0.221364 31.000000
3.859072 -1.016285 -0.221558 40.000000
3.859793 -1.029148 -0.221817 38.000000
3.860471 -1.042026 -0.222076 17.000000
3.862068 -1.055180 -0.222400 7.000000
3.911544 -0.692179 -0.267565 28.000000
3.906458 -0.703647 -0.267336 26.000000
3.915069 -0.717602 -0.268178 19.000000
3.883443 -0.724136 -0.265881 34.000000
3.873365 -0.734563 -0.265269 39.000000
3.858365 -0.743992 -0.264274 33.000000
3.854108 -0.755443 -0.264121 31.000000
3.846882 -0.766291 -0.263738 40.000000
3.844513 -0.778090 -0.263738 36.000000
3.844062 -0.790282 -0.263891 49.000000
3.840643 -0.801868 -0.263815 45.000000
3.836214 -0.813234 -0.263662 30.000000
3.835650 -0.825419 -0.263815 38.000000
3.836023 -0.837820 -0.264044 41.000000
3.833434 -0.849584 -0.264044 43.000000
3.835674 -0.862433 -0.264427 53.000000
3.833982 -0.874419 -0.264504 55.000000
3.830310 -0.885952 -0.264427 38.000000
3.829515 -0.898154 -0.264580 33.000000
3.833532 -0.911511 -0.265116 45.000000
3.831687 -0.923502 -0.265193 36.000000
3.833679 -0.936434 -0.265575 129.000000
3.837564 -0.949866 -0.266111 58.000000
3.837533 -0.962362 -0.266341 50.000000
3.840361 -0.975602 -0.266800 54.000000
3.840247 -0.988124 -0.267030 40.000000
3.834303 -0.999148 -0.266800 36.000000
3.829291 -1.010398 -0.266647 29.000000
3.838697 -1.025483 -0.267642 24.000000
3.839383 -1.038296 -0.267948 10.000000
3.867918 -1.058747 -0.270474 6.000000
3.944175 -0.684957 -0.318985 15.000000
3.926362 -0.694278 -0.317566 20.000000
3.917351 -0.705084 -0.316945 18.000000
3.888717 -0.712252 -0.314549 35.000000
3.879659 -0.722901 -0.313928 47.000000
3.865680 -0.732573 -0.312863 47.000000
3.860480 -0.743864 -0.312597 40.000000
3.855247 -0.755130 -0.312331 59.000000
3.849981 -0.766370 -0.312065 46.000000
3.852493 -0.779166 -0.312509 45.000000
3.853987 -0.791784 -0.312863 51.000000
3.857390 -0.804825 -0.313396 58.000000
3.860749 -0.817895 -0.313928 35.000000
3.862117 -0.830573 -0.314283 49.000000
3.864417 -0.843481 -0.314727 34.000000
3.869590 -0.857057 -0.315436 53.000000
3.860140 -0.867395 -0.314815 83.000000
3.859403 -0.879677 -0.314993 43.000000
3.854745 -0.891064 -0.314815 39.000000
3.863630 -0.905615 -0.315880 51.000000
3.853081 -0.915621 -0.315170 127.000000
3.857032 -0.929071 -0.315791 81.000000
3.850293 -0.939955 -0.315436 40.000000
3.843524 -0.950806 -0.315081 54.000000
3.837690 -0.961866 -0.314815 46.000000
3.835687 -0.973881 -0.314904 53.000000
3.838469 -0.987133 -0.315436 54.000000
3.840242 -1.000160 -0.315880 30.000000
3.839081 -1.012446 -0.316057 31.000000
3.848467 -1.027561 -0.317211 28.000000
3.852989 -1.041443 -0.317921 21.000000
3.874754 -1.060095 -0.320227 8.000000
3.925589 -0.693956 -0.367848 23.000000
3.911691 -0.703885 -0.366634 22.000000
3.899727 -0.714094 -0.365621 29.000000
3.882846 -0.723326 -0.364103 31.000000
3.870833 -0.733386 -0.363090 55.000000
3.868565 -0.745258 -0.363090 48.000000
3.864308 -0.756742 -0.362888 35.000000
3.865871 -0.769369 -0.363293 59.000000
3.866418 -0.781817 -0.363597 44.000000
3.868874 -0.794674 -0.364103 42.000000
3.873235 -0.807960 -0.364811 42.000000
3.874632 -0.820663 -0.365216 55.000000
3.876959 -0.833590 -0.365722 50.000000
3.880216 -0.846752 -0.366330 41.000000
3.881485 -0.859511 -0.366735 38.000000
3.883684 -0.872504 -0.367241 34.000000
3.904270 -0.889713 -0.369670 98.000000
3.881165 -0.896989 -0.367545 43.000000
3.881301 -0.909572 -0.367848 23.000000
3.873652 -0.920327 -0.367342 53.000000
3.868876 -0.931742 -0.367140 41.000000
3.861166 -0.942429 -0.366634 54.000000
3.848599 -0.951884 -0.365621 40.000000
3.841800 -0.962721 -0.365216 46.000000
3.835935 -0.973769 -0.364913 31.000000
3.838711 -0.987018 -0.365520 42.000000
3.844331 -1.001044 -0.366431 44.000000
3.851824 -1.015621 -0.367545 26.000000
3.854458 -1.028971 -0.368152 40.000000
3.873374 -1.046755 -0.370480 15.000000
3.868225 -1.058109 -0.370278 6.000000
3.921508 -0.705129 -0.415283 16.000000
3.892938 -0.712326 -0.412231 43.000000
3.887804 -0.723720 -0.411892 43.000000
3.885565 -0.735644 -0.411892 47.000000
3.880363 -0.746998 -0.411553 49.000000
3.875128 -0.758326 -0.411214 49.000000
3.877656 -0.771181 -0.411779 56.000000
3.879167 -0.783861 -0.412231 56.000000
3.885503 -0.797558 -0.413248 52.000000
3.892765 -0.811503 -0.414379 45.000000
3.895117 -0.824471 -0.414944 47.000000
3.899369 -0.837879 -0.415735 45.000000
3.901634 -0.850898 -0.416300 33.000000
3.901915 -0.863508 -0.416639 41.000000
3.905064 -0.876781 -0.417318 35.000000
3.938200 -0.896925 -0.421500 138.000000
3.907356 -0.902516 -0.418222 68.000000
3.896829 -0.912685 -0.417318 37.000000
3.896911 -0.925325 -0.417657 52.000000
3.884394 -0.934951 -0.416526 29.000000
3.878612 -0.946157 -0.416187 30.000000
3.871832 -0.957097 -0.415735 55.000000
3.864058 -0.967764 -0.415170 49.000000
3.856256 -0.978392 -0.414605 58.000000
3.850349 -0.989476 -0.414266 53.000000
3.852103 -1.002536 -0.414831 40.000000
3.851892 -1.015109 -0.415170 36.000000
3.843960 -1.025641 -0.414605 30.000000
3.849427 -1.039762 -0.415622 18.000000
3.905586 -0.715165 -0.463423 32.000000
3.897521 -0.726056 -0.462671 29.000000
3.894301 -0.737825 -0.462545 37.000000
3.887148 -0.748832 -0.461919 50.000000
3.880937 -0.759993 -0.461417 37.000000
3.881507 -0.772476 -0.461793 54.000000
3.879119 -0.784381 -0.461793 39.000000
3.882525 -0.797474 -0.462545 39.000000
3.891716 -0.811809 -0.464049 61.000000
3.899884 -0.826003 -0.465428 37.000000
3.908971 -0.840463 -0.466932 51.000000
3.919945 -0.855409 -0.468687 25.000000
3.926021 -0.869359 -0.469815 47.000000
3.931080 -0.883138 -0.470817 42.000000
3.942863 -0.898496 -0.472697 107.000000
3.923654 -0.906795 -0.470567 28.000000
3.909261 -0.916116 -0.469063 45.000000
3.899675 -0.926501 -0.468185 42.000000
3.884274 -0.935445 -0.466556 42.000000
3.876566 -0.946183 -0.465929 40.000000
3.869793 -0.957120 -0.465428 35.000000
3.864913 -0.968506 -0.465177 50.000000
3.862885 -0.980602 -0.465303 51.000000
3.863703 -0.993436 -0.465804 38.000000
3.864477 -1.006284 -0.466305 36.000000
3.867128 -1.019651 -0.467057 35.000000
3.876444 -1.034834 -0.468687 21.000000
3.883787 -1.049565 -0.470065 6.000000
3.955210 -0.722305 -0.519535 21.000000
3.933499 -0.730816 -0.516786 38.000000
3.926372 -0.741960 -0.516099 30.000000
3.918241 -0.752881 -0.515274 47.000000
3.907164 -0.763188 -0.514037 44.000000
3.898003 -0.773821 -0.513075 64.000000
3.896582 -0.785972 -0.513213 47.000000
3.899004 -0.798918 -0.513900 44.000000
3.905262 -0.812693 -0.515137 45.000000
3.909534 -0.826104 -0.516099 54.000000
3.918602 -0.840589 -0.517748 45.000000
3.927619 -0.855137 -0.519397 45.000000
3.944320 -0.871458 -0.522146 19.000000
3.943561 -0.883988 -0.522421 10.000000
3.933237 -0.907056 -0.521734 26.000000
3.919826 -0.916636 -0.520222 42.000000
3.914104 -0.927972 -0.519810 35.000000
3.897756 -0.936734 -0.517886 29.000000
3.891977 -0.947985 -0.517473 42.000000
3.879434 -0.957546 -0.516099 48.000000
3.871673 -0.968242 -0.515412 41.000000
3.874446 -0.981575 -0.516236 38.000000
3.871416 -0.993457 -0.516236 45.000000
3.876019 -1.007324 -0.517336 38.000000
3.888236 -1.023245 -0.519535 26.000000
3.876465 -1.032873 -0.518298 34.000000
3.957367 -0.737898 -0.568815 15.000000
3.959942 -0.750955 -0.569561 12.000000
3.934316 -0.758614 -0.565981 30.000000
3.924207 -0.769161 -0.564787 43.000000
3.918919 -0.780618 -0.564339 35.000000
3.915536 -0.792442 -0.564190 45.000000
3.915993 -0.805047 -0.564638 46.000000
3.925121 -0.819479 -0.566428 30.000000
3.912914 -0.829470 -0.564936 31.000000
3.925819 -0.844795 -0.567323 42.000000
3.913548 -0.854728 -0.565831 32.000000
3.917665 -0.868226 -0.566876 10.000000
3.927814 -0.908475 -0.569710 19.000000
3.938487 -0.923678 -0.571799 22.000000
3.937558 -0.936213 -0.572097 19.000000
3.915440 -0.943661 -0.569114 34.000000
3.900038 -0.952623 -0.567174 49.000000
3.889418 -0.962685 -0.565981 46.000000
3.887406 -0.974853 -0.566130 36.000000
3.877687 -0.985073 -0.565085 64.000000
3.884224 -0.999426 -0.566577 36.000000
3.887838 -1.013081 -0.567622 34.000000
3.897141 -1.028280 -0.569561 29.000000
3.924541 -1.048389 -0.574335 8.000000
3.958698 -0.748785 -0.618831 22.000000
3.950567 -0.759807 -0.617865 26.000000
3.936594 -0.769650 -0.615932 42.000000
3.928407 -0.780569 -0.614965 53.000000
3.934700 -0.794377 -0.616415 26.000000
3.935145 -0.807039 -0.616898 29.000000
3.940380 -0.820719 -0.618187 35.000000
3.940740 -0.833417 -0.618670 53.000000
3.942989 -0.846540 -0.619476 60.000000
3.936517 -0.857792 -0.618831 34.000000
3.963255 -0.927523 -0.625597 41.000000
3.942146 -0.935347 -0.622536 57.000000
3.940218 -0.947668 -0.622697 47.000000
3.930580 -0.958115 -0.621570 41.000000
3.917083 -0.967565 -0.619798 29.000000
3.911224 -0.978859 -0.619315 30.000000
3.899592 -0.988670 -0.617865 47.000000
3.893673 -0.999893 -0.617382 60.000000
3.912555 -1.017549 -0.621087 29.000000
3.916096 -1.031308 -0.622214 21.000000
3.987409 -0.743490 -0.673338 25.000000
3.973496 -0.753521 -0.671263 53.000000
3.975034 -0.766453 -0.671954 40.000000
3.960099 -0.776186 -0.669706 45.000000
3.955767 -0.787947 -0.669360 39.000000
3.951400 -0.799689 -0.669014 70.000000
3.950857 -0.812204 -0.669360 76.000000
3.953168 -0.825327 -0.670225 56.000000
3.957362 -0.838879 -0.671435 44.000000
3.953807 -0.850809 -0.671263 17.000000
3.964332 -0.942571 -0.676624 20.000000
3.946100 -0.951041 -0.673857 39.000000
3.934552 -0.961042 -0.672300 67.000000
3.933497 -0.973582 -0.672646 76.000000
3.926670 -0.984688 -0.671954 48.000000
3.923631 -0.996730 -0.671954 31.000000
3.926278 -1.010234 -0.672992 38.000000
3.920300 -1.021530 -0.672473 80.000000
3.917148 -1.033553 -0.672473 36.000000
3.917765 -1.046581 -0.673165 9.000000
3.992635 -0.743963 -0.723118 42.000000
3.985506 -0.755294 -0.722196 38.000000
3.967729 -0.764540 -0.719244 54.000000
3.962471 -0.776143 -0.718691 56.000000
3.956216 -0.787528 -0.717953 68.000000
3.960524 -0.801026 -0.719244 49.000000
3.963824 -0.814360 -0.720351 51.000000
3.966118 -0.827522 -0.721273 48.000000
3.970291 -0.841112 -0.722564 59.000000
3.972496 -0.854323 -0.723487 38.000000
3.966975 -0.865877 -0.722933 26.000000
3.962796 -0.941704 -0.725331 47.000000
3.951288 -0.951785 -0.723671 53.000000
