ply
format ascii 1.0
element vertex 1248
property float x
property float y
property float z
property float intensity
end_header
3.681487 -0.921918 0.676097 37.000000
3.679597 -0.933451 0.676264 27.000000
3.686266 -0.947186 0.677933 27.000000
3.647359 -0.540238 0.611755 21.000000
3.663267 -0.554086 0.614542 33.000000
3.660573 -0.565172 0.614388 43.000000
3.654919 -0.575784 0.613768 38.000000
3.655086 -0.587308 0.614078 36.000000
3.653267 -0.598519 0.614078 34.000000
3.651413 -0.609724 0.614078 27.000000
3.653421 -0.621587 0.614697 47.000000
3.651497 -0.632793 0.614697 37.000000
3.653430 -0.644679 0.615317 41.000000
3.652408 -0.656060 0.615472 61.000000
3.656209 -0.668329 0.616401 31.000000
3.656083 -0.679904 0.616711 35.000000
3.658834 -0.692036 0.617485 30.000000
3.657664 -0.703444 0.617640 40.000000
3.661306 -0.715801 0.618569 48.000000
3.661999 -0.727608 0.619034 37.000000
3.669433 -0.740795 0.620583 35.000000
3.671982 -0.753042 0.621357 31.000000
3.670622 -0.764506 0.621512 42.000000
3.676958 -0.777604 0.622906 31.000000
3.678419 -0.789711 0.623526 39.000000
3.675978 -0.800993 0.623526 30.000000
3.679291 -0.813547 0.624455 24.000000
3.673887 -0.824182 0.623990 32.000000
3.671340 -0.835449 0.623990 40.000000
3.674536 -0.848043 0.624920 45.000000
3.673841 -0.859762 0.625229 36.000000
3.675030 -0.871942 0.625849 36.000000
3.678101 -0.884600 0.626778 35.000000
3.677290 -0.896348 0.627088 52.000000
3.679318 -0.908810 0.627862 28.000000
3.680346 -0.921054 0.628482 30.000000
3.678460 -0.932584 0.628637 35.000000
3.679409 -0.944848 0.629256 28.000000
3.680318 -0.957127 0.629876 33.000000
3.683096 -0.969923 0.630805 20.000000
3.678194 -0.980709 0.630495 33.000000
3.684705 -0.994564 0.632044 21.000000
3.681417 -0.487637 0.570360 14.000000
3.643614 -0.494020 0.565070 29.000000
3.647964 -0.506010 0.565928 28.000000
3.655214 -0.518448 0.567215 24.000000
3.643811 -0.528243 0.565785 28.000000
3.642173 -0.539419 0.565785 29.000000
3.644415 -0.551182 0.566357 36.000000
3.641729 -0.562209 0.566214 45.000000
3.642920 -0.573840 0.566643 28.000000
3.642120 -0.585171 0.566786 50.000000
3.644215 -0.596981 0.567358 35.000000
3.648223 -0.609134 0.568216 37.000000
3.649265 -0.620821 0.568644 43.000000
3.646368 -0.631845 0.568502 34.000000
3.655134 -0.644917 0.570074 42.000000
3.655087 -0.656477 0.570360 49.000000
3.658897 -0.668754 0.571218 29.000000
3.666559 -0.681782 0.572648 43.000000
3.664451 -0.693028 0.572648 38.000000
3.662307 -0.704267 0.572648 38.000000
3.665957 -0.716637 0.573506 45.000000
3.656946 -0.726533 0.572505 41.000000
3.658581 -0.738531 0.573077 49.000000
3.659207 -0.750347 0.573506 48.000000
3.653011 -0.760764 0.572934 42.000000
3.657439 -0.773399 0.573935 33.000000
3.659888 -0.785653 0.574649 47.000000
3.659394 -0.797299 0.574935 48.000000
3.661763 -0.809589 0.575650 38.000000
3.659262 -0.820819 0.575650 43.000000
3.659622 -0.832699 0.576079 36.000000
3.659944 -0.844590 0.576508 25.000000
3.660226 -0.856490 0.576937 41.000000
3.663360 -0.869084 0.577795 46.000000
3.664526 -0.881244 0.578367 53.000000
3.666613 -0.893652 0.579082 40.000000
3.667698 -0.905845 0.579654 48.000000
3.669703 -0.918293 0.580368 42.000000
3.671665 -0.930762 0.581083 50.000000
3.672627 -0.943005 0.581655 52.000000
3.671633 -0.954766 0.581941 29.000000
3.668686 -0.966026 0.581941 46.000000
3.667618 -0.977786 0.582227 35.000000
3.668424 -0.990064 0.582799 27.000000
3.663459 -1.000793 0.582513 41.000000
3.670866 -1.014925 0.584086 27.000000
3.665828 -1.025650 0.583800 39.000000
3.651236 -1.033660 0.582084 14.000000
3.629630 -0.424289 0.517142 7.000000
3.639139 -0.436723 0.518583 32.000000
3.631878 -0.447158 0.517797 45.000000
3.629506 -0.458174 0.517666 43.000000
3.632015 -0.469816 0.518190 35.000000
3.634488 -0.481478 0.518714 27.000000
3.640853 -0.493693 0.519763 31.000000
3.647177 -0.505951 0.520811 47.000000
3.650515 -0.517835 0.521466 54.000000
3.649890 -0.529174 0.521597 55.000000
3.651191 -0.540806 0.521990 39.000000
3.649515 -0.552005 0.521990 40.000000
3.647805 -0.563199 0.521990 41.000000
3.648997 -0.574851 0.522383 44.000000
3.650153 -0.586515 0.522777 51.000000
3.652250 -0.598352 0.523301 45.000000
3.661153 -0.611352 0.524742 48.000000
3.662192 -0.623080 0.525135 47.000000
3.657333 -0.633805 0.524742 34.000000
3.658300 -0.645539 0.525135 35.000000
3.653375 -0.656234 0.524742 41.000000
3.648419 -0.666904 0.524349 42.000000
3.651229 -0.679001 0.525004 45.000000
3.646206 -0.689646 0.524611 39.000000
3.647967 -0.701579 0.525135 31.000000
3.652609 -0.714099 0.526053 53.000000
3.651373 -0.725495 0.526184 40.000000
3.651073 -0.737087 0.526446 44.000000
3.647824 -0.748085 0.526315 52.000000
3.646482 -0.759476 0.526446 45.000000
3.645105 -0.770864 0.526577 50.000000
3.643692 -0.782252 0.526708 57.000000
3.649992 -0.795327 0.527887 52.000000
3.655279 -0.808235 0.528936 34.000000
3.661488 -0.821399 0.530115 32.000000
3.663784 -0.833729 0.530770 34.000000
3.665072 -0.845858 0.531295 29.000000
3.662461 -0.857098 0.531295 33.000000
3.663672 -0.869246 0.531819 30.000000
3.652313 -0.878395 0.530639 32.000000
3.649601 -0.889596 0.530639 38.000000
3.650704 -0.901740 0.531163 39.000000
3.649844 -0.913417 0.531426 40.000000
3.655673 -0.926804 0.532605 30.000000
3.660494 -0.939988 0.533653 41.000000
3.660471 -0.951963 0.534047 35.000000
3.663285 -0.964704 0.534833 31.000000
3.664140 -0.976960 0.535357 40.000000
3.661125 -0.988197 0.535357 52.000000
3.661901 -1.000470 0.535881 29.000000
3.660726 -1.012229 0.536143 44.000000
3.661422 -1.024524 0.536667 29.000000
3.659215 -1.036022 0.536798 31.000000
3.654114 -1.046697 0.536536 32.000000
3.654694 -1.059007 0.537061 20.000000
3.653330 -1.070773 0.537323 22.000000
3.686586 -0.384449 0.478243 10.000000
3.654783 -0.392480 0.474556 24.000000
3.640732 -0.402278 0.473010 43.000000
3.646387 -0.414228 0.473843 35.000000
3.639181 -0.424724 0.473129 47.000000
3.644763 -0.436711 0.473962 26.000000
3.636507 -0.447046 0.473129 32.000000
3.635118 -0.458200 0.473129 40.000000
3.629757 -0.468843 0.472654 28.000000
3.633223 -0.480626 0.473248 42.000000
3.637635 -0.492568 0.473962 31.000000
3.640041 -0.504269 0.474438 35.000000
3.642409 -0.515990 0.474913 41.000000
3.640809 -0.527163 0.474913 45.000000
3.638192 -0.538185 0.474794 43.000000
3.637506 -0.549492 0.474913 57.000000
3.633840 -0.560347 0.474675 58.000000
3.632104 -0.571493 0.474675 44.000000
3.631314 -0.582791 0.474794 39.000000
3.632449 -0.594409 0.475151 43.000000
3.637464 -0.606691 0.475984 40.000000
3.643417 -0.619177 0.476935 36.000000
3.645414 -0.631028 0.477411 35.000000
3.644439 -0.642381 0.477530 48.000000
3.641473 -0.653384 0.477411 50.000000
3.637498 -0.664196 0.477173 46.000000
3.638372 -0.675896 0.477530 34.000000
3.637257 -0.687239 0.477648 53.000000
3.637082 -0.698769 0.477886 42.000000
3.639794 -0.710874 0.478481 38.000000
3.644413 -0.723389 0.479313 43.000000
3.649964 -0.736134 0.480265 48.000000
3.650606 -0.747925 0.480622 49.000000
3.649266 -0.759324 0.480740 47.000000
3.644005 -0.769901 0.480384 46.000000
3.640655 -0.780869 0.480265 51.000000
3.642123 -0.792879 0.480740 56.000000
3.639674 -0.804049 0.480740 53.000000
3.639128 -0.815645 0.480978 41.000000
3.642418 -0.828125 0.481692 47.000000
3.639860 -0.839296 0.481692 31.000000
3.645970 -0.852490 0.482762 50.000000
3.647202 -0.864587 0.483238 50.000000
3.642601 -0.875309 0.483000 42.000000
3.646652 -0.888123 0.483833 45.000000
3.646803 -0.900019 0.484189 55.000000
3.643061 -0.910963 0.484070 45.000000
3.647950 -0.924083 0.485022 60.000000
3.647021 -0.935764 0.485260 48.000000
3.649899 -0.948444 0.485973 28.000000
3.655615 -0.961909 0.487043 38.000000
3.653606 -0.973375 0.487162 46.000000
3.657314 -0.986387 0.487995 57.000000
3.655229 -0.997864 0.488114 48.000000
3.655021 -1.009866 0.488471 55.000000
3.656687 -1.022410 0.489065 53.000000
3.651623 -1.033084 0.488827 48.000000
3.647481 -1.044009 0.488708 59.000000
3.649984 -1.056850 0.489422 46.000000
3.647677 -1.068322 0.489541 45.000000
3.648191 -1.080634 0.490017 39.000000
3.645810 -1.092106 0.490135 31.000000
3.633889 -1.100698 0.489065 34.000000
3.632394 -1.112423 0.489303 21.000000
3.650343 -0.369407 0.428528 19.000000
3.641281 -0.379779 0.427673 30.000000
3.639110 -0.390842 0.427567 45.000000
3.634929 -0.401677 0.427246 38.000000
3.630716 -0.412490 0.426926 39.000000
3.626471 -0.423280 0.426606 36.000000
3.628117 -0.434760 0.426926 37.000000
3.626766 -0.445888 0.426926 42.000000
3.624394 -0.456889 0.426819 61.000000
3.627906 -0.468643 0.427353 53.000000
3.632365 -0.480554 0.427994 37.000000
3.634815 -0.492230 0.428421 38.000000
3.637227 -0.503926 0.428848 45.000000
3.639602 -0.515640 0.429275 46.000000
3.639971 -0.527089 0.429489 47.000000
3.636369 -0.537963 0.429275 47.000000
3.632735 -0.548819 0.429062 46.000000
3.628087 -0.559507 0.428741 34.000000
3.623406 -0.570171 0.428421 35.000000
3.623604 -0.581600 0.428634 35.000000
3.622783 -0.592875 0.428741 44.000000
3.624870 -0.604642 0.429168 36.000000
3.628879 -0.616760 0.429809 52.000000
3.631869 -0.628739 0.430343 51.000000
3.633839 -0.640569 0.430770 45.000000
3.630878 -0.651539 0.430663 37.000000
3.629840 -0.662854 0.430770 42.000000
3.630722 -0.674532 0.431091 34.000000
3.629613 -0.685853 0.431197 48.000000
3.630421 -0.697548 0.431518 43.000000
3.630215 -0.709064 0.431731 36.000000
3.634850 -0.721554 0.432479 36.000000
3.637492 -0.733686 0.433013 34.000000
3.638146 -0.745441 0.433333 42.000000
3.638762 -0.757207 0.433653 53.000000
3.636422 -0.768367 0.433653 46.000000
3.639880 -0.780772 0.434294 44.000000
3.642325 -0.792993 0.434828 42.000000
3.640846 -0.804378 0.434935 42.000000
3.646123 -0.817285 0.435789 38.000000
3.650385 -0.830011 0.436537 37.000000
3.648790 -0.841430 0.436643 36.000000
3.653936 -0.854432 0.437498 37.000000
3.651298 -0.865639 0.437498 36.000000
3.650558 -0.877301 0.437711 41.000000
3.647850 -0.888497 0.437711 30.000000
3.643176 -0.899208 0.437498 33.000000
3.645223 -0.911587 0.438031 39.000000
3.645301 -0.923499 0.438352 39.000000
3.649192 -0.936409 0.439099 38.000000
3.652075 -0.949101 0.439740 34.000000
3.652992 -0.961313 0.440167 50.000000
3.657712 -0.974565 0.441021 34.000000
3.656625 -0.986300 0.441235 38.000000
3.655500 -0.998038 0.441449 36.000000
3.660087 -1.011367 0.442303 45.000000
3.656967 -1.022592 0.442303 40.000000
3.657640 -1.034889 0.442730 51.000000
3.658271 -1.047201 0.443157 34.000000
3.661726 -1.060356 0.443905 42.000000
3.662272 -1.072703 0.444332 52.000000
3.660871 -1.084499 0.444545 36.000000
3.657526 -1.095725 0.444545 53.000000
3.643680 -1.103769 0.443371 26.000000
3.649783 -1.117855 0.444439 37.000000
3.638738 -1.126694 0.443584 32.000000
3.640009 -1.139338 0.444118 21.000000
3.637444 -1.150800 0.444225 20.000000
3.634844 -1.162257 0.444332 6.000000
3.629029 -0.412900 0.383150 15.000000
3.622801 -0.423456 0.382675 49.000000
3.632357 -0.435869 0.383720 25.000000
3.625075 -0.446283 0.383150 29.000000
3.621713 -0.457154 0.382960 26.000000
3.622268 -0.468518 0.383150 24.000000
3.616866 -0.479107 0.382770 44.000000
3.610446 -0.489534 0.382295 57.000000
3.611886 -0.501018 0.382580 43.000000
3.609346 -0.511957 0.382485 49.000000
3.613670 -0.523883 0.383055 31.000000
3.613031 -0.535113 0.383150 54.000000
3.614325 -0.546640 0.383435 58.000000
3.614599 -0.558030 0.383625 35.000000
3.616803 -0.569735 0.384004 51.000000
3.616021 -0.580986 0.384099 64.000000
3.619134 -0.592880 0.384574 47.000000
3.623189 -0.604962 0.385144 50.000000
3.627205 -0.617075 0.385714 52.000000
3.622352 -0.627692 0.385429 45.000000
3.626292 -0.639838 0.385999 50.000000
3.633131 -0.652541 0.386854 53.000000
3.626215 -0.662791 0.386379 52.000000
3.631994 -0.675366 0.387139 53.000000
3.625014 -0.685582 0.386664 44.000000
3.623871 -0.696888 0.386759 47.000000
3.626602 -0.708956 0.387234 44.000000
3.621480 -0.719498 0.386949 46.000000
3.619256 -0.730605 0.386949 50.000000
3.620898 -0.742504 0.387329 38.000000
3.621527 -0.754218 0.387614 38.000000
3.620170 -0.765530 0.387709 53.000000
3.621698 -0.777468 0.388088 50.000000
3.624159 -0.789633 0.388563 50.000000
3.627552 -0.802036 0.389133 58.000000
3.628960 -0.814032 0.389513 43.000000
3.633241 -0.826705 0.390178 45.000000
3.637478 -0.839413 0.390843 45.000000
3.640701 -0.851928 0.391413 44.000000
3.641945 -0.864011 0.391793 50.000000
3.644117 -0.876343 0.392267 48.000000
3.641412 -0.887518 0.392267 63.000000
3.640604 -0.899163 0.392457 55.000000
3.638795 -0.910569 0.392552 44.000000
3.638879 -0.922461 0.392837 52.000000
3.641817 -0.935105 0.393407 49.000000
3.638932 -0.946273 0.393407 44.000000
3.638900 -0.958192 0.393692 49.000000
3.640752 -0.970633 0.394167 50.000000
3.637758 -0.981798 0.394167 54.000000
3.632807 -0.992429 0.393977 61.000000
3.633584 -1.004630 0.394357 55.000000
3.629526 -1.015505 0.394262 55.000000
3.632141 -1.028261 0.394832 57.000000
3.630883 -1.039947 0.395022 65.000000
3.631500 -1.052188 0.395402 52.000000
3.636854 -1.065841 0.396256 51.000000
3.639294 -1.078690 0.396826 57.000000
3.635014 -1.089564 0.396731 42.000000
3.637371 -1.102442 0.397301 56.000000
3.633971 -1.113596 0.397301 70.000000
3.639096 -1.127388 0.398156 44.000000
3.642271 -1.140628 0.398821 56.000000
3.645399 -1.153898 0.399486 31.000000
3.645634 -1.166289 0.399866 43.000000
3.645828 -1.178692 0.400246 39.000000
3.646927 -1.191416 0.400720 48.000000
3.637582 -1.200728 0.400151 25.000000
3.620659 -1.207477 0.398821 9.000000
3.634174 -0.446800 0.337836 9.000000
3.634764 -0.458197 0.338001 32.000000
3.631364 -0.469090 0.337836 42.000000
3.628920 -0.480098 0.337753 34.000000
3.629405 -0.491497 0.337918 37.000000
3.626893 -0.502493 0.337836 43.000000
3.620401 -0.512918 0.337424 40.000000
3.623741 -0.524737 0.337836 49.000000
3.620143 -0.535561 0.337671 52.000000
3.622424 -0.547260 0.338001 48.000000
3.619744 -0.558219 0.337918 32.000000
3.614076 -0.568702 0.337589 40.000000
3.616250 -0.580419 0.337918 48.000000
3.617403 -0.591994 0.338166 34.000000
3.618518 -0.603582 0.338413 47.000000
3.618615 -0.615014 0.338578 44.000000
3.610819 -0.625093 0.338083 50.000000
3.615754 -0.637379 0.338661 44.000000
3.618686 -0.649350 0.339073 43.000000
3.614717 -0.660090 0.338908 45.000000
3.615614 -0.671724 0.339155 44.000000
3.613536 -0.682813 0.339155 32.000000
3.617296 -0.695025 0.339650 43.000000
3.621016 -0.707266 0.340145 43.000000
3.618829 -0.718372 0.340145 49.000000
3.617584 -0.729668 0.340227 55.000000
3.617281 -0.741164 0.340392 39.000000
3.621820 -0.753680 0.340969 46.000000
3.623391 -0.765612 0.341299 35.000000
3.623948 -0.777352 0.341547 56.000000
3.627389 -0.789740 0.342041 38.000000
3.632734 -0.802585 0.342701 38.000000
3.635117 -0.814817 0.343113 45.000000
3.638430 -0.827292 0.343608 38.000000
3.633933 -0.838002 0.343443 42.000000
3.634256 -0.849828 0.343691 40.000000
3.633571 -0.861434 0.343856 45.000000
3.630911 -0.872578 0.343856 48.000000
3.632090 -0.884657 0.344185 34.000000
3.631294 -0.896274 0.344350 42.000000
3.631428 -0.908136 0.344598 35.000000
3.637319 -0.921476 0.345340 47.000000
3.630614 -0.931640 0.345010 51.000000
3.630632 -0.943526 0.345257 46.000000
3.628684 -0.954914 0.345340 53.000000
3.619959 -0.964502 0.344845 62.000000
3.619870 -0.976382 0.345092 50.000000
3.616857 -0.987483 0.345092 40.000000
3.617653 -0.999637 0.345422 46.000000
3.621287 -1.012611 0.345999 62.000000
3.624876 -1.025616 0.346577 40.000000
3.628419 -1.038652 0.347154 39.000000
3.632874 -1.051998 0.347814 40.000000
3.634411 -1.064539 0.348226 52.000000
3.635905 -1.077100 0.348638 48.000000
3.637357 -1.089681 0.349051 44.000000
3.639719 -1.102569 0.349545 54.000000
3.642037 -1.115482 0.350040 48.000000
3.638597 -1.126650 0.350040 37.000000
3.637977 -1.138701 0.350287 42.000000
3.640167 -1.151662 0.350782 32.000000
3.640414 -1.164038 0.351112 48.000000
3.636825 -1.175202 0.351112 48.000000
3.636045 -1.187282 0.351359 37.000000
3.633332 -1.198744 0.351442 37.000000
3.640036 -1.213353 0.352349 33.000000
3.639130 -1.225469 0.352596 36.000000
3.639127 -1.237912 0.352926 20.000000
3.627772 -1.246480 0.352266 17.000000
3.614618 -0.491378 0.293347 18.000000
3.617046 -0.503013 0.293629 35.000000
3.617460 -0.514388 0.293770 21.000000
3.616853 -0.525627 0.293841 32.000000
3.616210 -0.536867 0.293912 32.000000
3.612573 -0.547660 0.293770 31.000000
3.609890 -0.558589 0.293700 37.000000
3.607174 -0.569506 0.293629 35.000000
3.607379 -0.580886 0.293770 37.000000
3.606565 -0.592112 0.293841 38.000000
3.603747 -0.603010 0.293770 42.000000
3.601880 -0.614063 0.293770 45.000000
3.604894 -0.625962 0.294123 35.000000
3.604921 -0.637366 0.294265 37.000000
3.604912 -0.648775 0.294406 30.000000
3.605848 -0.660370 0.294618 46.000000
3.607728 -0.672159 0.294900 40.000000
3.616430 -0.685264 0.295677 62.000000
3.608434 -0.695225 0.295253 24.000000
3.612158 -0.707441 0.295677 38.000000
3.611927 -0.718908 0.295819 46.000000
3.613616 -0.730776 0.296101 28.000000
3.615265 -0.742661 0.296384 55.000000
3.614923 -0.754155 0.296525 54.000000
3.612592 -0.765242 0.296525 51.000000
3.615104 -0.777369 0.296878 44.000000
3.615626 -0.789093 0.297090 45.000000
3.617084 -0.801044 0.297372 48.000000
3.616556 -0.812574 0.297514 38.000000
3.621827 -0.825436 0.298079 49.000000
3.624137 -0.837665 0.298432 50.000000
3.627378 -0.850144 0.298855 44.000000
3.627664 -0.861960 0.299067 44.000000
3.632761 -0.874951 0.299632 35.000000
3.628122 -0.885620 0.299491 44.000000
3.630229 -0.897943 0.299844 51.000000
3.625522 -0.908591 0.299703 51.000000
3.621751 -0.919465 0.299632 38.000000
3.621811 -0.931316 0.299844 49.000000
3.616041 -0.941670 0.299632 52.000000
3.616029 -0.953522 0.299844 44.000000
3.615978 -0.965382 0.300056 39.000000
3.615888 -0.977251 0.300268 40.000000
3.615760 -0.989129 0.300480 46.000000
3.619438 -1.002078 0.300974 34.000000
3.618268 -1.013715 0.301116 37.000000
3.617060 -1.025355 0.301257 53.000000
3.618692 -1.037820 0.301610 56.000000
3.621240 -1.050583 0.302034 51.000000
3.615128 -1.060846 0.301822 32.000000
3.623333 -1.075334 0.302669 57.000000
3.623838 -1.087591 0.302952 39.000000
3.622394 -1.099283 0.303093 49.000000
3.624727 -1.112145 0.303517 49.000000
3.622250 -1.123555 0.303587 55.000000
3.617834 -1.134365 0.303517 49.000000
3.623847 -1.148469 0.304223 47.000000
3.621257 -1.159886 0.304294 45.000000
3.618630 -1.171297 0.304364 38.000000
3.619760 -1.183942 0.304717 48.000000
3.617059 -1.195355 0.304788 37.000000
3.616213 -1.207393 0.305000 44.000000
3.620999 -1.221348 0.305636 60.000000
3.620068 -1.233416 0.305848 27.000000
3.623813 -1.247111 0.306413 23.000000
3.620913 -1.258550 0.306483 36.000000
3.624565 -1.272294 0.307048 31.000000
3.615002 -1.281410 0.306624 32.000000
3.613872 -1.293502 0.306836 7.000000
3.617373 -0.535793 0.248034 22.000000
3.615712 -0.546888 0.248034 34.000000
3.613030 -0.557826 0.247976 39.000000
3.611302 -0.568908 0.247976 29.000000
3.611511 -0.580302 0.248092 31.000000
3.610698 -0.591540 0.248150 38.000000
3.610836 -0.602944 0.248266 36.000000
3.608969 -0.614019 0.248266 47.000000
3.606085 -0.624918 0.248208 58.000000
3.610049 -0.637020 0.248556 46.000000
3.612008 -0.648799 0.248789 30.000000
3.609019 -0.659697 0.248731 49.000000
3.611885 -0.671680 0.249021 50.000000
3.613731 -0.683500 0.249253 51.000000
3.615539 -0.695338 0.249486 36.000000
3.614368 -0.706619 0.249544 53.000000
3.613162 -0.717899 0.249602 45.000000
3.616814 -0.730167 0.249951 53.000000
3.616513 -0.741661 0.250067 49.000000
3.613243 -0.752549 0.250009 65.000000
3.612871 -0.764044 0.250125 46.000000
3.616366 -0.776383 0.250473 68.000000
3.613967 -0.787474 0.250473 33.000000
3.614458 -0.799204 0.250648 40.000000
3.611015 -0.810071 0.250589 43.000000
3.611433 -0.821811 0.250764 59.000000
3.612786 -0.833785 0.250996 44.000000
3.614099 -0.845775 0.251228 37.000000
3.616344 -0.858012 0.251519 47.000000
3.623400 -0.871438 0.252100 44.000000
3.625559 -0.883733 0.252390 47.000000
3.625738 -0.895570 0.252564 59.000000
3.622974 -0.906690 0.252564 43.000000
3.615337 -0.916573 0.252274 32.000000
3.615408 -0.928406 0.252448 59.000000
3.608678 -0.938488 0.252216 50.000000
3.605782 -0.949555 0.252216 44.000000
3.603817 -0.960870 0.252274 50.000000
3.608562 -0.974004 0.252739 58.000000
3.611335 -0.986649 0.253087 54.000000
3.613102 -0.999055 0.253378 62.000000
3.611943 -1.010673 0.253494 52.000000
3.614588 -1.023382 0.253842 50.000000
3.610471 -1.034192 0.253784 51.000000
3.613035 -1.046931 0.254133 40.000000
3.612680 -1.058854 0.254307 40.000000
3.612286 -1.070784 0.254481 47.000000
3.616633 -1.084155 0.254946 60.000000
3.618067 -1.096694 0.255236 56.000000
3.619457 -1.109252 0.255527 43.000000
3.624620 -1.123011 0.256050 51.000000
3.624968 -1.135320 0.256282 37.000000
3.628130 -1.148546 0.256689 34.000000
3.627441 -1.160584 0.256863 46.000000
3.629563 -1.173551 0.257211 35.000000
3.630690 -1.186231 0.257502 49.000000
3.628929 -1.197991 0.257618 41.000000
3.629972 -1.210698 0.257908 46.000000
3.631917 -1.223742 0.258257 38.000000
3.630980 -1.235844 0.258431 37.000000
3.632836 -1.248926 0.258780 42.000000
3.626158 -1.259083 0.258605 40.000000
3.622278 -1.270202 0.258605 37.000000
3.619305 -1.281642 0.258664 28.000000
3.617236 -1.293413 0.258780 29.000000
3.614190 -1.304843 0.258838 33.000000
3.615797 -1.317977 0.259186 35.000000
3.616421 -1.330788 0.259477 21.000000
3.600585 -0.580437 0.204252 17.000000
3.606673 -0.592774 0.204622 34.000000
3.605823 -0.604001 0.204668 29.000000
3.607892 -0.615731 0.204853 33.000000
3.605002 -0.626627 0.204807 33.000000
3.604046 -0.637857 0.204853 32.000000
3.604038 -0.649265 0.204946 30.000000
3.602030 -0.660319 0.204946 38.000000
3.599987 -0.671367 0.204946 28.000000
3.597910 -0.682408 0.204946 39.000000
3.595799 -0.693443 0.204946 34.000000
3.597576 -0.705239 0.205131 37.000000
3.599315 -0.717053 0.205316 27.000000
3.597098 -0.728092 0.205316 29.000000
3.599740 -0.740128 0.205547 43.000000
3.603320 -0.752392 0.205824 35.000000
3.602949 -0.763857 0.205917 39.000000
3.606449 -0.776166 0.206194 49.000000
3.606978 -0.787866 0.206333 50.000000
3.608446 -0.799791 0.206518 46.000000
3.607924 -0.811296 0.206610 41.000000
3.607366 -0.822805 0.206703 40.000000
3.605798 -0.834093 0.206749 45.000000
3.606140 -0.845835 0.206888 54.000000
3.608388 -0.858048 0.207119 41.000000
3.609623 -0.870050 0.207304 59.000000
3.609848 -0.881830 0.207442 52.000000
3.610035 -0.893620 0.207581 51.000000
3.605338 -0.904206 0.207489 48.000000
3.607388 -0.916491 0.207720 47.000000
3.605527 -0.927802 0.207766 40.000000
3.598797 -0.937853 0.207581 35.000000
3.603630 -0.950926 0.207951 39.000000
3.601661 -0.962235 0.207997 36.000000
3.603514 -0.974583 0.208228 44.000000
3.605325 -0.986951 0.208460 40.000000
3.604205 -0.998540 0.208552 42.000000
3.604973 -1.010670 0.208737 54.000000
3.611466 -1.024449 0.209199 43.000000
3.610226 -1.036074 0.209292 52.000000
3.615666 -1.049649 0.209708 29.000000
3.617221 -1.062143 0.209939 47.000000
3.616818 -1.074087 0.210078 42.000000
3.615420 -1.085753 0.210170 38.000000
3.615896 -1.097999 0.210355 55.000000
3.613465 -1.109380 0.210401 58.000000
3.614815 -1.121940 0.210633 48.000000
3.613262 -1.133622 0.210725 51.000000
3.607863 -1.144099 0.210633 52.000000
3.607190 -1.156076 0.210771 43.000000
3.606477 -1.168060 0.210910 51.000000
3.604776 -1.179740 0.211003 52.000000
3.607779 -1.192987 0.211326 44.000000
3.610735 -1.206263 0.211650 54.000000
3.616483 -1.220527 0.212112 40.000000
3.616504 -1.232904 0.212297 44.000000
3.620261 -1.246593 0.212667 43.000000
3.619250 -1.258678 0.212806 41.000000
3.618199 -1.270768 0.212944 45.000000
3.617109 -1.282863 0.213083 47.000000
3.611275 -1.293281 0.212991 24.000000
3.615746 -1.307409 0.213407 27.000000
3.617348 -1.320549 0.213684 25.000000
3.622654 -1.335093 0.214146 34.000000
3.613859 -1.344460 0.213915 18.000000
3.602039 -0.613484 0.159411 12.000000
3.595217 -0.623677 0.159242 35.000000
3.591318 -0.634356 0.159174 38.000000
3.593289 -0.646079 0.159310 33.000000
3.589324 -0.656740 0.159242 32.000000
3.591223 -0.668481 0.159377 30.000000
3.593083 -0.680239 0.159513 27.000000
3.597848 -0.692583 0.159750 57.000000
3.595707 -0.703618 0.159750 42.000000
3.594512 -0.714841 0.159784 43.000000
3.588383 -0.725073 0.159648 30.000000
3.591037 -0.737084 0.159817 58.000000
3.588758 -0.748098 0.159817 60.000000
3.585469 -0.758897 0.159784 50.000000
3.588986 -0.771154 0.159987 45.000000
3.588556 -0.782587 0.160054 44.000000
3.591993 -0.794890 0.160258 50.000000
3.596364 -0.807439 0.160494 39.000000
3.596793 -0.819135 0.160596 36.000000
3.597184 -0.830841 0.160698 41.000000
3.598511 -0.842785 0.160833 38.000000
3.594935 -0.853590 0.160799 52.000000
3.598130 -0.866019 0.161002 35.000000
3.597398 -0.877528 0.161070 44.000000
3.597599 -0.889280 0.161172 39.000000
3.599701 -0.901528 0.161341 51.000000
3.600793 -0.913551 0.161476 42.000000
3.608621 -0.927331 0.161849 41.000000
3.604792 -0.938146 0.161815 37.000000
3.603830 -0.949710 0.161882 42.000000
3.604761 -0.961793 0.162018 44.000000
3.606618 -0.974151 0.162187 45.000000
3.603612 -0.985212 0.162187 34.000000
3.608278 -0.998396 0.162458 48.000000
3.601349 -1.008383 0.162323 32.000000
3.607854 -1.022152 0.162661 54.000000
3.605661 -1.033492 0.162695 53.000000
3.592875 -1.041764 0.162356 28.000000
3.595416 -1.054471 0.162560 42.000000
3.596955 -1.066918 0.162729 40.000000
3.589836 -1.076799 0.162593 36.000000
3.595123 -1.090419 0.162898 46.000000
3.594627 -1.102323 0.163000 52.000000
3.591228 -1.113346 0.163000 41.000000
3.597332 -1.127348 0.163338 41.000000
3.592904 -1.138077 0.163304 30.000000
3.593202 -1.150314 0.163440 39.000000
3.597263 -1.163794 0.163711 34.000000
3.596526 -1.175757 0.163812 45.000000
3.604289 -1.190548 0.164218 32.000000
3.607256 -1.203816 0.164455 46.000000
3.608280 -1.216474 0.164625 51.000000
3.607369 -1.228505 0.164726 50.000000
3.612089 -1.242493 0.165031 37.000000
3.614868 -1.255866 0.165268 27.000000
3.613827 -1.267943 0.165369 31.000000
3.606152 -1.277689 0.165234 45.000000
3.595629 -1.286389 0.164997 23.000000
3.780456 -0.679632 0.118980 12.000000
3.652466 -0.668236 0.116210 18.000000
3.632705 -0.676151 0.115821 24.000000
3.630614 -0.687293 0.115821 22.000000
3.611798 -0.695221 0.115453 31.000000
3.597873 -0.703999 0.115193 38.000000
3.592754 -0.714450 0.115128 22.000000
3.588585 -0.725073 0.115085 28.000000
3.587324 -0.736280 0.115107 41.000000
3.584069 -0.747079 0.115085 38.000000
3.582738 -0.758278 0.115107 33.000000
3.581373 -0.769476 0.115128 40.000000
3.578018 -0.780247 0.115107 42.000000
3.576584 -0.791436 0.115128 50.000000
3.576090 -0.802842 0.115172 34.000000
3.577509 -0.814697 0.115258 51.000000
3.580838 -0.827016 0.115388 41.000000
3.588992 -0.840503 0.115626 26.000000
3.586397 -0.851510 0.115626 40.000000
3.594461 -0.865078 0.115864 41.000000
3.597618 -0.877522 0.115994 44.000000
3.601703 -0.890232 0.116145 46.000000
3.599925 -0.901520 0.116167 35.000000
3.595204 -0.912069 0.116124 34.000000
3.597231 -0.924337 0.116232 38.000000
3.593410 -0.935118 0.116210 44.000000
3.593425 -0.946901 0.116275 36.000000
3.597266 -0.959723 0.116427 58.000000
3.602026 -0.972838 0.116600 42.000000
3.602883 -0.984937 0.116686 44.000000
3.607553 -0.998117 0.116860 48.000000
3.605437 -1.009449 0.116881 37.000000
3.608095 -1.022139 0.117011 44.000000
3.598214 -1.031277 0.116860 34.000000
3.594073 -1.042034 0.116838 37.000000
3.588940 -1.052493 0.116795 55.000000
3.585694 -1.063499 0.116795 48.000000
3.585288 -1.075355 0.116860 53.000000
3.587713 -1.088089 0.116989 48.000000
3.590093 -1.100847 0.117119 56.000000
3.597204 -1.115109 0.117357 55.000000
3.600445 -1.128231 0.117509 60.000000
3.603639 -1.141383 0.117660 50.000000
3.599168 -1.152129 0.117639 35.000000
3.602276 -1.165317 0.117790 43.000000
3.600585 -1.176984 0.117833 39.000000
3.601704 -1.189591 0.117942 37.000000
3.598985 -1.200952 0.117963 38.000000
3.595284 -1.211988 0.117963 33.000000
3.595335 -1.224300 0.118050 34.000000
3.599126 -1.237924 0.118223 18.000000
3.894048 -0.713229 0.072655 21.000000
3.871198 -0.721323 0.072461 29.000000
3.856195 -0.730775 0.072340 37.000000
3.816624 -0.735409 0.071989 39.000000
3.692670 -0.723269 0.070842 31.000000
3.645321 -0.725610 0.070416 35.000000
3.621516 -0.732427 0.070213 27.000000
3.599662 -0.739507 0.070028 31.000000
3.588567 -0.748708 0.069945 35.000000
3.583318 -0.759092 0.069917 27.000000
3.583905 -0.770713 0.069945 43.000000
3.587385 -0.782985 0.070000 41.000000
3.587895 -0.794636 0.070028 41.000000
3.586416 -0.805859 0.070037 28.000000
3.583927 -0.816858 0.070037 42.000000
3.580430 -0.827625 0.070028 36.000000
3.576900 -0.838377 0.070019 35.000000
3.572366 -0.848884 0.070000 50.000000
3.572661 -0.860543 0.070028 52.000000
3.573889 -0.872449 0.070065 31.000000
3.578961 -0.885331 0.070139 39.000000
3.582048 -0.897766 0.070194 50.000000
3.580246 -0.908998 0.070204 44.000000
3.580345 -0.920725 0.070231 39.000000
3.579439 -0.932209 0.070250 47.000000
3.576562 -0.943186 0.070250 53.000000
3.579448 -0.955703 0.070305 51.000000
3.578430 -0.967202 0.070324 47.000000
3.579304 -0.979232 0.070361 59.000000
3.586883 -0.993145 0.070463 51.000000
3.588634 -1.005494 0.070509 43.000000
3.590342 -1.017863 0.070555 45.000000
3.588164 -1.029149 0.070564 49.000000
3.586910 -1.040710 0.070583 48.000000
3.585619 -1.052273 0.070601 38.000000
3.584291 -1.063838 0.070620 57.000000
3.579095 -1.074254 0.070601 71.000000
3.582480 -1.087263 0.070666 36.000000
3.581995 -1.099129 0.070694 38.000000
3.586247 -1.112484 0.070768 51.000000
3.593312 -1.126774 0.070870 37.000000
3.599370 -1.140815 0.070962 31.000000
3.613946 -1.157650 0.071138 21.000000
3.608475 -1.168116 0.071119 48.000000
3.614378 -1.182291 0.071212 34.000000
3.620228 -1.196513 0.071304 20.000000
3.608953 -1.205079 0.071230 45.000000
3.613765 -1.219023 0.071314 21.000000
3.912017 -0.715638 0.023044 19.000000
3.916685 -0.728915 0.023021 30.000000
3.905587 -0.739257 0.023051 33.000000
3.889552 -0.748594 0.023097 30.000000
3.872515 -0.757647 0.023147 37.000000
3.834862 -0.762514 0.023266 36.000000
3.804078 -0.768542 0.023363 37.000000
3.824234 -0.784826 0.023286 61.000000
3.611319 -0.752750 0.023999 15.000000
3.614862 -0.765066 0.023979 20.000000
3.591965 -0.771748 0.024049 34.000000
3.590558 -0.782977 0.024046 35.000000
3.591069 -0.794636 0.024036 27.000000
3.582759 -0.804337 0.024056 27.000000
3.580275 -0.815325 0.024056 47.000000
3.577756 -0.826306 0.024056 42.000000
3.577152 -0.837734 0.024049 44.000000
3.576511 -0.849166 0.024042 44.000000
3.570972 -0.859433 0.024052 51.000000
3.568318 -0.870385 0.024052 47.000000
3.567573 -0.881807 0.024046 36.000000
3.567761 -0.893476 0.024036 34.000000
3.567911 -0.905154 0.024026 46.000000
3.566086 -0.916345 0.024022 34.000000
3.569065 -0.928791 0.024003 42.000000
3.572968 -0.941517 0.023979 36.000000
3.576827 -0.954277 0.023956 54.000000
3.574848 -0.965506 0.023953 46.000000
3.573798 -0.976996 0.023946 38.000000
3.576567 -0.989554 0.023926 34.000000
3.576404 -1.001330 0.023916 40.000000
3.576201 -1.013114 0.023906 44.000000
3.571154 -1.023531 0.023913 42.000000
3.572799 -1.035873 0.023896 39.000000
3.570564 -1.047110 0.023893 36.000000
3.574047 -1.060048 0.023870 43.000000
3.572694 -1.071582 0.023863 48.000000
3.577045 -1.084857 0.023837 31.000000
3.583261 -1.098755 0.023804 49.000000
3.586561 -1.111814 0.023780 78.000000
3.593630 -1.126098 0.023744 53.000000
3.601600 -1.140737 0.023704 43.000000
3.609513 -1.155437 0.023664 47.000000
3.610709 -1.168043 0.023648 49.000000
3.609960 -1.180046 0.023638 38.000000
3.656653 -1.207722 0.023462 8.000000
3.931577 -0.706235 -0.026322 35.000000
3.924474 -0.717394 -0.026244 25.000000
3.919305 -0.728882 -0.026197 40.000000
3.911156 -0.739788 -0.026103 36.000000
3.897086 -0.749516 -0.025914 36.000000
3.890843 -0.760701 -0.025851 34.000000
3.879665 -0.770880 -0.025710 48.000000
3.868460 -0.780997 -0.025569 28.000000
3.863108 -0.792259 -0.025521 78.000000
3.860659 -0.804107 -0.025521 101.000000
3.808285 -0.805391 -0.024720 40.000000
3.827303 -0.821691 -0.025066 69.000000
3.701671 -0.806594 -0.023087 31.000000
3.661104 -0.809524 -0.022474 45.000000
3.626408 -0.813526 -0.021956 44.000000
3.606346 -0.820652 -0.021673 31.000000
3.596992 -0.830138 -0.021563 44.000000
3.583719 -0.838662 -0.021390 31.000000
3.575292 -0.848267 -0.021296 44.000000
3.574617 -0.859700 -0.021328 48.000000
3.570992 -0.870426 -0.021312 47.000000
3.572187 -0.882337 -0.021375 53.000000
3.575283 -0.894749 -0.021469 50.000000
3.570583 -0.905222 -0.021437 38.000000
3.573599 -0.917665 -0.021532 53.000000
3.576573 -0.930135 -0.021626 40.000000
3.575636 -0.941613 -0.021657 56.000000
3.573697 -0.952836 -0.021673 52.000000
3.573653 -0.964577 -0.021720 59.000000
3.573570 -0.976328 -0.021767 58.000000
3.578268 -0.989419 -0.021893 53.000000
3.579066 -1.001470 -0.021956 63.000000
3.575015 -1.012174 -0.021940 50.000000
3.575738 -1.024239 -0.022003 52.000000
3.587944 -1.039658 -0.022254 41.000000
3.592414 -1.052912 -0.022380 30.000000
3.594918 -1.065634 -0.022474 42.000000
3.597378 -1.078381 -0.022568 37.000000
3.647637 -1.105660 -0.023448 22.000000
3.912714 -0.703367 -0.073732 23.000000
3.910538 -0.715368 -0.073732 29.000000
3.903411 -0.726449 -0.073593 32.000000
3.896253 -0.737493 -0.073454 34.000000
3.886118 -0.747934 -0.073232 49.000000
3.874975 -0.758128 -0.072983 43.000000
3.868710 -0.769234 -0.072872 41.000000
3.857513 -0.779321 -0.072622 34.000000
3.847269 -0.789546 -0.072400 47.000000
3.842872 -0.800939 -0.072345 48.000000
3.837462 -0.812104 -0.072261 88.000000
3.828111 -0.822406 -0.072067 44.000000
3.813849 -0.831595 -0.071734 42.000000
3.805423 -0.841998 -0.071568 51.000000
3.788191 -0.850389 -0.071151 57.000000
3.747550 -0.853363 -0.070069 43.000000
3.610496 -0.833856 -0.066240 18.000000
3.619601 -0.847660 -0.066573 30.000000
3.584886 -0.851151 -0.065658 20.000000
3.584201 -0.862613 -0.065713 29.000000
3.574739 -0.871949 -0.065519 32.000000
3.571077 -0.882672 -0.065491 43.000000
3.573201 -0.894837 -0.065630 39.000000
3.575284 -0.907022 -0.065768 51.000000
3.575389 -0.918732 -0.065852 40.000000
3.573521 -0.929949 -0.065879 33.000000
3.572585 -0.941416 -0.065935 45.000000
3.574509 -0.953659 -0.066074 47.000000
3.572531 -0.964882 -0.066101 33.000000
3.569555 -0.975837 -0.066101 31.000000
3.568471 -0.987317 -0.066157 27.000000
3.561574 -0.997183 -0.066046 30.000000
3.560422 -1.008649 -0.066101 35.000000
3.560194 -1.020393 -0.066185 29.000000
3.569529 -1.034926 -0.066545 13.000000
3.903105 -0.713486 -0.123239 24.000000
3.891074 -0.723629 -0.122836 37.000000
3.884909 -0.734820 -0.122675 33.000000
3.878711 -0.745980 -0.122513 46.000000
3.870520 -0.756726 -0.122271 50.000000
3.863281 -0.767623 -0.122070 53.000000
3.852093 -0.777691 -0.121707 44.000000
3.845774 -0.788702 -0.121546 41.000000
3.836488 -0.799070 -0.121264 36.000000
3.832064 -0.810423 -0.121183 49.000000
3.825652 -0.821336 -0.121022 45.000000
3.820185 -0.832431 -0.120901 50.000000
3.817614 -0.844147 -0.120901 42.000000
3.816956 -0.856293 -0.120982 37.000000
3.810414 -0.867112 -0.120820 45.000000
3.803841 -0.877899 -0.120659 46.000000
3.783618 -0.885465 -0.119934 39.000000
3.778939 -0.896607 -0.119853 49.000000
3.734398 -0.898145 -0.118120 46.000000
3.635522 -0.886162 -0.114130 22.000000
3.622116 -0.894675 -0.113686 31.000000
3.591245 -0.898746 -0.112517 40.000000
3.574911 -0.906320 -0.111953 33.000000
3.568243 -0.916289 -0.111792 27.000000
3.556712 -0.924968 -0.111429 42.000000
3.549027 -0.934602 -0.111228 44.000000
3.550970 -0.946774 -0.111429 24.000000
3.547084 -0.957403 -0.111389 34.000000
3.545094 -0.968544 -0.111429 27.000000
3.551736 -0.982080 -0.111832 26.000000
3.908628 -0.704037 -0.171133 18.000000
3.896626 -0.714227 -0.170610 32.000000
3.890490 -0.725448 -0.170400 29.000000
3.879415 -0.735708 -0.169929 33.000000
3.872236 -0.746663 -0.169667 48.000000
3.868948 -0.758347 -0.169615 62.000000
3.864644 -0.769824 -0.169510 66.000000
3.854434 -0.780094 -0.169092 49.000000
3.843218 -0.790109 -0.168621 44.000000
3.831977 -0.800061 -0.168150 33.000000
3.826574 -0.811193 -0.167993 38.000000
3.814303 -0.820831 -0.167469 28.000000
3.809816 -0.832104 -0.167365 32.000000
3.810170 -0.844436 -0.167522 39.000000
3.801715 -0.854809 -0.167208 31.000000
3.801996 -0.867133 -0.167365 31.000000
3.800291 -0.879018 -0.167417 33.000000
3.799520 -0.891129 -0.167522 34.000000
3.803570 -0.904397 -0.167888 40.000000
3.796894 -0.915127 -0.167679 31.000000
3.795039 -0.927008 -0.167731 31.000000
3.779574 -0.935531 -0.167051 38.000000
3.790248 -0.950519 -0.167783 55.000000
3.744724 -0.951336 -0.165481 33.000000
3.673116 -0.945172 -0.161765 29.000000
3.644105 -0.949646 -0.160352 23.000000
3.727118 -0.983471 -0.165010 31.000000
3.725048 -0.995159 -0.165062 17.000000
3.748972 -1.013874 -0.166527 16.000000
3.929745 -0.705906 -0.221688 15.000000
3.874554 -0.708264 -0.218194 42.000000
3.866476 -0.719052 -0.217805 43.000000
3.861310 -0.730354 -0.217611 54.000000
3.856112 -0.741632 -0.217417 40.000000
3.850880 -0.752884 -0.217223 37.000000
3.848553 -0.764695 -0.217223 37.000000
3.842276 -0.775708 -0.216964 46.000000
3.836945 -0.786890 -0.216770 63.000000
3.837444 -0.799269 -0.216964 57.000000
3.835950 -0.811245 -0.217029 37.000000
3.833443 -0.823010 -0.217029 47.000000
3.831875 -0.834979 -0.217094 57.000000
3.834167 -0.847809 -0.217417 73.000000
3.823758 -0.857820 -0.216900 57.000000
3.818190 -0.868882 -0.216705 49.000000
3.805783 -0.878347 -0.216058 30.000000
3.805985 -0.890701 -0.216253 43.000000
3.811002 -0.904218 -0.216770 37.000000
3.813061 -0.917073 -0.217094 42.000000
3.812168 -0.929239 -0.217223 58.000000
3.818987 -0.943325 -0.217870 54.000000
3.828660 -0.958187 -0.218711 39.000000
3.827636 -0.970420 -0.218841 42.000000
3.832373 -0.984145 -0.219358 35.000000
3.834165 -0.997154 -0.219682 44.000000
3.834948 -1.009929 -0.219941 41.000000
3.834724 -1.022461 -0.220135 31.000000
3.838312 -1.036042 -0.220588 40.000000
3.834153 -1.047550 -0.220523 12.000000
3.904671 -0.690965 -0.267030 22.000000
3.920197 -0.706117 -0.268407 15.000000
3.879761 -0.711141 -0.265422 33.000000
3.867759 -0.721216 -0.264657 42.000000
3.855731 -0.731224 -0.263891 36.000000
3.846616 -0.741730 -0.263355 45.000000
3.839430 -0.752571 -0.262973 41.000000
3.834169 -0.763763 -0.262743 39.000000
3.827899 -0.774732 -0.262437 40.000000
3.827458 -0.786873 -0.262590 45.000000
3.826978 -0.799019 -0.262743 49.000000
3.826459 -0.811169 -0.262896 28.000000
3.821028 -0.822276 -0.262667 34.000000
3.820436 -0.834420 -0.262820 35.000000
3.818831 -0.846353 -0.262896 38.000000
3.814271 -0.857628 -0.262743 44.000000
3.807733 -0.868440 -0.262437 34.000000
3.805051 -0.880118 -0.262437 36.000000
3.802333 -0.891788 -0.262437 44.000000
3.805400 -0.904831 -0.262896 33.000000
3.802606 -0.916502 -0.262896 42.000000
3.796870 -0.927455 -0.262667 92.000000
3.797879 -0.940056 -0.262973 51.000000
3.800780 -0.953157 -0.263432 43.000000
3.801704 -0.965794 -0.263738 44.000000
3.801620 -0.978197 -0.263968 43.000000
3.803425 -0.991111 -0.264351 36.000000
3.816757 -1.007095 -0.265652 24.000000
3.819430 -1.020342 -0.266111 44.000000
3.834570 -1.036996 -0.267565 27.000000
3.853491 -1.054803 -0.269326 18.000000
3.898899 -0.689419 -0.315081 21.000000
3.895785 -0.701200 -0.314993 18.000000
3.875980 -0.709917 -0.313396 36.000000
3.869867 -0.721075 -0.313041 32.000000
3.851979 -0.729976 -0.311621 59.000000
3.843853 -0.740658 -0.311089 41.000000
3.835697 -0.751298 -0.310557 56.000000
3.836305 -0.763646 -0.310823 44.000000
3.831992 -0.775017 -0.310645 52.000000
3.834474 -0.787773 -0.311089 47.000000
3.834965 -0.800144 -0.311355 43.000000
3.838338 -0.813144 -0.311888 39.000000
3.841668 -0.826174 -0.312420 58.000000
3.838142 -0.837743 -0.312331 31.000000
3.832637 -0.848868 -0.312065 43.000000
3.844591 -0.863900 -0.313396 119.000000
3.824442 -0.871704 -0.311799 31.000000
3.824661 -0.884107 -0.312065 41.000000
3.820961 -0.895609 -0.311976 43.000000
3.822072 -0.908249 -0.312331 63.000000
3.837666 -0.924404 -0.314017 114.000000
3.810621 -0.930266 -0.311799 53.000000
3.803882 -0.940995 -0.311444 49.000000
3.802909 -0.953145 -0.311621 42.000000
3.799002 -0.964563 -0.311533 41.000000
3.798918 -0.976958 -0.311799 49.000000
3.802650 -0.990366 -0.312420 20.000000
3.808262 -1.004315 -0.313218 41.000000
3.813824 -1.018307 -0.314017 36.000000
3.832797 -1.035983 -0.316057 28.000000
3.864186 -1.057203 -0.319251 15.000000
3.897401 -1.079157 -0.322623 8.000000
3.890319 -0.687732 -0.364204 14.000000
3.877419 -0.697729 -0.363090 29.000000
3.869389 -0.708548 -0.362483 23.000000
3.856437 -0.718415 -0.361370 43.000000
3.848350 -0.729133 -0.360762 46.000000
3.841210 -0.739997 -0.360256 36.000000
3.838922 -0.751778 -0.360256 44.000000
3.842452 -0.764716 -0.360863 32.000000
3.845939 -0.777682 -0.361471 34.000000
3.852306 -0.791276 -0.362382 42.000000
3.853756 -0.803903 -0.362787 41.000000
3.858085 -0.817163 -0.363495 39.000000
3.862369 -0.830458 -0.364204 44.000000
3.862719 -0.842939 -0.364508 46.000000
3.859143 -0.854571 -0.364406 34.000000
3.861357 -0.867495 -0.364913 40.000000
3.859648 -0.879558 -0.365014 107.000000
3.852084 -0.890277 -0.364508 60.000000
3.837710 -0.899370 -0.363293 40.000000
3.821381 -0.907924 -0.361876 39.000000
3.814708 -0.918713 -0.361471 38.000000
3.808006 -0.929470 -0.361066 49.000000
3.802239 -0.940432 -0.360762 41.000000
3.798371 -0.951852 -0.360661 52.000000
3.797361 -0.963989 -0.360863 50.000000
3.799204 -0.976872 -0.361370 47.000000
3.803892 -0.990527 -0.362179 37.000000
3.811418 -1.004979 -0.363293 37.000000
3.813123 -1.017949 -0.363799 32.000000
3.816705 -1.031458 -0.364508 25.000000
3.784732 -1.035296 -0.361471 8.000000
3.900973 -0.701435 -0.412909 15.000000
3.879255 -0.709821 -0.410649 31.000000
3.868268 -0.720081 -0.409631 39.000000
3.865065 -0.731761 -0.409518 45.000000
3.858899 -0.742863 -0.409066 48.000000
3.855626 -0.754508 -0.408953 53.000000
3.857191 -0.767109 -0.409405 45.000000
3.852872 -0.778545 -0.409179 47.000000
3.853385 -0.790962 -0.409518 40.000000
3.856776 -0.803997 -0.410197 37.000000
3.863040 -0.817678 -0.411214 41.000000
3.872170 -0.832032 -0.412570 47.000000
3.873482 -0.844755 -0.413022 35.000000
3.880573 -0.858783 -0.414153 52.000000
3.883737 -0.871991 -0.414831 50.000000
3.916888 -0.892069 -0.419013 170.000000
3.874441 -0.894910 -0.414379 73.000000
3.856199 -0.903165 -0.412570 36.000000
3.842776 -0.912466 -0.411327 37.000000
3.836095 -0.923320 -0.410875 46.000000
3.824557 -0.932965 -0.409858 43.000000
3.816854 -0.943501 -0.409292 34.000000
3.808158 -0.953758 -0.408614 28.000000
3.808104 -0.966170 -0.408953 42.000000
3.808008 -0.978591 -0.409292 35.000000
3.813642 -0.992522 -0.410310 48.000000
3.815383 -1.005484 -0.410875 39.000000
3.818040 -1.018722 -0.411553 43.000000
3.832162 -1.035096 -0.413588 27.000000
3.846220 -1.051567 -0.415622 18.000000
3.897779 -0.713738 -0.462420 22.000000
3.889719 -0.724604 -0.461668 41.000000
3.883578 -0.735797 -0.461167 42.000000
3.878379 -0.747146 -0.460791 42.000000
3.873148 -0.758470 -0.460415 40.000000
3.870803 -0.770349 -0.460415 30.000000
3.864531 -0.781436 -0.459913 32.000000
3.859200 -0.792690 -0.459537 53.000000
3.859664 -0.805133 -0.459913 46.000000
3.865911 -0.818818 -0.461041 37.000000
3.869201 -0.831924 -0.461793 38.000000
3.876324 -0.845903 -0.463047 35.000000
3.878554 -0.858863 -0.463673 38.000000
3.918495 -0.880314 -0.469188 17.000000
3.884820 -0.885287 -0.465177 50.000000
3.884019 -0.897648 -0.465428 38.000000
3.870621 -0.907072 -0.464049 48.000000
3.873611 -0.920317 -0.464801 28.000000
3.855336 -0.928485 -0.462796 32.000000
3.844758 -0.938429 -0.461793 42.000000
3.834156 -0.948317 -0.460791 47.000000
3.830266 -0.959834 -0.460665 43.000000
3.823457 -0.970605 -0.460164 50.000000
3.822382 -0.982825 -0.460415 53.000000
3.826070 -0.996295 -0.461292 35.000000
3.826833 -1.009039 -0.461793 31.000000
3.831389 -1.022820 -0.462796 24.000000
3.846431 -1.039482 -0.465177 10.000000
3.924030 -0.716608 -0.515137 22.000000
3.908179 -0.726109 -0.513213 38.000000
3.903987 -0.737728 -0.512938 34.000000
3.897814 -0.748954 -0.512388 48.000000
3.892582 -0.760338 -0.511976 39.000000
3.887316 -0.771698 -0.511563 62.000000
3.887843 -0.784209 -0.511976 54.000000
3.885419 -0.796133 -0.511976 46.000000
3.885867 -0.808655 -0.512388 57.000000
3.894997 -0.823031 -0.514037 46.000000
3.898265 -0.836224 -0.514862 41.000000
3.900520 -0.849234 -0.515549 35.000000
3.919173 -0.865900 -0.518573 26.000000
3.931306 -0.906610 -0.521459 21.000000
3.919826 -0.916636 -0.520222 24.000000
3.897720 -0.924086 -0.517473 34.000000
3.888125 -0.934419 -0.516511 39.000000
3.873692 -0.943529 -0.514862 37.000000
3.859240 -0.952560 -0.513213 41.000000
3.844769 -0.961510 -0.511563 42.000000
3.838920 -0.972571 -0.511151 49.000000
3.835918 -0.984344 -0.511151 49.000000
3.832880 -0.996108 -0.511151 46.000000
3.834595 -1.009124 -0.511838 38.000000
3.841052 -1.023434 -0.513213 36.000000
3.857977 -1.040633 -0.516099 15.000000
3.956395 -0.737717 -0.568666 16.000000
3.927881 -0.744885 -0.564638 29.000000
3.908099 -0.753567 -0.561952 39.000000
3.902858 -0.764983 -0.561505 35.000000
3.893704 -0.775603 -0.560461 51.000000
3.893245 -0.787937 -0.560759 57.000000
3.889840 -0.799679 -0.560610 48.000000
3.898985 -0.814031 -0.562400 51.000000
3.902273 -0.827217 -0.563295 38.000000
3.908417 -0.841055 -0.564638 37.000000
3.911615 -0.854306 -0.565533 33.000000
3.917665 -0.868226 -0.566876 14.000000
3.934557 -0.910033 -0.570755 24.000000
3.924045 -0.920295 -0.569561 32.000000
3.912544 -0.930274 -0.568218 39.000000
3.905827 -0.941347 -0.567622 37.000000
3.892353 -0.950748 -0.565981 33.000000
3.877899 -0.959837 -0.564190 29.000000
3.861508 -0.968367 -0.562102 32.000000
3.860435 -0.980696 -0.562400 29.000000
3.865070 -0.994504 -0.563594 39.000000
3.873484 -1.009345 -0.565384 23.000000
3.869413 -1.020972 -0.565235 36.000000
3.879638 -1.036408 -0.567323 19.000000
3.990699 -0.754841 -0.624147 26.000000
4.003870 -0.770065 -0.626725 18.000000
3.927877 -0.767945 -0.614482 44.000000
3.903239 -0.775566 -0.610777 51.000000
3.914385 -0.790273 -0.613032 30.000000
3.906141 -0.801088 -0.612066 32.000000
3.908496 -0.814075 -0.612871 35.000000
3.905980 -0.826062 -0.612871 41.000000
3.913076 -0.840114 -0.614482 48.000000
3.911445 -0.852326 -0.614643 39.000000
3.930975 -0.869225 -0.618348 12.000000
3.950763 -0.924598 -0.623503 28.000000
3.930623 -0.932612 -0.620603 47.000000
3.935420 -0.946514 -0.621892 29.000000
3.924827 -0.956712 -0.620603 34.000000
3.905585 -0.964724 -0.617865 35.000000
3.892076 -0.974065 -0.616093 30.000000
3.888112 -0.985758 -0.615932 34.000000
3.886026 -0.997928 -0.616093 37.000000
3.887722 -1.011088 -0.616898 35.000000
3.889373 -1.024268 -0.617704 23.000000
3.967075 -0.739705 -0.669706 35.000000
3.960916 -0.751139 -0.669014 57.000000
3.954724 -0.762543 -0.668322 50.000000
3.951399 -0.774483 -0.668149 36.000000
3.941277 -0.785065 -0.666765 52.000000
3.932092 -0.795787 -0.665555 38.000000
3.928667 -0.807649 -0.665382 60.000000
3.924242 -0.819296 -0.665036 67.000000
3.931346 -0.833372 -0.666765 40.000000
3.973066 -0.854947 -0.674722 18.000000
3.990633 -0.871540 -0.678354 7.000000
3.948999 -0.938930 -0.673857 20.000000
3.912585 -0.942974 -0.667803 43.000000
3.911587 -0.955440 -0.668149 54.000000
3.906725 -0.966963 -0.667803 54.000000
3.900874 -0.978227 -0.667284 34.000000
3.897854 -0.990190 -0.667284 30.000000
3.896706 -1.002634 -0.667630 39.000000
3.893612 -1.014584 -0.667630 50.000000
3.897148 -1.028282 -0.668841 32.000000
3.906346 -1.043534 -0.671090 24.000000
3.957853 -0.737479 -0.716477 35.000000
3.955571 -0.749618 -0.716477 44.000000
3.954218 -0.761936 -0.716661 41.000000
3.954755 -0.774631 -0.717215 70.000000
3.951396 -0.786568 -0.717030 52.000000
3.951854 -0.799272 -0.717584 53.000000
3.953234 -0.812184 -0.718322 52.000000
3.952648 -0.824710 -0.718691 66.000000
3.954907 -0.837852 -0.719613 75.000000
3.954240 -0.850395 -0.719982 40.000000
3.960254 -0.864409 -0.721642 29.000000
3.961840 -0.941477 -0.725147 37.000000
3.942689 -0.949713 -0.722011 55.000000
3.936893 -0.961105 -0.721458 63.000000
3.932017 -0.972707 -0.721089 55.000000
3.925201 -0.983809 -0.720351 68.000000
3.920259 -0.995363 -0.719982 49.000000
3.918139 -1.007630 -0.720166 62.000000
3.918834 -1.020637 -0.720904 44.000000
