ply
format ascii 1.0
element vertex 1253
property float x
property float y
property float z
property float intensity
end_header
3.568503 -0.572750 0.689466 42.000000
3.570613 -0.584332 0.690181 28.000000
3.565891 -0.594797 0.689645 27.000000
3.563080 -0.605570 0.689466 46.000000
3.563144 -0.616834 0.689824 34.000000
3.559297 -0.627421 0.689466 45.000000
3.561229 -0.639033 0.690181 35.000000
3.561188 -0.650310 0.690538 42.000000
3.558208 -0.661052 0.690359 51.000000
3.563898 -0.673428 0.691789 41.000000
3.567612 -0.685473 0.692860 35.000000
3.568390 -0.696981 0.693396 50.000000
3.567200 -0.708117 0.693575 37.000000
3.565010 -0.719058 0.693575 36.000000
3.562787 -0.729992 0.693575 41.000000
3.563421 -0.741521 0.694111 33.000000
3.558241 -0.751839 0.693575 41.000000
3.553032 -0.762133 0.693039 37.000000
3.551638 -0.773239 0.693218 41.000000
3.551171 -0.784557 0.693575 46.000000
3.551627 -0.796094 0.694111 33.000000
3.551087 -0.807423 0.694468 39.000000
3.550511 -0.818756 0.694825 57.000000
3.549898 -0.830093 0.695183 47.000000
3.554036 -0.842570 0.696433 37.000000
3.558131 -0.855079 0.697683 52.000000
3.555491 -0.865991 0.697683 39.000000
3.553773 -0.877131 0.697862 42.000000
3.551065 -0.888030 0.697862 36.000000
3.545463 -0.898195 0.697326 29.000000
3.552220 -0.911515 0.699112 47.000000
3.549407 -0.922409 0.699112 46.000000
3.545609 -0.933043 0.698934 39.000000
3.551286 -0.946197 0.700541 36.000000
3.555017 -0.958882 0.701792 34.000000
3.556804 -0.971081 0.702685 42.000000
3.559498 -0.983561 0.703757 49.000000
3.554568 -0.993947 0.703400 30.000000
3.552449 -1.005115 0.703578 33.000000
3.550294 -1.016280 0.703757 58.000000
3.549995 -1.027989 0.704293 46.000000
3.548713 -1.039429 0.704650 42.000000
3.543621 -1.049752 0.704293 31.000000
3.546038 -1.062313 0.705364 35.000000
3.547471 -1.074614 0.706258 37.000000
3.538513 -1.083763 0.705186 37.000000
3.537991 -1.095487 0.705722 57.000000
3.526162 -1.103691 0.704114 27.000000
3.524636 -1.115097 0.704471 39.000000
3.529632 -1.128603 0.706079 45.000000
3.528026 -1.140032 0.706436 34.000000
3.520770 -1.149629 0.705722 39.000000
3.533111 -1.165667 0.708758 46.000000
3.536052 -1.178680 0.710009 33.000000
3.539878 -1.192035 0.711438 26.000000
3.541793 -1.204792 0.712510 38.000000
3.545524 -1.218211 0.713939 13.000000
3.558501 -1.234890 0.717154 9.000000
3.571568 -0.373746 0.641540 16.000000
3.566483 -0.384280 0.640872 38.000000
3.566268 -0.395328 0.641039 30.000000
3.565038 -0.406268 0.641039 49.000000
3.567692 -0.417661 0.641707 39.000000
3.571289 -0.429191 0.642541 45.000000
3.566041 -0.439664 0.641874 47.000000
3.570545 -0.451342 0.642875 27.000000
3.574032 -0.462926 0.643710 35.000000
3.573572 -0.474018 0.643877 42.000000
3.575032 -0.485377 0.644378 47.000000
3.574503 -0.496478 0.644545 41.000000
3.573940 -0.507580 0.644712 39.000000
3.576269 -0.519108 0.645379 45.000000
3.573684 -0.529933 0.645213 29.000000
3.569117 -0.540452 0.644712 32.000000
3.570365 -0.551850 0.645213 39.000000
3.569629 -0.562955 0.645379 35.000000
3.573726 -0.574841 0.646381 35.000000
3.566108 -0.584847 0.645379 26.000000
3.574022 -0.597407 0.647049 35.000000
3.572172 -0.608370 0.647049 48.000000
3.571261 -0.619494 0.647216 32.000000
3.570314 -0.630619 0.647383 43.000000
3.567392 -0.641395 0.647216 42.000000
3.564438 -0.652160 0.647049 53.000000
3.566298 -0.663813 0.647717 37.000000
3.563276 -0.674568 0.647550 44.000000
3.564094 -0.686055 0.648051 37.000000
3.568746 -0.698309 0.649219 25.000000
3.565620 -0.709063 0.649052 32.000000
3.562461 -0.719804 0.648885 43.000000
3.564100 -0.731521 0.649553 40.000000
3.561839 -0.742452 0.649553 43.000000
3.560509 -0.753580 0.649720 27.000000
3.561072 -0.765121 0.650221 43.000000
3.557745 -0.775832 0.650054 50.000000
3.560161 -0.787807 0.650889 41.000000
3.560614 -0.799373 0.651389 31.000000
3.556222 -0.809856 0.651055 26.000000
3.560446 -0.822313 0.652224 34.000000
3.559826 -0.833682 0.652558 37.000000
3.563008 -0.845964 0.653560 32.000000
3.565189 -0.858043 0.654394 39.000000
3.560624 -0.868510 0.654060 31.000000
3.563686 -0.880848 0.655062 33.000000
3.558098 -0.891059 0.654561 43.000000
3.552480 -0.901245 0.654060 32.000000
3.550653 -0.912385 0.654227 46.000000
3.544020 -0.922281 0.653560 43.000000
3.541174 -0.933150 0.653560 36.000000
3.544011 -0.945533 0.654561 45.000000
3.545853 -0.957685 0.655396 43.000000
3.548605 -0.970117 0.656398 44.000000
3.552264 -0.982838 0.657566 38.000000
3.553980 -0.995059 0.658401 32.000000
3.554706 -1.007032 0.659069 41.000000
3.556339 -1.019290 0.659903 33.000000
3.551301 -1.029647 0.659569 41.000000
3.550018 -1.041092 0.659903 40.000000
3.548697 -1.052538 0.660237 32.000000
3.548285 -1.064269 0.660738 52.000000
3.548778 -1.076294 0.661406 33.000000
3.548287 -1.088043 0.661907 42.000000
3.545875 -1.099215 0.662074 40.000000
3.550013 -1.112445 0.663409 40.000000
3.552223 -1.125115 0.664411 41.000000
3.550633 -1.136609 0.664745 42.000000
3.551820 -1.149013 0.665579 38.000000
3.545467 -1.158986 0.665079 49.000000
3.542831 -1.170167 0.665245 41.000000
3.540159 -1.181342 0.665412 42.000000
3.534649 -1.191568 0.665079 31.000000
3.530044 -1.202089 0.664912 47.000000
3.519812 -1.210671 0.663743 18.000000
3.595464 -0.375627 0.600448 9.000000
3.584473 -0.385598 0.598899 44.000000
3.581309 -0.396376 0.598590 39.000000
3.581057 -0.407473 0.598744 43.000000
3.583715 -0.418917 0.599364 29.000000
3.584375 -0.430145 0.599674 47.000000
3.582058 -0.441019 0.599519 46.000000
3.581668 -0.452130 0.599674 42.000000
3.584183 -0.463624 0.600293 43.000000
3.584703 -0.474878 0.600603 52.000000
3.586166 -0.486272 0.601068 53.000000
3.585636 -0.497407 0.601223 51.000000
3.585071 -0.508544 0.601377 55.000000
3.585449 -0.519825 0.601687 33.000000
3.585792 -0.531112 0.601997 49.000000
3.585123 -0.542258 0.602152 48.000000
3.585395 -0.553556 0.602462 47.000000
3.585631 -0.564861 0.602771 41.000000
3.583881 -0.575859 0.602771 34.000000
3.585023 -0.587331 0.603236 39.000000
3.590025 -0.599467 0.604320 38.000000
3.590117 -0.610810 0.604630 31.000000
3.589199 -0.621990 0.604785 33.000000
3.587274 -0.632998 0.604785 43.000000
3.584343 -0.643826 0.604630 48.000000
3.584295 -0.655175 0.604940 40.000000
3.582268 -0.666169 0.604940 49.000000
3.579236 -0.676972 0.604785 30.000000
3.577142 -0.687950 0.604785 51.000000
3.575985 -0.699111 0.604940 33.000000
3.578668 -0.711042 0.605714 43.000000
3.576469 -0.722018 0.605714 46.000000
3.576173 -0.733384 0.606024 41.000000
3.578742 -0.745360 0.606798 27.000000
3.579338 -0.756949 0.607263 44.000000
3.579897 -0.768549 0.607728 41.000000
3.584279 -0.781002 0.608812 31.000000
3.585724 -0.792848 0.609431 47.000000
3.589059 -0.805143 0.610361 42.000000
3.590425 -0.817028 0.610980 53.000000
3.589826 -0.828483 0.611290 48.000000
3.590154 -0.840169 0.611755 41.000000
3.587559 -0.851179 0.611755 43.000000
3.582049 -0.861488 0.611290 41.000000
3.575550 -0.871538 0.610670 44.000000
3.571900 -0.882266 0.610516 49.000000
3.565343 -0.892261 0.609896 36.000000
3.566419 -0.904166 0.610516 45.000000
3.565543 -0.915595 0.610825 38.000000
3.562717 -0.926530 0.610825 42.000000
3.564634 -0.938714 0.611600 41.000000
3.565556 -0.950664 0.612219 44.000000
3.563576 -0.961856 0.612374 34.000000
3.567279 -0.974608 0.613458 31.000000
3.561416 -0.984758 0.612994 41.000000
3.561232 -0.996478 0.613458 47.000000
3.566713 -1.009822 0.614852 49.000000
3.570246 -1.022665 0.615936 28.000000
3.563296 -1.032513 0.615317 36.000000
3.566748 -1.045386 0.616401 42.000000
3.564471 -1.056605 0.616556 44.000000
3.564052 -1.068387 0.617021 34.000000
3.564539 -1.080463 0.617640 35.000000
3.563096 -1.091973 0.617950 38.000000
3.561617 -1.103484 0.618260 48.000000
3.566699 -1.117064 0.619654 33.000000
3.566081 -1.128896 0.620118 31.000000
3.566364 -1.141036 0.620738 36.000000
3.567547 -1.153492 0.621512 30.000000
3.564930 -1.164739 0.621667 33.000000
3.562278 -1.175980 0.621822 29.000000
3.564276 -1.188779 0.622751 40.000000
3.562485 -1.200340 0.623061 36.000000
3.560656 -1.211901 0.623371 38.000000
3.552250 -1.221213 0.622596 18.000000
3.595835 -0.386801 0.556349 30.000000
3.592664 -0.397614 0.556063 33.000000
3.596344 -0.409192 0.556778 33.000000
3.594089 -0.420109 0.556635 29.000000
3.596714 -0.431604 0.557207 37.000000
3.595373 -0.442636 0.557207 43.000000
3.595962 -0.453912 0.557492 37.000000
3.595534 -0.465069 0.557635 35.000000
3.599977 -0.476875 0.558493 27.000000
3.598498 -0.487918 0.558493 41.000000
3.602866 -0.499770 0.559351 30.000000
3.604256 -0.511237 0.559780 37.000000
3.605609 -0.522717 0.560209 38.000000
3.598114 -0.532908 0.559351 34.000000
3.602334 -0.544831 0.560209 50.000000
3.596733 -0.555277 0.559637 41.000000
3.589146 -0.565387 0.558779 28.000000
3.593258 -0.577336 0.559637 45.000000
3.589516 -0.588038 0.559351 34.000000
3.595505 -0.600349 0.560495 34.000000
3.596574 -0.611874 0.560924 40.000000
3.592729 -0.622568 0.560638 40.000000
3.594701 -0.634274 0.561210 44.000000
3.590790 -0.644950 0.560924 30.000000
3.591715 -0.656496 0.561353 40.000000
3.591630 -0.667874 0.561639 53.000000
3.585674 -0.678155 0.561067 33.000000
3.584549 -0.689339 0.561210 30.000000
3.591160 -0.702039 0.562497 38.000000
3.590931 -0.713439 0.562783 45.000000
3.591635 -0.725039 0.563211 35.000000
3.593273 -0.736849 0.563783 39.000000
3.592933 -0.748272 0.564069 45.000000
3.593526 -0.759905 0.564498 43.000000
3.591177 -0.770926 0.564498 35.000000
3.588795 -0.781940 0.564498 31.000000
3.583480 -0.792306 0.564069 29.000000
3.584896 -0.804162 0.564641 34.000000
3.581447 -0.814937 0.564498 40.000000
3.578930 -0.825921 0.564498 40.000000
3.581198 -0.838023 0.565213 35.000000
3.582462 -0.849919 0.565785 33.000000
3.577913 -0.860444 0.565499 48.000000
3.581026 -0.872821 0.566357 54.000000
3.580254 -0.884277 0.566643 29.000000
3.577524 -0.895257 0.566643 42.000000
3.583395 -0.908415 0.567930 46.000000
3.580591 -0.919404 0.567930 45.000000
3.574880 -0.929639 0.567501 41.000000
3.578712 -0.942364 0.568502 33.000000
3.574847 -0.953084 0.568359 39.000000
3.569995 -0.963532 0.568073 43.000000
3.571796 -0.975782 0.568787 42.000000
3.568786 -0.986736 0.568787 49.000000
3.568601 -0.998479 0.569216 43.000000
3.572188 -1.011308 0.570217 57.000000
3.573826 -1.023624 0.570932 44.000000
3.570669 -1.034583 0.570932 40.000000
3.574127 -1.047480 0.571933 51.000000
3.575642 -1.059845 0.572648 44.000000
3.571425 -1.070526 0.572505 37.000000
3.570966 -1.082338 0.572934 42.000000
3.573307 -1.095027 0.573792 41.000000
3.570876 -1.106277 0.573935 36.000000
3.574077 -1.119295 0.574935 24.000000
3.572514 -1.130852 0.575221 43.000000
3.569028 -1.141807 0.575221 51.000000
3.573984 -1.155489 0.576508 37.000000
3.572304 -1.167062 0.576794 37.000000
3.570587 -1.178636 0.577080 23.000000
3.574466 -1.192088 0.578224 44.000000
3.570792 -1.203049 0.578224 40.000000
3.569895 -1.214954 0.578653 39.000000
3.576448 -1.229436 0.580225 21.000000
3.688794 -0.385387 0.524349 8.000000
3.628453 -0.390334 0.516486 29.000000
3.617385 -0.400372 0.515176 37.000000
3.620080 -0.411917 0.515700 43.000000
3.616830 -0.422791 0.515438 46.000000
3.612562 -0.433531 0.515045 44.000000
3.612200 -0.444733 0.515176 37.000000
3.611802 -0.455937 0.515307 41.000000
3.607436 -0.466634 0.514914 38.000000
3.605005 -0.477569 0.514783 35.000000
3.602540 -0.488494 0.514652 58.000000
3.606916 -0.500362 0.515438 53.000000
3.610272 -0.512122 0.516093 61.000000
3.611627 -0.523623 0.516486 46.000000
3.610004 -0.534701 0.516486 53.000000
3.607366 -0.545625 0.516355 37.000000
3.606655 -0.556841 0.516486 52.000000
3.605909 -0.568058 0.516617 44.000000
3.602191 -0.578803 0.516355 37.000000
3.605290 -0.590654 0.517011 56.000000
3.606395 -0.602202 0.517404 40.000000
3.609417 -0.614095 0.518059 46.000000
3.609470 -0.625505 0.518321 57.000000
3.608510 -0.636748 0.518452 56.000000
3.600685 -0.646764 0.517666 35.000000
3.602585 -0.658521 0.518190 40.000000
3.602497 -0.669933 0.518452 56.000000
3.605294 -0.681904 0.519107 37.000000
3.612921 -0.694835 0.520418 45.000000
3.618556 -0.707438 0.521466 46.000000
3.619285 -0.719116 0.521859 41.000000
3.621921 -0.731198 0.522515 51.000000
3.618689 -0.742108 0.522383 44.000000
3.612514 -0.752397 0.521859 33.000000
3.605339 -0.762450 0.521204 36.000000
3.597167 -0.772259 0.520418 46.000000
3.595749 -0.783502 0.520549 39.000000
3.594297 -0.794744 0.520680 33.000000
3.597645 -0.807070 0.521466 35.000000
3.596119 -0.818324 0.521597 48.000000
3.596489 -0.830022 0.521990 45.000000
3.597787 -0.841956 0.522515 46.000000
3.602904 -0.854822 0.523563 36.000000
3.601228 -0.866103 0.523694 55.000000
3.599517 -0.877382 0.523825 48.000000
3.597771 -0.888659 0.523956 44.000000
3.598874 -0.900656 0.524480 44.000000
3.597055 -0.911937 0.524611 44.000000
3.597121 -0.923708 0.525004 50.000000
3.595230 -0.934989 0.525135 53.000000
3.592344 -0.946014 0.525135 39.000000
3.593256 -0.958053 0.525660 51.000000
3.592214 -0.969590 0.525922 39.000000
3.589223 -0.980606 0.525922 48.000000
3.590975 -0.992934 0.526577 58.000000
3.589821 -1.004481 0.526839 55.000000
3.586722 -1.015490 0.526839 35.000000
3.588356 -1.027854 0.527494 41.000000
3.585185 -1.038858 0.527494 38.000000
3.583884 -1.050411 0.527756 38.000000
3.583496 -1.062246 0.528149 52.000000
3.581169 -1.073520 0.528280 41.000000
3.580705 -1.085365 0.528674 35.000000
3.583993 -1.098379 0.529591 34.000000
3.581554 -1.109663 0.529722 37.000000
3.586647 -1.123314 0.530901 40.000000
3.587909 -1.135809 0.531557 42.000000
3.585352 -1.147113 0.531688 45.000000
3.583702 -1.158717 0.531950 37.000000
3.582015 -1.170323 0.532212 54.000000
3.577466 -1.180996 0.532081 34.000000
3.574766 -1.192279 0.532212 38.000000
3.572031 -1.203558 0.532343 33.000000
3.569261 -1.214830 0.532474 45.000000
3.569267 -1.227065 0.532998 29.000000
3.572977 -1.240611 0.534047 30.000000
3.591606 -1.259443 0.537192 10.000000
3.656135 -0.369948 0.474438 10.000000
3.628319 -0.378391 0.471227 35.000000
3.631089 -0.389943 0.471702 45.000000
3.629876 -0.401082 0.471702 44.000000
3.628628 -0.412216 0.471702 37.000000
3.629319 -0.423576 0.471940 69.000000
3.629974 -0.434944 0.472178 40.000000
3.627637 -0.445958 0.472059 32.000000
3.629207 -0.457457 0.472416 58.000000
3.628772 -0.468716 0.472535 44.000000
3.627317 -0.479847 0.472535 39.000000
3.627795 -0.491239 0.472773 49.000000
3.626271 -0.502366 0.472773 42.000000
3.624713 -0.513489 0.472773 49.000000
3.622138 -0.524465 0.472654 55.000000
3.624441 -0.536155 0.473129 35.000000
3.619833 -0.546828 0.472773 21.000000
3.626971 -0.559290 0.473843 46.000000
3.624257 -0.570261 0.473724 43.000000
3.624451 -0.581692 0.473962 49.000000
3.621670 -0.592648 0.473843 50.000000
3.619834 -0.603757 0.473843 29.000000
3.619923 -0.615192 0.474081 35.000000
3.620954 -0.626801 0.474438 42.000000
3.619992 -0.638080 0.474556 45.000000
3.620949 -0.649708 0.474913 37.000000
3.624799 -0.661882 0.475627 49.000000
3.628609 -0.674086 0.476340 42.000000
3.630427 -0.685951 0.476816 56.000000
3.631231 -0.697647 0.477173 45.000000
3.628099 -0.708594 0.477054 29.000000
3.631752 -0.720879 0.477767 53.000000
3.632443 -0.732606 0.478124 45.000000
3.625315 -0.742752 0.477530 35.000000
3.620102 -0.753265 0.477173 44.000000
3.614860 -0.763753 0.476816 34.000000
3.613471 -0.775047 0.476935 54.000000
3.613016 -0.786552 0.477173 46.000000
3.609616 -0.797418 0.477054 63.000000
3.607153 -0.808489 0.477054 70.000000
3.607560 -0.820211 0.477411 28.000000
3.605994 -0.831498 0.477530 42.000000
3.607294 -0.843460 0.478005 42.000000
3.608554 -0.855438 0.478481 56.000000
3.611706 -0.867895 0.479194 50.000000
3.610955 -0.879441 0.479432 38.000000
3.612097 -0.891465 0.479908 34.000000
3.609345 -0.902543 0.479908 38.000000
3.608484 -0.914099 0.480146 45.000000
3.609510 -0.926151 0.480622 42.000000
3.608574 -0.937720 0.480859 50.000000
3.609521 -0.949796 0.481335 57.000000
3.614266 -0.962907 0.482287 51.000000
3.612254 -0.974250 0.482405 36.000000
3.612122 -0.986111 0.482762 68.000000
3.611951 -0.997980 0.483119 40.000000
3.609828 -1.009324 0.483238 46.000000
3.611492 -1.021744 0.483833 60.000000
3.608341 -1.032819 0.483833 49.000000
3.603247 -1.043333 0.483595 58.000000
3.599076 -1.054104 0.483476 47.000000
3.593921 -1.064577 0.483238 64.000000
3.590638 -1.075598 0.483238 46.000000
3.592073 -1.088047 0.483833 49.000000
3.593466 -1.100514 0.484427 51.000000
3.593867 -1.112707 0.484903 51.000000
3.601808 -1.127283 0.486330 47.000000
3.602120 -1.139525 0.486806 47.000000
3.603336 -1.152081 0.487400 40.000000
3.605454 -1.164960 0.488114 52.000000
3.599975 -1.175400 0.487876 34.000000
3.602953 -1.188615 0.488708 48.000000
3.605884 -1.201859 0.489541 32.000000
3.603121 -1.213232 0.489660 72.000000
3.606903 -1.226836 0.490611 39.000000
3.603122 -1.237896 0.490611 50.000000
3.599307 -1.248945 0.490611 51.000000
3.603892 -1.262934 0.491681 50.000000
3.582214 -1.267696 0.489422 18.000000
3.695847 -0.374017 0.433440 19.000000
3.690727 -0.384941 0.433013 24.000000
3.660859 -0.393180 0.429916 62.000000
3.661612 -0.404628 0.430129 52.000000
3.656402 -0.415411 0.429702 71.000000
3.647210 -0.425703 0.428848 65.000000
3.646874 -0.437009 0.428955 57.000000
3.645516 -0.448196 0.428955 57.000000
3.642151 -0.459129 0.428741 44.000000
3.644669 -0.470811 0.429168 46.000000
3.646165 -0.482382 0.429489 58.000000
3.647624 -0.493966 0.429809 54.000000
3.649046 -0.505564 0.430129 62.000000
3.647477 -0.516757 0.430129 56.000000
3.642923 -0.527517 0.429809 28.000000
3.647188 -0.539565 0.430450 40.000000
3.646499 -0.550900 0.430557 54.000000
3.652653 -0.563298 0.431411 68.000000
3.651890 -0.574656 0.431518 37.000000
3.649128 -0.585700 0.431411 34.000000
3.647314 -0.596892 0.431411 48.000000
3.645465 -0.608079 0.431411 43.000000
3.639662 -0.618594 0.430984 44.000000
3.638727 -0.629927 0.431091 47.000000
3.633839 -0.640569 0.430770 51.000000
3.632835 -0.651890 0.430877 43.000000
3.635709 -0.663926 0.431411 43.000000
3.633655 -0.675077 0.431411 38.000000
3.635474 -0.686961 0.431838 59.000000
3.632374 -0.697923 0.431731 42.000000
3.630215 -0.709064 0.431731 41.000000
3.632899 -0.721167 0.432265 53.000000
3.634568 -0.733096 0.432692 42.000000
3.635224 -0.744842 0.433013 54.000000
3.636815 -0.756802 0.433440 36.000000
3.634476 -0.767956 0.433440 46.000000
3.636964 -0.780146 0.433974 43.000000
3.634553 -0.791300 0.433974 41.000000
3.631138 -0.802232 0.433867 36.000000
3.626719 -0.812934 0.433653 53.000000
3.626147 -0.824498 0.433867 55.000000
3.625538 -0.836066 0.434080 48.000000
3.627796 -0.848317 0.434614 42.000000
3.628079 -0.860131 0.434935 50.000000
3.632191 -0.872885 0.435682 60.000000
3.631428 -0.884495 0.435896 39.000000
3.629662 -0.895871 0.436003 46.000000
3.628826 -0.907485 0.436216 52.000000
3.626024 -0.918613 0.436216 37.000000
3.621263 -0.929239 0.436003 42.000000
3.618395 -0.940345 0.436003 37.000000
3.613570 -0.950935 0.435789 43.000000
3.613518 -0.962785 0.436109 43.000000
3.608627 -0.973349 0.435896 53.000000
3.606583 -0.984677 0.436003 42.000000
3.607378 -0.996797 0.436430 39.000000
3.608133 -1.008931 0.436857 40.000000
3.610761 -1.021621 0.437498 38.000000
3.613345 -1.034336 0.438138 32.000000
3.615885 -1.047076 0.438779 46.000000
3.619335 -1.060122 0.439526 42.000000
3.615112 -1.070938 0.439420 47.000000
3.612762 -1.082310 0.439526 48.000000
3.611327 -1.093965 0.439740 45.000000
3.609856 -1.105622 0.439954 62.000000
3.607396 -1.116986 0.440060 48.000000
3.611543 -1.130425 0.440915 43.000000
3.609954 -1.142099 0.441128 45.000000
3.615903 -1.156199 0.442196 39.000000
3.617070 -1.168816 0.442730 53.000000
3.615357 -1.180525 0.442944 45.000000
3.612662 -1.191922 0.443050 33.000000
3.609932 -1.203315 0.443157 37.000000
3.604339 -1.213749 0.442944 27.000000
3.606246 -1.226723 0.443584 22.000000
3.594002 -1.234873 0.442623 16.000000
3.658973 -0.404931 0.385904 31.000000
3.654746 -0.415818 0.385619 36.000000
3.658397 -0.427605 0.386094 34.000000
3.654103 -0.438472 0.385809 39.000000
3.653728 -0.449802 0.385904 47.000000
3.656282 -0.461506 0.386284 49.000000
3.656824 -0.472976 0.386474 53.000000
3.654368 -0.484063 0.386379 41.000000
3.654839 -0.495539 0.386569 40.000000
3.650343 -0.506340 0.386284 37.000000
3.651730 -0.517955 0.386569 35.000000
3.652094 -0.529441 0.386759 48.000000
3.653407 -0.541079 0.387044 39.000000
3.649761 -0.551988 0.386854 54.000000
3.651002 -0.563638 0.387139 67.000000
3.646305 -0.574372 0.386854 52.000000
3.644526 -0.585556 0.386854 39.000000
3.638783 -0.596092 0.386474 62.000000
3.638900 -0.607581 0.386664 46.000000
3.637019 -0.618742 0.386664 44.000000
3.636085 -0.630067 0.386759 53.000000
3.636096 -0.641564 0.386949 38.000000
3.639010 -0.653595 0.387424 48.000000
3.638946 -0.665114 0.387614 46.000000
3.638845 -0.676638 0.387804 40.000000
3.635774 -0.687614 0.387709 62.000000
3.635603 -0.699140 0.387899 48.000000
3.635395 -0.710672 0.388088 52.000000
3.632221 -0.721629 0.387993 57.000000
3.632917 -0.733359 0.388278 50.000000
3.636502 -0.745699 0.388848 47.000000
3.638096 -0.757663 0.389228 48.000000
3.638676 -0.769437 0.389513 60.000000
3.638245 -0.781014 0.389703 51.000000
3.636805 -0.792384 0.389798 45.000000
3.636301 -0.803967 0.389988 45.000000
3.634789 -0.815337 0.390083 38.000000
3.630328 -0.826044 0.389893 35.000000
3.632627 -0.838295 0.390368 56.000000
3.634885 -0.850568 0.390843 44.000000
3.633227 -0.861946 0.390938 37.000000
3.634438 -0.874018 0.391318 62.000000
3.626903 -0.883987 0.390843 33.000000
3.625140 -0.895348 0.390938 58.000000
3.625274 -0.907190 0.391223 52.000000
3.624403 -0.918797 0.391413 46.000000
3.623496 -0.930406 0.391603 47.000000
3.623515 -0.942269 0.391888 51.000000
3.624458 -0.954395 0.392267 51.000000
3.621513 -0.965510 0.392267 53.000000
3.618534 -0.976616 0.392267 47.000000
3.615521 -0.987713 0.392267 63.000000
3.613433 -0.999065 0.392362 56.000000
3.615145 -1.011486 0.392837 50.000000
3.619688 -1.024739 0.393597 59.000000
3.623227 -1.037756 0.394262 46.000000
3.625763 -1.050528 0.394832 51.000000
3.628255 -1.063324 0.395402 49.000000
3.626885 -1.075016 0.395592 44.000000
3.621662 -1.085567 0.395402 56.000000
3.622126 -1.097827 0.395782 55.000000
3.619693 -1.109226 0.395877 56.000000
3.617224 -1.120620 0.395972 71.000000
3.618519 -1.133198 0.396446 50.000000
3.615975 -1.144594 0.396541 46.000000
3.615291 -1.156592 0.396826 50.000000
3.612673 -1.167984 0.396921 51.000000
3.613804 -1.180606 0.397396 40.000000
3.611111 -1.191999 0.397491 48.000000
3.612159 -1.204646 0.397966 55.000000
3.609390 -1.216039 0.398061 34.000000
3.609412 -1.228389 0.398441 38.000000
3.613158 -1.242043 0.399201 18.000000
3.673062 -0.405895 0.340640 26.000000
3.672790 -0.417274 0.340722 34.000000
3.673472 -0.428771 0.340887 33.000000
3.674118 -0.440277 0.341052 36.000000
3.673740 -0.451669 0.341134 49.000000
3.671348 -0.462813 0.341052 47.000000
3.672876 -0.474457 0.341299 47.000000
3.672391 -0.485854 0.341382 59.000000
3.667920 -0.496717 0.341134 53.000000
3.663418 -0.507557 0.340887 47.000000
3.656910 -0.518094 0.340475 41.000000
3.657275 -0.529597 0.340640 39.000000
3.658591 -0.541253 0.340887 51.000000
3.654943 -0.552177 0.340722 38.000000
3.654216 -0.563539 0.340804 42.000000
3.656408 -0.575368 0.341134 54.000000
3.657578 -0.587057 0.341382 44.000000
3.656742 -0.598436 0.341464 43.000000
3.655872 -0.609816 0.341547 53.000000
3.655949 -0.621364 0.341712 50.000000
3.657954 -0.633257 0.342041 50.000000
3.659919 -0.645169 0.342371 57.000000
3.658904 -0.656571 0.342454 45.000000
3.656872 -0.667793 0.342454 40.000000
3.656766 -0.679373 0.342619 40.000000
3.648789 -0.689478 0.342124 39.000000
3.649592 -0.701234 0.342371 58.000000
3.647424 -0.712427 0.342371 48.000000
3.644244 -0.723420 0.342289 33.000000
3.647868 -0.735780 0.342784 46.000000
3.650475 -0.747968 0.343196 44.000000
3.653042 -0.760180 0.343608 44.000000
3.657517 -0.772827 0.344185 34.000000
3.657078 -0.784463 0.344350 49.000000
3.657576 -0.796315 0.344598 47.000000
3.654142 -0.807317 0.344515 47.000000
3.649703 -0.818088 0.344350 41.000000
3.647176 -0.829281 0.344350 56.000000
3.641702 -0.839795 0.344103 47.000000
3.642990 -0.851871 0.344433 54.000000
3.641329 -0.863274 0.344515 54.000000
3.642539 -0.875373 0.344845 38.000000
3.642741 -0.887252 0.345092 41.000000
3.647742 -0.900335 0.345752 57.000000
3.649797 -0.912731 0.346164 42.000000
3.651810 -0.925149 0.346577 53.000000
3.654746 -0.937835 0.347071 45.000000
3.654745 -0.949795 0.347319 45.000000
3.651814 -0.961003 0.347319 49.000000
3.654626 -0.973742 0.347814 54.000000
3.652584 -0.985210 0.347896 44.000000
3.651467 -0.996936 0.348061 44.000000
3.651273 -1.008931 0.348308 49.000000
3.648160 -1.020128 0.348308 34.000000
3.648849 -1.032401 0.348638 40.000000
3.647581 -1.044140 0.348803 52.000000
3.643403 -1.055048 0.348721 36.000000
3.638236 -1.065660 0.348556 47.000000
3.635905 -1.077100 0.348638 54.000000
3.634493 -1.088822 0.348803 28.000000
3.636858 -1.101702 0.349298 41.000000
3.633461 -1.112854 0.349298 40.000000
3.633837 -1.125176 0.349628 39.000000
3.637026 -1.138404 0.350205 41.000000
3.640167 -1.151662 0.350782 48.000000
3.640414 -1.164038 0.351112 37.000000
3.638722 -1.175815 0.351277 42.000000
3.633203 -1.186354 0.351112 54.000000
3.634278 -1.199056 0.351524 38.000000
3.638145 -1.212722 0.352184 28.000000
3.632519 -1.223242 0.352019 28.000000
3.627805 -1.234060 0.351937 39.000000
3.632485 -1.248099 0.352679 19.000000
3.738613 -0.415034 0.301398 16.000000
3.690740 -0.421201 0.298079 39.000000
3.688440 -0.432406 0.298008 43.000000
3.688086 -0.443839 0.298079 38.000000
3.679777 -0.454298 0.297584 29.000000
3.681335 -0.465960 0.297796 49.000000
3.680877 -0.477380 0.297867 55.000000
3.679395 -0.488671 0.297867 36.000000
3.679856 -0.500225 0.298008 55.000000
3.677316 -0.511375 0.297937 55.000000
3.682643 -0.523635 0.298432 32.000000
3.675096 -0.534072 0.298008 37.000000
3.678374 -0.546076 0.298361 41.000000
3.675695 -0.557209 0.298290 54.000000
3.670025 -0.567874 0.298008 36.000000
3.669250 -0.579286 0.298079 39.000000
3.663517 -0.589908 0.297796 35.000000
3.662674 -0.601306 0.297867 37.000000
3.661796 -0.612704 0.297937 44.000000
3.662849 -0.624438 0.298149 33.000000
3.670745 -0.637375 0.298855 51.000000
3.671719 -0.649154 0.299067 36.000000
3.673637 -0.661121 0.299350 44.000000
3.675517 -0.673106 0.299632 38.000000
3.676376 -0.684927 0.299844 33.000000
3.675238 -0.696388 0.299915 42.000000
3.667207 -0.706529 0.299491 42.000000
3.663064 -0.717394 0.299350 39.000000
3.665738 -0.729601 0.299703 35.000000
3.663482 -0.740844 0.299703 27.000000
3.666078 -0.753082 0.300056 36.000000
3.664726 -0.764529 0.300127 46.000000
3.665292 -0.776388 0.300339 50.000000
3.672645 -0.789723 0.301045 40.000000
3.675078 -0.802049 0.301398 58.000000
3.674548 -0.813751 0.301539 47.000000
3.672034 -0.825020 0.301539 32.000000
3.669486 -0.836282 0.301539 47.000000
3.670791 -0.848433 0.301822 56.000000
3.665257 -0.859009 0.301610 42.000000
3.658722 -0.869329 0.301327 54.000000
3.657007 -0.880783 0.301398 36.000000
3.653319 -0.891762 0.301327 50.000000
3.656376 -0.904401 0.301751 63.000000
3.655519 -0.916099 0.301892 42.000000
3.655592 -0.928045 0.302104 40.000000
3.662390 -0.941737 0.302811 53.000000
3.661414 -0.953471 0.302952 43.000000
3.663295 -0.965970 0.303305 36.000000
3.663205 -0.977975 0.303517 41.000000
3.658262 -0.988689 0.303376 34.000000
3.658098 -1.000696 0.303587 38.000000
3.658856 -1.012978 0.303870 39.000000
3.653810 -1.023661 0.303729 31.000000
3.657371 -1.036768 0.304223 50.000000
3.656090 -1.048533 0.304364 52.000000
3.652857 -1.059745 0.304364 55.000000
3.650545 -1.071227 0.304435 40.000000
3.646285 -1.082139 0.304364 67.000000
3.640082 -1.092461 0.304152 74.000000
3.644350 -1.105938 0.304717 56.000000
3.641893 -1.117406 0.304788 48.000000
3.641306 -1.129460 0.305000 51.000000
3.645439 -1.143011 0.305565 38.000000
3.647622 -1.155996 0.305989 42.000000
3.647858 -1.168397 0.306271 54.000000
3.648053 -1.180811 0.306554 31.000000
3.645361 -1.192307 0.306624 32.000000
3.650211 -1.206300 0.307260 54.000000
3.649332 -1.218440 0.307472 40.000000
3.644631 -1.229311 0.307401 29.000000
3.642731 -1.241130 0.307543 39.000000
3.637019 -1.251651 0.307401 17.000000
3.740812 -0.414047 0.254249 14.000000
3.691913 -0.420099 0.251461 44.000000
3.696556 -0.432119 0.251809 33.000000
3.692240 -0.443101 0.251635 48.000000
3.691854 -0.454549 0.251693 52.000000
3.690441 -0.465873 0.251693 46.000000
3.688995 -0.477193 0.251693 60.000000
3.687514 -0.488508 0.251693 52.000000
3.685008 -0.499685 0.251635 52.000000
3.680491 -0.510576 0.251461 46.000000
3.681873 -0.522286 0.251635 65.000000
3.684205 -0.534153 0.251867 49.000000
3.683537 -0.545600 0.251925 49.000000
3.683820 -0.557197 0.252042 42.000000
3.682092 -0.568496 0.252042 64.000000
3.681317 -0.579946 0.252100 54.000000
3.684449 -0.592029 0.252390 46.000000
3.683600 -0.603492 0.252448 58.000000
3.677793 -0.614132 0.252216 50.000000
3.679828 -0.626083 0.252448 45.000000
3.678874 -0.637540 0.252506 39.000000
3.677883 -0.648997 0.252564 44.000000
3.679805 -0.660984 0.252797 31.000000
3.679724 -0.672630 0.252913 40.000000
3.683532 -0.685011 0.253261 41.000000
3.683375 -0.696680 0.253378 65.000000
3.684161 -0.708543 0.253552 42.000000
3.680990 -0.719651 0.253494 52.000000
3.675828 -0.730357 0.253320 41.000000
3.675527 -0.742026 0.253436 49.000000
3.675189 -0.753700 0.253552 44.000000
3.676769 -0.765787 0.253784 36.000000
3.677332 -0.777683 0.253958 59.000000
3.680785 -0.790219 0.254307 45.000000
3.684196 -0.802784 0.254656 43.000000
3.680741 -0.813868 0.254597 35.000000
3.682123 -0.826031 0.254830 44.000000
3.676651 -0.836659 0.254656 52.000000
3.675040 -0.848159 0.254714 44.000000
3.672420 -0.859430 0.254714 40.000000
3.669766 -0.870693 0.254714 60.000000
3.675813 -0.884049 0.255236 35.000000
3.675993 -0.896032 0.255411 47.000000
3.676135 -0.908024 0.255585 46.000000
3.681079 -0.921237 0.256050 39.000000
3.681138 -0.933263 0.256224 58.000000
3.686960 -0.946788 0.256747 33.000000
3.686936 -0.958849 0.256921 32.000000
3.681081 -0.969393 0.256747 39.000000
3.678090 -0.980681 0.256747 41.000000
3.678919 -0.993002 0.256979 38.000000
3.676818 -1.004547 0.257037 51.000000
3.674681 -1.016089 0.257095 40.000000
3.674431 -1.028165 0.257269 30.000000
3.671259 -1.039433 0.257269 50.000000
3.667093 -1.050417 0.257211 49.000000
3.667688 -1.062774 0.257444 42.000000
3.664411 -1.074021 0.257444 32.000000
3.663970 -1.086110 0.257618 30.000000
3.664446 -1.098493 0.257850 41.000000
3.663924 -1.110599 0.258025 33.000000
3.661454 -1.122127 0.258083 33.000000
3.662762 -1.134833 0.258373 44.000000
3.659263 -1.146065 0.258373 44.000000
3.660488 -1.158793 0.258664 45.000000
3.655965 -1.169713 0.258605 33.000000
3.657109 -1.182460 0.258896 40.000000
3.658208 -1.195225 0.259186 38.000000
3.664952 -1.209886 0.259825 44.000000
3.669746 -1.223968 0.260348 20.000000
3.665027 -1.234902 0.260290 39.000000
3.662166 -1.246462 0.260348 36.000000
3.662101 -1.258991 0.260580 23.000000
3.699898 -0.422895 0.207812 34.000000
3.699575 -0.434360 0.207859 39.000000
3.698225 -0.445708 0.207859 32.000000
3.699814 -0.457419 0.207997 32.000000
3.697402 -0.468642 0.207951 40.000000
3.697929 -0.480240 0.208043 34.000000
3.700399 -0.492108 0.208228 50.000000
3.690953 -0.502383 0.207859 30.000000
3.690384 -0.513842 0.207905 35.000000
3.686812 -0.524881 0.207812 55.000000
3.686173 -0.536333 0.207859 39.000000
3.687474 -0.548079 0.207997 43.000000
3.691702 -0.560287 0.208275 39.000000
3.692927 -0.572068 0.208413 59.000000
3.697075 -0.584329 0.208691 53.000000
3.683430 -0.593765 0.208136 25.000000
3.711164 -0.609913 0.209523 62.000000
3.703364 -0.620308 0.209246 25.000000
3.702428 -0.631834 0.209292 29.000000
3.699488 -0.643019 0.209246 43.000000
3.701432 -0.655061 0.209431 42.000000
3.702354 -0.666944 0.209569 32.000000
3.705204 -0.679199 0.209800 49.000000
3.704085 -0.690746 0.209847 30.000000
3.700967 -0.701921 0.209800 35.000000
3.702719 -0.714027 0.209985 41.000000
3.702472 -0.725768 0.210078 37.000000
3.691411 -0.735369 0.209662 33.000000
3.692075 -0.747285 0.209800 52.000000
3.692700 -0.759211 0.209939 27.000000
3.687420 -0.769925 0.209800 43.000000
3.686018 -0.781441 0.209847 33.000000
3.682626 -0.792536 0.209800 31.000000
3.680177 -0.803830 0.209800 39.000000
3.684521 -0.816628 0.210124 46.000000
3.683948 -0.828366 0.210217 52.000000
3.684311 -0.840330 0.210355 38.000000
3.683662 -0.852079 0.210448 40.000000
3.679086 -0.862920 0.210355 45.000000
3.681280 -0.875357 0.210586 40.000000
3.681491 -0.887349 0.210725 27.000000
3.679722 -0.898876 0.210771 43.000000
3.676947 -0.910161 0.210771 31.000000
3.679951 -0.922894 0.211049 30.000000
3.682912 -0.935653 0.211326 41.000000
3.682926 -0.947694 0.211465 30.000000
3.672268 -0.956975 0.211095 24.000000
3.677042 -0.970274 0.211465 48.000000
3.676944 -0.982323 0.211604 42.000000
3.678735 -0.994901 0.211835 43.000000
3.674701 -1.005919 0.211789 48.000000
3.682188 -1.020119 0.212297 35.000000
3.685775 -1.033297 0.212621 29.000000
3.679704 -1.043783 0.212482 42.000000
3.681286 -1.056443 0.212713 36.000000
3.675149 -1.066898 0.212574 40.000000
3.674734 -1.079011 0.212713 47.000000
3.673322 -1.090848 0.212806 38.000000
3.672828 -1.102974 0.212944 43.000000
3.671339 -1.114817 0.213037 36.000000
3.668857 -1.126368 0.213083 48.000000
3.669200 -1.138801 0.213268 41.000000
3.664736 -1.149754 0.213222 39.000000
3.664048 -1.161897 0.213360 45.000000
3.664272 -1.174351 0.213545 38.000000
3.662553 -1.186202 0.213638 38.000000
3.661744 -1.198365 0.213777 42.000000
3.666587 -1.212413 0.214193 32.000000
3.664745 -1.224289 0.214285 35.000000
3.662865 -1.236165 0.214378 34.000000
3.671348 -1.251583 0.214979 27.000000
3.669380 -1.263490 0.215071 23.000000
3.713820 -0.423248 0.162255 36.000000
3.714490 -0.434872 0.162323 20.000000
3.720084 -0.447102 0.162560 40.000000
3.719687 -0.458635 0.162593 50.000000
3.717271 -0.469919 0.162560 46.000000
3.708874 -0.480422 0.162323 33.000000
3.713327 -0.492588 0.162526 44.000000
3.707836 -0.503439 0.162390 48.000000
3.700335 -0.513987 0.162187 47.000000
3.694783 -0.524774 0.162052 54.000000
3.690188 -0.535676 0.161950 45.000000
3.684573 -0.546408 0.161815 44.000000
3.692761 -0.559207 0.162153 43.000000
3.693991 -0.570992 0.162255 40.000000
3.695184 -0.582790 0.162356 34.000000
3.722980 -0.598889 0.163372 29.000000
3.732960 -0.612250 0.163778 34.000000
3.744864 -0.626008 0.164252 34.000000
3.753763 -0.639341 0.164625 43.000000
3.766555 -0.653418 0.165132 33.000000
3.763548 -0.664797 0.165098 43.000000
3.776245 -0.678995 0.165606 39.000000
3.774145 -0.690577 0.165606 38.000000
3.773973 -0.702519 0.165674 24.000000
3.772782 -0.714280 0.165708 32.000000
3.788238 -0.729254 0.166317 33.000000
3.802656 -0.744137 0.166893 30.000000
3.808197 -0.757360 0.167164 30.000000
3.847979 -0.777556 0.168619 36.000000
3.848512 -0.789961 0.168721 34.000000
3.844114 -0.801356 0.168653 30.000000
3.854348 -0.815838 0.169093 29.000000
3.878209 -0.833330 0.170007 42.000000
3.868798 -0.843733 0.169770 34.000000
3.881804 -0.859055 0.170312 44.000000
3.879151 -0.870960 0.170312 43.000000
3.846252 -0.875975 0.169262 24.000000
3.886393 -0.897671 0.170752 51.000000
3.867078 -0.905714 0.170176 30.000000
3.863309 -0.917343 0.170143 36.000000
3.822582 -0.920066 0.168822 23.000000
3.834305 -0.935344 0.169330 25.000000
3.930378 -0.971576 0.172783 103.000000
3.869211 -0.969055 0.170752 46.000000
3.855564 -0.978216 0.170380 56.000000
3.859320 -0.991782 0.170616 56.000000
3.840785 -0.999589 0.170075 28.000000
4.120857 -1.086019 0.179994 7.000000
4.021131 -0.684682 0.124131 13.000000
4.006205 -0.694798 0.123849 14.000000
3.983378 -0.703440 0.123395 26.000000
3.965457 -0.712832 0.123049 34.000000
3.947515 -0.722121 0.122702 46.000000
3.937418 -0.732767 0.122529 41.000000
3.929257 -0.743730 0.122400 55.000000
3.926957 -0.755781 0.122400 41.000000
3.914807 -0.765909 0.122183 26.000000
3.917342 -0.778889 0.122291 48.000000
3.914934 -0.790904 0.122291 33.000000
3.912489 -0.802911 0.122291 57.000000
3.909029 -0.814707 0.122270 53.000000
3.909445 -0.827316 0.122335 51.000000
3.907866 -0.839515 0.122356 58.000000
3.906249 -0.851713 0.122378 55.000000
3.904594 -0.863909 0.122400 71.000000
3.908754 -0.877415 0.122551 67.000000
3.908968 -0.890068 0.122616 50.000000
3.913039 -0.903629 0.122767 68.000000
3.914142 -0.916540 0.122854 58.000000
3.912284 -0.928775 0.122876 52.000000
3.913305 -0.941708 0.122962 54.000000
3.911369 -0.953946 0.122984 81.000000
3.908424 -0.965941 0.122984 66.000000
3.910291 -0.979140 0.123092 40.000000
3.903392 -0.990150 0.123005 51.000000
3.906147 -1.003612 0.123135 44.000000
3.934980 -1.023890 0.123849 20.000000
3.952124 -1.041301 0.124304 5.000000
3.976308 -0.690540 0.073367 9.000000
3.941676 -0.696987 0.073062 27.000000
3.943456 -0.709786 0.073099 24.000000
3.932408 -0.720258 0.073016 32.000000
3.925265 -0.731403 0.072969 50.000000
3.920054 -0.742883 0.072942 54.000000
3.917757 -0.754906 0.072942 58.000000
3.909535 -0.765769 0.072886 42.000000
3.908148 -0.777955 0.072895 35.000000
3.904763 -0.789743 0.072886 41.000000
3.900362 -0.801316 0.072868 45.000000
3.893970 -0.812461 0.072831 33.000000
3.896351 -0.825440 0.072877 45.000000
3.896732 -0.838021 0.072905 49.000000
3.897074 -0.850612 0.072932 67.000000
3.896398 -0.862997 0.072951 30.000000
3.895684 -0.875386 0.072969 46.000000
3.898829 -0.888667 0.073025 51.000000
3.900956 -0.901751 0.073071 41.000000
3.904986 -0.915313 0.073136 39.000000
3.903132 -0.927520 0.073145 42.000000
3.901240 -0.939725 0.073154 38.000000
3.899310 -0.951926 0.073164 52.000000
3.895401 -0.963645 0.073154 48.000000
3.895336 -0.976321 0.073182 43.000000
3.900075 -0.990236 0.073256 42.000000
3.906703 -1.004688 0.073349 32.000000
3.920053 -1.020955 0.073506 26.000000
3.931405 -1.036803 0.073645 21.000000
3.946561 -1.053763 0.073821 6.000000
3.969514 -0.700996 0.022865 20.000000
3.951596 -0.710345 0.022918 29.000000
3.942512 -0.721207 0.022941 32.000000
3.921601 -0.729829 0.023004 36.000000
3.905587 -0.739257 0.023051 33.000000
3.900354 -0.750669 0.023061 40.000000
3.895089 -0.762057 0.023071 36.000000
3.893713 -0.774198 0.023067 44.000000
3.891320 -0.786140 0.023067 61.000000
3.889869 -0.798275 0.023064 45.000000
3.888381 -0.810409 0.023061 47.000000
3.888811 -0.822955 0.023051 51.000000
3.891157 -0.835931 0.023034 44.000000
3.888574 -0.847865 0.023034 45.000000
3.888884 -0.860438 0.023024 48.000000
3.887202 -0.872584 0.023021 43.000000
3.886457 -0.884949 0.023014 37.000000
3.882749 -0.896643 0.023018 47.000000
3.879006 -0.908324 0.023021 50.000000
3.872309 -0.919297 0.023034 53.000000
3.871415 -0.931640 0.023028 44.000000
3.869510 -0.943750 0.023024 59.000000
3.872422 -0.957055 0.023004 52.000000
3.875288 -0.970386 0.022985 44.000000
3.881986 -0.984727 0.022951 41.000000
3.885727 -0.998372 0.022928 35.000000
3.889421 -1.012049 0.022905 22.000000
3.895001 -1.026268 0.022875 28.000000
3.798105 -1.013238 0.023197 5.000000
3.960311 -0.698864 -0.026747 31.000000
3.946338 -0.708888 -0.026558 37.000000
3.925457 -0.717574 -0.026260 39.000000
3.921271 -0.729248 -0.026228 44.000000
3.907226 -0.739044 -0.026040 35.000000
3.901013 -0.750272 -0.025977 47.000000
3.898693 -0.762236 -0.025977 41.000000
3.892414 -0.773414 -0.025914 59.000000
3.886102 -0.784560 -0.025851 49.000000
3.883677 -0.796479 -0.025851 69.000000
3.879257 -0.807982 -0.025820 48.000000
3.877738 -0.820087 -0.025836 47.000000
3.876182 -0.832190 -0.025851 64.000000
3.873610 -0.844078 -0.025851 53.000000
3.868074 -0.855310 -0.025804 55.000000
3.867383 -0.867611 -0.025836 53.000000
3.860803 -0.878584 -0.025773 67.000000
3.857115 -0.890200 -0.025757 72.000000
3.859234 -0.903169 -0.025836 53.000000
3.858390 -0.915466 -0.025867 63.000000
3.863341 -0.929170 -0.025993 52.000000
3.868243 -0.942914 -0.026118 46.000000
3.875039 -0.957176 -0.026275 48.000000
3.883723 -0.971974 -0.026464 53.000000
3.897199 -0.988063 -0.026731 39.000000
3.924171 -1.007728 -0.027218 21.000000
3.914287 -1.018000 -0.027108 33.000000
3.939185 -1.037391 -0.027563 28.000000
3.958204 -1.055398 -0.027925 21.000000
3.956200 -0.698649 -0.074897 19.000000
3.945183 -0.709194 -0.074648 26.000000
3.933155 -0.719499 -0.074370 24.000000
3.934860 -0.732292 -0.074481 15.000000
3.903128 -0.738792 -0.073649 31.000000
3.892990 -0.749254 -0.073427 25.000000
3.888710 -0.760811 -0.073371 33.000000
3.878515 -0.771181 -0.073149 49.000000
3.868291 -0.781495 -0.072927 25.000000
3.865875 -0.793359 -0.072927 57.000000
3.861466 -0.804808 -0.072872 56.000000
3.858001 -0.816445 -0.072844 61.000000
3.856455 -0.828487 -0.072872 56.000000
3.854872 -0.840527 -0.072900 72.000000
3.855203 -0.852996 -0.072983 72.000000
3.850617 -0.864383 -0.072927 55.000000
3.846973 -0.875970 -0.072900 36.000000
3.847189 -0.888443 -0.072983 43.000000
3.847365 -0.900924 -0.073066 40.000000
3.843611 -0.912493 -0.073038 32.000000
3.845653 -0.925449 -0.073177 50.000000
3.849594 -0.938899 -0.073371 48.000000
3.856400 -0.953100 -0.073649 38.000000
3.862186 -0.967110 -0.073898 39.000000
3.873736 -0.982637 -0.074315 37.000000
3.882322 -0.997498 -0.074648 38.000000
3.896657 -1.013930 -0.075147 31.000000
3.907062 -1.029442 -0.075536 30.000000
3.934795 -1.049660 -0.076423 24.000000
4.076324 -1.100777 -0.080585 6.000000
3.984158 -0.703075 -0.126383 18.000000
3.946579 -0.708932 -0.124932 33.000000
3.932591 -0.718879 -0.124448 34.000000
3.914650 -0.728016 -0.123803 38.000000
3.901599 -0.737979 -0.123360 47.000000
3.893429 -0.748812 -0.123118 45.000000
3.880327 -0.758644 -0.122675 48.000000
3.874061 -0.769766 -0.122513 51.000000
3.867764 -0.780856 -0.122352 35.000000
3.861435 -0.791915 -0.122191 61.000000
3.855074 -0.802943 -0.122030 49.000000
3.847705 -0.813732 -0.121828 46.000000
3.841283 -0.824694 -0.121667 44.000000
3.839711 -0.836687 -0.121707 42.000000
3.833223 -0.847600 -0.121546 33.000000
3.834505 -0.860232 -0.121707 45.000000
3.833796 -0.872435 -0.121788 38.000000
3.834022 -0.884867 -0.121909 44.000000
3.835181 -0.897537 -0.122070 49.000000
3.836298 -0.910222 -0.122231 41.000000
3.841259 -0.923857 -0.122554 42.000000
3.848114 -0.938005 -0.122957 45.000000
3.860738 -0.953642 -0.123602 37.000000
3.862640 -0.966695 -0.123803 43.000000
3.868373 -0.980752 -0.124166 37.000000
3.875024 -0.995102 -0.124569 37.000000
3.885490 -1.010507 -0.125133 28.000000
3.894933 -1.025732 -0.125657 22.000000
3.930251 -0.707925 -0.172284 29.000000
3.925114 -0.719440 -0.172127 27.000000
3.914052 -0.729834 -0.171656 31.000000
3.893152 -0.738309 -0.170662 49.000000
3.885965 -0.749306 -0.170400 57.000000
3.879728 -0.760457 -0.170191 66.000000
3.873459 -0.771577 -0.169981 67.000000
3.860307 -0.781281 -0.169406 50.000000
3.852022 -0.791916 -0.169092 32.000000
3.846641 -0.803118 -0.168935 36.000000
3.841228 -0.814296 -0.168778 30.000000
3.834806 -0.825237 -0.168568 26.000000
3.830305 -0.836573 -0.168464 25.000000
3.824795 -0.847673 -0.168307 34.000000
3.823152 -0.859622 -0.168359 32.000000
3.821470 -0.871569 -0.168411 37.000000
3.819751 -0.883514 -0.168464 31.000000
3.822856 -0.896595 -0.168778 48.000000
3.829803 -0.910626 -0.169301 41.000000
3.836701 -0.924708 -0.169824 60.000000
3.841607 -0.938368 -0.170243 59.000000
3.846466 -0.952067 -0.170662 54.000000
3.845464 -0.964349 -0.170767 52.000000
3.845392 -0.976879 -0.170924 68.000000
3.846245 -0.989666 -0.171133 41.000000
3.844157 -1.001713 -0.171185 46.000000
3.845894 -1.014774 -0.171447 24.000000
3.846622 -1.027598 -0.171656 19.000000
3.890619 -0.686559 -0.218970 16.000000
3.882601 -0.697433 -0.218582 26.000000
3.880444 -0.709341 -0.218582 39.000000
3.880211 -0.721608 -0.218711 51.000000
3.876018 -0.733138 -0.218582 50.000000
3.870811 -0.744460 -0.218388 50.000000
3.868509 -0.756332 -0.218388 53.000000
3.864213 -0.767808 -0.218258 52.000000
3.857926 -0.778869 -0.218000 50.000000
3.855518 -0.790701 -0.218000 53.000000
3.852098 -0.802323 -0.217935 81.000000
3.841808 -0.812484 -0.217417 50.000000
3.840272 -0.824477 -0.217482 53.000000
3.832850 -0.835192 -0.217158 48.000000
3.837090 -0.848456 -0.217611 75.000000
3.831548 -0.859568 -0.217417 69.000000
3.824028 -0.870211 -0.217094 39.000000
3.831063 -0.884184 -0.217741 43.000000
3.830276 -0.896389 -0.217870 31.000000
3.835275 -0.909979 -0.218388 43.000000
3.838287 -0.923142 -0.218776 36.000000
3.841253 -0.936332 -0.219164 74.000000
3.842237 -0.949070 -0.219423 60.000000
3.840276 -0.961096 -0.219488 28.000000
3.841178 -0.973854 -0.219747 38.000000
3.841072 -0.986379 -0.219941 39.000000
3.843822 -0.999666 -0.220329 35.000000
3.844597 -1.012471 -0.220588 36.000000
3.846294 -1.025548 -0.220911 31.000000
3.857580 -1.041245 -0.221882 21.000000
3.878160 -0.686281 -0.264963 13.000000
3.883888 -0.699588 -0.265575 18.000000
3.883684 -0.711859 -0.265728 35.000000
3.871680 -0.721946 -0.264963 32.000000
3.858670 -0.731780 -0.264121 30.000000
3.855428 -0.743427 -0.264044 28.000000
3.846280 -0.753911 -0.263509 50.000000
3.845904 -0.766097 -0.263662 36.000000
3.844513 -0.778090 -0.263738 40.000000
3.843085 -0.790081 -0.263815 47.000000
3.841619 -0.802071 -0.263891 33.000000
3.842067 -0.814473 -0.264121 45.000000
3.841499 -0.826675 -0.264274 35.000000
3.836023 -0.837820 -0.264044 46.000000
3.827593 -0.848292 -0.263585 49.000000
3.824973 -0.860031 -0.263585 48.000000
3.823288 -0.871983 -0.263662 55.000000
3.823509 -0.884382 -0.263891 35.000000
3.822720 -0.896563 -0.264044 40.000000
3.813160 -0.906674 -0.263509 26.000000
3.820055 -0.920702 -0.264274 44.000000
3.827867 -0.935016 -0.265116 84.000000
3.824013 -0.946516 -0.265039 57.000000
3.827861 -0.959940 -0.265575 61.000000
3.831663 -0.973395 -0.266111 56.000000
3.834453 -0.986635 -0.266570 37.000000
3.842987 -1.001408 -0.267489 35.000000
3.840861 -1.013448 -0.267565 41.000000
3.839660 -1.025741 -0.267719 45.000000
3.856709 -1.042976 -0.269326 20.000000
3.908312 -1.069792 -0.273689 5.000000
3.923567 -0.681376 -0.317122 13.000000
3.903803 -0.690286 -0.315525 36.000000
3.907548 -0.703319 -0.316057 25.000000
3.879899 -0.710636 -0.313751 49.000000
3.872804 -0.721623 -0.313307 46.000000
3.856872 -0.730903 -0.312065 49.000000
3.848743 -0.741601 -0.311533 44.000000
3.844495 -0.753022 -0.311355 48.000000
3.840213 -0.764425 -0.311178 34.000000
3.839802 -0.776598 -0.311355 41.000000
3.841304 -0.789176 -0.311710 38.000000
3.842765 -0.801772 -0.312065 47.000000
3.856852 -0.817069 -0.313573 26.000000
3.852379 -0.828478 -0.313396 58.000000
3.855658 -0.841568 -0.313928 52.000000
3.852086 -0.853178 -0.313839 37.000000
3.850422 -0.865210 -0.313928 67.000000
3.850663 -0.877684 -0.314194 43.000000
3.845041 -0.888820 -0.313928 33.000000
3.846175 -0.901522 -0.314283 67.000000
3.856957 -0.916543 -0.315525 119.000000
3.842507 -0.925571 -0.314460 88.000000
3.837714 -0.936883 -0.314283 44.000000
3.834822 -0.948652 -0.314283 47.000000
3.834792 -0.961140 -0.314549 49.000000
3.833756 -0.973391 -0.314727 53.000000
3.833646 -0.985892 -0.314993 49.000000
3.835422 -0.998905 -0.315436 49.000000
3.836192 -1.011683 -0.315791 31.000000
3.839806 -1.025247 -0.316412 18.000000
3.833759 -1.036243 -0.316146 30.000000
3.912996 -0.679361 -0.366330 17.000000
3.901095 -0.689634 -0.365318 19.000000
3.884274 -0.698960 -0.363799 28.000000
3.878196 -0.710158 -0.363394 35.000000
3.865240 -0.720052 -0.362281 21.000000
3.858125 -0.730982 -0.361775 35.000000
3.850003 -0.741688 -0.361167 29.000000
3.850638 -0.754069 -0.361471 47.000000
3.848307 -0.765879 -0.361471 41.000000
3.850815 -0.778666 -0.361977 34.000000
3.855230 -0.791876 -0.362686 56.000000
3.855704 -0.804308 -0.362989 42.000000
3.864899 -0.818604 -0.364204 45.000000
3.874041 -0.832964 -0.365419 51.000000
3.871467 -0.844845 -0.365419 43.000000
3.884400 -0.860156 -0.367038 44.000000
3.891450 -0.874246 -0.368051 38.000000
3.893600 -0.887285 -0.368557 116.000000
3.889890 -0.899003 -0.368456 43.000000
3.872583 -0.907532 -0.366937 41.000000
3.861069 -0.917341 -0.366026 37.000000
3.854367 -0.928252 -0.365621 34.000000
3.841835 -0.937716 -0.364609 47.000000
3.830248 -0.947351 -0.363698 44.000000
3.829254 -0.959581 -0.363900 53.000000
3.824363 -0.970835 -0.363698 34.000000
3.825221 -0.983554 -0.364103 38.000000
3.828925 -0.997038 -0.364811 50.000000
3.826810 -1.009033 -0.364913 39.000000
3.827542 -1.021794 -0.365318 34.000000
3.851283 -1.040792 -0.368152 12.000000
