ply
format ascii 1.0
element vertex 1248
property float x
property float y
property float z
property float intensity
end_header
3.244717 -1.402541 0.632024 29.000000
3.238590 -1.411702 0.631690 34.000000
3.367891 -1.020834 0.585425 20.000000
3.360020 -1.029714 0.584650 29.000000
3.368169 -1.043527 0.586509 27.000000
3.358352 -1.051788 0.585425 26.000000
3.357935 -1.062981 0.585889 41.000000
3.353718 -1.072977 0.585734 29.000000
3.348530 -1.082653 0.585425 32.000000
3.342375 -1.092000 0.584960 40.000000
3.340886 -1.102869 0.585270 41.000000
3.334675 -1.112175 0.584805 33.000000
3.332183 -1.122716 0.584960 27.000000
3.327788 -1.132615 0.584805 29.000000
3.326166 -1.143462 0.585115 37.000000
3.320776 -1.153013 0.584805 47.000000
3.314426 -1.162215 0.584340 33.000000
3.313638 -1.173367 0.584805 32.000000
3.316535 -1.185857 0.585889 26.000000
3.311023 -1.195355 0.585579 41.000000
3.306412 -1.205169 0.585425 40.000000
3.302698 -1.215307 0.585425 34.000000
3.300807 -1.226122 0.585734 43.000000
3.300729 -1.237631 0.586354 44.000000
3.296917 -1.247752 0.586354 33.000000
3.285690 -1.255040 0.585115 43.000000
3.289199 -1.267958 0.586354 37.000000
3.284372 -1.277685 0.586199 37.000000
3.282276 -1.288477 0.586509 36.000000
3.276471 -1.297813 0.586199 36.000000
3.270639 -1.307126 0.585889 30.000000
3.269362 -1.318262 0.586354 38.000000
3.271708 -1.330893 0.587438 45.000000
3.263954 -1.339424 0.586818 34.000000
3.266219 -1.352077 0.587903 33.000000
3.260232 -1.361329 0.587593 26.000000
3.258771 -1.372476 0.588058 34.000000
3.254545 -1.382467 0.588058 35.000000
3.243932 -1.389721 0.586973 35.000000
3.236933 -1.398491 0.586509 48.000000
3.233532 -1.408810 0.586664 46.000000
3.380526 -0.979555 0.542337 9.000000
3.368006 -0.987141 0.540907 22.000000
3.364013 -0.997189 0.540764 29.000000
3.365679 -1.008924 0.541479 33.000000
3.360673 -1.018672 0.541193 37.000000
3.351854 -1.027239 0.540336 21.000000
3.364760 -1.042492 0.542766 41.000000
3.361545 -1.052810 0.542766 49.000000
3.357356 -1.062819 0.542623 45.000000
3.355022 -1.073416 0.542766 30.000000
3.348888 -1.082791 0.542337 39.000000
3.326906 -1.120964 0.541050 42.000000
3.329073 -1.133078 0.541908 47.000000
3.322773 -1.142321 0.541479 56.000000
3.318318 -1.152186 0.541336 40.000000
3.310097 -1.160725 0.540622 42.000000
3.303721 -1.169884 0.540193 56.000000
3.299185 -1.179682 0.540050 36.000000
3.293688 -1.189126 0.539764 58.000000
3.290024 -1.199225 0.539764 38.000000
3.289116 -1.210338 0.540193 58.000000
3.286315 -1.220767 0.540336 63.000000
3.285335 -1.231886 0.540764 49.000000
3.281540 -1.241959 0.540764 38.000000
3.276790 -1.251668 0.540622 28.000000
3.275705 -1.262782 0.541050 50.000000
3.274583 -1.273901 0.541479 31.000000
3.276188 -1.286110 0.542337 46.000000
3.274067 -1.296883 0.542623 40.000000
3.273750 -1.308390 0.543195 44.000000
3.271557 -1.319167 0.543481 52.000000
3.267494 -1.329198 0.543481 50.000000
3.259738 -1.337715 0.542909 35.000000
3.257447 -1.348465 0.543195 36.000000
3.250555 -1.357310 0.542766 38.000000
3.244551 -1.366508 0.542480 37.000000
3.240343 -1.376456 0.542480 46.000000
3.232465 -1.384833 0.541908 52.000000
3.227293 -1.394351 0.541765 40.000000
3.223000 -1.404246 0.541765 40.000000
3.219583 -1.414525 0.541908 33.000000
3.207988 -1.421191 0.540764 46.000000
3.231630 -1.443531 0.545197 17.000000
3.208233 -1.444910 0.542194 36.000000
3.226317 -1.464968 0.545769 20.000000
3.399840 -0.951301 0.500761 12.000000
3.384505 -0.958214 0.499057 23.000000
3.374879 -0.966682 0.498140 30.000000
3.367136 -0.975651 0.497485 34.000000
3.362224 -0.985419 0.497223 37.000000
3.362037 -0.996575 0.497616 32.000000
3.356115 -1.006031 0.497223 33.000000
3.353961 -1.016610 0.497354 52.000000
3.350826 -1.026895 0.497354 31.000000
3.351448 -1.038344 0.497878 50.000000
3.349193 -1.048918 0.498009 48.000000
3.347849 -1.059787 0.498271 39.000000
3.343638 -1.069751 0.498140 55.000000
3.341283 -1.080309 0.498271 43.000000
3.337011 -1.090247 0.498140 46.000000
3.335533 -1.101101 0.498402 38.000000
3.335901 -1.112584 0.498926 34.000000
3.332472 -1.122813 0.498926 47.000000
3.326196 -1.132073 0.498533 38.000000
3.323645 -1.142595 0.498664 46.000000
3.319187 -1.152461 0.498533 56.000000
3.318442 -1.163623 0.498926 38.000000
3.317660 -1.174792 0.499319 39.000000
3.310307 -1.183629 0.498795 47.000000
3.308524 -1.194453 0.499057 44.000000
3.306707 -1.205277 0.499319 51.000000
3.302994 -1.215416 0.499319 52.000000
3.291815 -1.222781 0.498271 29.000000
3.289905 -1.233571 0.498533 48.000000
3.286105 -1.243659 0.498533 49.000000
3.285052 -1.254796 0.498926 58.000000
3.282112 -1.265225 0.499057 39.000000
3.280063 -1.276008 0.499319 47.000000
3.281669 -1.288239 0.500106 40.000000
3.282310 -1.300127 0.500761 47.000000
3.278306 -1.310191 0.500761 40.000000
3.277029 -1.321355 0.501154 43.000000
3.271123 -1.330655 0.500892 48.000000
3.267942 -1.341061 0.501023 48.000000
3.262897 -1.350701 0.500892 50.000000
3.258737 -1.360705 0.500892 35.000000
3.254547 -1.370696 0.500892 47.000000
3.250327 -1.380675 0.500892 39.000000
3.240608 -1.388297 0.500106 42.000000
3.236334 -1.398233 0.500106 35.000000
3.224758 -1.404986 0.499057 55.000000
3.209082 -1.445268 0.499319 55.000000
3.210048 -1.457566 0.500106 42.000000
3.215477 -1.471948 0.501547 36.000000
3.206445 -1.479728 0.500892 37.000000
3.209980 -1.493323 0.502071 34.000000
3.212564 -1.506532 0.503120 29.000000
3.201653 -1.513415 0.502203 35.000000
3.230107 -1.539011 0.507051 13.000000
3.352438 -0.904263 0.450177 21.000000
3.371680 -0.920551 0.452912 44.000000
3.367883 -0.930627 0.452793 39.000000
3.371706 -0.942825 0.453626 37.000000
3.369754 -0.953434 0.453745 54.000000
3.366813 -0.963768 0.453745 37.000000
3.362886 -0.973817 0.453626 37.000000
3.362741 -0.984966 0.453983 64.000000
3.367321 -0.997532 0.454934 57.000000
3.364245 -1.007858 0.454934 69.000000
3.363988 -1.019037 0.455291 47.000000
3.362745 -1.029934 0.455529 37.000000
3.356723 -1.039366 0.455172 40.000000
3.349728 -1.048474 0.454696 50.000000
3.346496 -1.058746 0.454696 51.000000
3.334719 -1.066289 0.453626 37.000000
3.332377 -1.076820 0.453745 45.000000
3.325499 -1.119848 0.454577 53.000000
3.317348 -1.128448 0.453983 46.000000
3.315748 -1.139265 0.454220 40.000000
3.312238 -1.149432 0.454220 49.000000
3.309633 -1.159916 0.454339 59.000000
3.306994 -1.170396 0.454458 53.000000
3.305259 -1.181203 0.454696 50.000000
3.299751 -1.190665 0.454458 53.000000
3.298882 -1.201802 0.454815 50.000000
3.294247 -1.211574 0.454696 44.000000
3.290514 -1.221675 0.454696 49.000000
3.286751 -1.231764 0.454696 63.000000
3.286672 -1.243246 0.455172 53.000000
3.283770 -1.253678 0.455291 41.000000
3.284541 -1.265530 0.455885 43.000000
3.281569 -1.275960 0.456004 47.000000
3.278563 -1.286384 0.456123 43.000000
3.277371 -1.297532 0.456480 50.000000
3.270608 -1.306477 0.456123 54.000000
3.266584 -1.316505 0.456123 34.000000
3.261610 -1.326146 0.456004 45.000000
3.255689 -1.335394 0.455766 51.000000
3.248824 -1.344238 0.455410 39.000000
3.247434 -1.355345 0.455766 49.000000
3.240515 -1.364147 0.455410 40.000000
3.239056 -1.375246 0.455766 57.000000
3.233909 -1.384786 0.455648 66.000000
3.230557 -1.395094 0.455766 45.000000
3.227172 -1.405395 0.455885 47.000000
3.226482 -1.416885 0.456361 37.000000
3.223028 -1.427179 0.456480 49.000000
3.217728 -1.436655 0.456361 44.000000
3.210588 -1.445299 0.456004 49.000000
3.213373 -1.458422 0.456956 57.000000
3.213399 -1.470338 0.457550 46.000000
3.207971 -1.479774 0.457431 30.000000
3.206118 -1.490864 0.457788 28.000000
3.199730 -1.499851 0.457550 41.000000
3.197807 -1.510932 0.457907 45.000000
3.195846 -1.522016 0.458264 40.000000
3.189371 -1.530954 0.458026 34.000000
3.190023 -1.543325 0.458740 29.000000
3.183488 -1.552235 0.458502 31.000000
3.179602 -1.562432 0.458621 23.000000
3.358577 -0.872795 0.407171 15.000000
3.392421 -0.892714 0.411229 31.000000
3.394469 -0.904398 0.411762 40.000000
3.393599 -0.915326 0.411976 32.000000
3.387897 -0.924947 0.411656 35.000000
3.393669 -0.937721 0.412617 28.000000
3.383115 -0.945985 0.411762 34.000000
3.379241 -0.956089 0.411656 51.000000
3.372468 -0.965357 0.411229 50.000000
3.367581 -0.975146 0.411015 44.000000
3.363619 -0.985193 0.410908 40.000000
3.364394 -0.996638 0.411335 34.000000
3.363225 -1.007526 0.411549 62.000000
3.364876 -1.019281 0.412083 48.000000
3.365535 -1.030765 0.412510 42.000000
3.367106 -1.042556 0.413044 52.000000
3.361994 -1.052287 0.412830 43.000000
3.356854 -1.061997 0.412617 38.000000
3.350739 -1.071382 0.412296 44.000000
3.343652 -1.080433 0.411869 48.000000
3.338431 -1.090069 0.411656 44.000000
3.332239 -1.099371 0.411335 50.000000
3.324134 -1.108016 0.410801 57.000000
3.324488 -1.119479 0.411229 47.000000
3.321038 -1.129673 0.411229 50.000000
3.318497 -1.140180 0.411335 63.000000
3.316862 -1.151008 0.411549 47.000000
3.311438 -1.160521 0.411335 50.000000
3.307863 -1.170674 0.411335 50.000000
3.308000 -1.182156 0.411762 55.000000
3.300617 -1.190949 0.411335 49.000000
3.297882 -1.201410 0.411442 48.000000
3.293247 -1.211179 0.411335 43.000000
3.288584 -1.220930 0.411229 43.000000
3.287616 -1.232061 0.411549 59.000000
3.286610 -1.243197 0.411869 42.000000
3.280923 -1.252565 0.411656 55.000000
3.280776 -1.264055 0.412083 44.000000
3.274102 -1.273033 0.411762 47.000000
3.271107 -1.283435 0.411869 41.000000
3.270851 -1.294929 0.412296 48.000000
3.266864 -1.304958 0.412296 39.000000
3.266533 -1.316461 0.412724 38.000000
3.263400 -1.326851 0.412830 44.000000
3.260234 -1.337234 0.412937 51.000000
3.258872 -1.348371 0.413257 35.000000
3.255637 -1.358746 0.413364 43.000000
3.250537 -1.368342 0.413257 56.000000
3.249069 -1.379474 0.413578 56.000000
3.240252 -1.387478 0.413044 50.000000
3.238718 -1.398595 0.413364 49.000000
3.234412 -1.408525 0.413364 39.000000
3.218697 -1.448927 0.413578 42.000000
3.221479 -1.462083 0.414432 38.000000
3.216979 -1.471959 0.414432 48.000000
3.214253 -1.482655 0.414646 37.000000
3.216902 -1.495864 0.415500 43.000000
3.213197 -1.506148 0.415607 58.000000
3.210359 -1.516849 0.415820 36.000000
3.210179 -1.528829 0.416354 43.000000
3.202785 -1.537379 0.416034 40.000000
3.203423 -1.549797 0.416675 41.000000
3.199547 -1.560053 0.416781 44.000000
3.186715 -1.565915 0.415820 26.000000
3.181895 -1.575684 0.415820 26.000000
3.175267 -1.584550 0.415607 25.000000
3.174832 -1.596519 0.416141 44.000000
3.164598 -1.603554 0.415500 31.000000
3.144610 -1.605568 0.413685 10.000000
3.419563 -0.855781 0.370993 28.000000
3.406306 -0.863581 0.369948 33.000000
3.405569 -0.874522 0.370138 38.000000
3.398053 -0.883715 0.369663 49.000000
3.394363 -0.893883 0.369568 45.000000
3.393528 -0.904804 0.369758 61.000000
3.385931 -0.913916 0.369283 49.000000
3.383111 -0.924299 0.369283 55.000000
3.380259 -0.934674 0.369283 62.000000
3.378334 -0.945308 0.369378 57.000000
3.382124 -0.957564 0.370043 45.000000
3.382041 -0.968758 0.370328 57.000000
3.377141 -0.978576 0.370138 57.000000
3.374123 -0.988932 0.370138 53.000000
3.372982 -0.999844 0.370328 62.000000
3.367991 -1.009616 0.370138 61.000000
3.362020 -1.019079 0.369853 58.000000
3.355069 -1.028223 0.369473 63.000000
3.349998 -1.037923 0.369283 60.000000
3.346797 -1.048196 0.369283 56.000000
3.342617 -1.058159 0.369188 51.000000
3.337458 -1.067803 0.368998 62.000000
3.330377 -1.076813 0.368618 40.000000
3.321630 -1.119189 0.369093 54.000000
3.317238 -1.129054 0.368998 55.000000
3.314700 -1.139549 0.369093 60.000000
3.311188 -1.149713 0.369093 47.000000
3.309524 -1.160524 0.369283 51.000000
3.302194 -1.169344 0.368903 56.000000
3.299529 -1.179804 0.368998 33.000000
3.294957 -1.189584 0.368903 54.000000
3.295033 -1.201050 0.369283 49.000000
3.291333 -1.211153 0.369283 53.000000
3.289469 -1.221938 0.369473 57.000000
3.281044 -1.230278 0.368998 51.000000
3.280047 -1.241394 0.369283 43.000000
3.276223 -1.251451 0.369283 54.000000
3.273297 -1.261855 0.369378 54.000000
3.269410 -1.271891 0.369378 52.000000
3.267346 -1.282642 0.369568 33.000000
3.261544 -1.291928 0.369378 48.000000
3.262188 -1.303774 0.369853 47.000000
3.258173 -1.313776 0.369853 43.000000
3.255049 -1.324140 0.369948 60.000000
3.250971 -1.334121 0.369948 45.000000
3.247783 -1.344468 0.370043 61.000000
3.244562 -1.354810 0.370138 41.000000
3.242225 -1.365529 0.370328 51.000000
3.240770 -1.376637 0.370613 37.000000
3.233785 -1.385398 0.370328 52.000000
3.228606 -1.394918 0.370233 37.000000
3.226136 -1.405611 0.370423 49.000000
3.221809 -1.415502 0.370423 60.000000
3.219272 -1.426186 0.370613 43.000000
3.216699 -1.436867 0.370803 56.000000
3.211368 -1.446320 0.370708 61.000000
3.208729 -1.456988 0.370898 48.000000
3.205149 -1.467240 0.370993 47.000000
3.200632 -1.477066 0.370993 54.000000
3.197891 -1.487718 0.371183 36.000000
3.194213 -1.497944 0.371278 50.000000
3.187803 -1.506887 0.371088 56.000000
3.189456 -1.519655 0.371752 38.000000
3.186574 -1.530294 0.371942 34.000000
3.182760 -1.540496 0.372037 35.000000
3.180704 -1.551562 0.372322 39.000000
3.177716 -1.562191 0.372512 57.000000
3.162202 -1.566633 0.371372 26.000000
3.069192 -1.532336 0.361970 7.000000
3.433239 -0.825052 0.327034 20.000000
3.429724 -0.835345 0.326951 40.000000
3.431982 -0.847058 0.327363 40.000000
3.422600 -0.855890 0.326786 38.000000
3.420924 -0.866631 0.326869 45.000000
3.416318 -0.876627 0.326704 46.000000
3.407825 -0.885599 0.326209 56.000000
3.403165 -0.895542 0.326044 63.000000
3.396550 -0.904952 0.325714 52.000000
3.387984 -0.913811 0.325219 54.000000
3.387088 -0.924726 0.325384 44.000000
3.377511 -0.933254 0.324807 49.000000
3.375591 -0.943880 0.324890 37.000000
3.375556 -0.955046 0.325137 46.000000
3.375485 -0.966221 0.325384 42.000000
3.371547 -0.976295 0.325302 44.000000
3.369493 -0.986914 0.325384 46.000000
3.366449 -0.997247 0.325384 42.000000
3.362419 -1.007284 0.325302 58.000000
3.354544 -1.016150 0.324890 56.000000
3.349505 -1.025853 0.324725 50.000000
3.342534 -1.034945 0.324395 50.000000
3.340294 -1.045493 0.324477 53.000000
3.338971 -1.056337 0.324642 34.000000
3.335715 -1.066576 0.324642 55.000000
3.332427 -1.076805 0.324642 52.000000
3.331002 -1.087642 0.324807 55.000000
3.327650 -1.097857 0.324807 55.000000
3.319539 -1.106484 0.324395 47.000000
3.318017 -1.117300 0.324560 64.000000
3.317404 -1.128437 0.324807 57.000000
3.314869 -1.138933 0.324890 60.000000
3.316067 -1.150732 0.325302 62.000000
3.316283 -1.162219 0.325632 60.000000
3.311762 -1.172055 0.325549 42.000000
3.310966 -1.183216 0.325797 48.000000
3.304508 -1.192353 0.325549 53.000000
3.302707 -1.203168 0.325714 52.000000
3.299000 -1.213295 0.325714 53.000000
3.296196 -1.223758 0.325797 62.000000
3.289627 -1.232815 0.325549 65.000000
3.284897 -1.242549 0.325467 56.000000
3.282932 -1.253332 0.325632 55.000000
3.277211 -1.262681 0.325467 39.000000
3.271464 -1.272007 0.325302 58.000000
3.268474 -1.282402 0.325384 51.000000
3.261745 -1.291323 0.325137 46.000000
3.260544 -1.302433 0.325384 57.000000
3.261155 -1.314293 0.325797 55.000000
3.257107 -1.324292 0.325797 70.000000
3.254873 -1.335035 0.325962 62.000000
3.248920 -1.344252 0.325797 53.000000
3.241102 -1.352678 0.325467 52.000000
3.240611 -1.364162 0.325797 60.000000
3.232741 -1.372539 0.325467 49.000000
3.225767 -1.381274 0.325219 43.000000
3.224258 -1.392349 0.325467 47.000000
3.223626 -1.403827 0.325797 55.000000
3.207974 -1.444098 0.325962 54.000000
3.199899 -1.452285 0.325632 48.000000
3.192709 -1.460851 0.325384 57.000000
3.188213 -1.470640 0.325384 52.000000
3.186396 -1.481675 0.325632 36.000000
3.181836 -1.491444 0.325632 39.000000
3.179948 -1.502476 0.325879 38.000000
3.185221 -1.516939 0.326786 47.000000
3.183247 -1.527999 0.327034 36.000000
3.181235 -1.539060 0.327281 40.000000
3.141565 -1.531775 0.324065 17.000000
3.392285 -0.773198 0.281411 16.000000
3.424887 -0.791678 0.283953 36.000000
3.417586 -0.801045 0.283600 41.000000
3.413171 -0.811065 0.283459 33.000000
3.413576 -0.822233 0.283671 53.000000
3.407161 -0.831757 0.283388 43.000000
3.408467 -0.843163 0.283671 49.000000
3.401994 -0.852647 0.283388 53.000000
3.400329 -0.863325 0.283459 57.000000
3.399596 -0.874250 0.283600 51.000000
3.394002 -0.883922 0.283388 50.000000
3.390310 -0.894076 0.283318 49.000000
3.383695 -0.903446 0.283035 49.000000
3.378018 -0.913042 0.282823 46.000000
3.372315 -0.922613 0.282611 41.000000
3.372352 -0.933752 0.282823 52.000000
3.376196 -0.945976 0.283318 39.000000
3.374238 -0.956601 0.283388 53.000000
3.372246 -0.967223 0.283459 66.000000
3.371179 -0.978120 0.283600 53.000000
3.366248 -0.987897 0.283459 69.000000
3.362245 -0.997936 0.283388 73.000000
3.360123 -1.008533 0.283459 57.000000
3.354149 -1.017969 0.283247 43.000000
3.353872 -1.029132 0.283459 50.000000
3.347840 -1.038531 0.283247 57.000000
3.344638 -1.048797 0.283247 47.000000
3.338552 -1.058150 0.283035 42.000000
3.332439 -1.067475 0.282823 51.000000
3.327250 -1.077080 0.282682 34.000000
3.310001 -1.116556 0.282399 54.000000
3.307504 -1.127027 0.282470 55.000000
3.308748 -1.138790 0.282823 41.000000
3.309950 -1.150572 0.283176 41.000000
3.306405 -1.160722 0.283176 47.000000
3.306589 -1.172192 0.283459 52.000000
3.305795 -1.183338 0.283671 42.000000
3.300272 -1.192797 0.283529 54.000000
3.297535 -1.203259 0.283600 43.000000
3.288211 -1.211303 0.283176 50.000000
3.283544 -1.221038 0.283106 43.000000
3.279783 -1.231106 0.283106 43.000000
3.275057 -1.240809 0.283035 39.000000
3.271235 -1.250851 0.283035 39.000000
3.267382 -1.260881 0.283035 45.000000
3.267217 -1.272346 0.283318 55.000000
3.267012 -1.283822 0.283600 43.000000
3.262131 -1.293471 0.283529 53.000000
3.261852 -1.304954 0.283812 50.000000
3.255983 -1.314209 0.283671 40.000000
3.253783 -1.324944 0.283812 43.000000
3.252472 -1.336056 0.284024 43.000000
3.242828 -1.343739 0.283600 46.000000
3.241452 -1.354835 0.283812 40.000000
3.238199 -1.365160 0.283883 51.000000
3.232159 -1.374308 0.283741 48.000000
3.232512 -1.386182 0.284094 38.000000
3.228244 -1.396093 0.284094 34.000000
3.221202 -1.404795 0.283883 50.000000
3.220530 -1.416276 0.284165 49.000000
3.218906 -1.427362 0.284377 39.000000
3.219066 -1.439265 0.284730 33.000000
3.207359 -1.445857 0.284165 44.000000
3.202000 -1.455278 0.284094 31.000000
3.196613 -1.464679 0.284024 45.000000
3.198444 -1.477405 0.284518 35.000000
3.191183 -1.485949 0.284306 33.000000
3.184803 -1.494885 0.284165 40.000000
3.193729 -1.511044 0.285224 27.000000
3.243109 -1.546579 0.289462 7.000000
3.418887 -0.744945 0.238856 14.000000
3.439004 -0.760390 0.240192 37.000000
3.438603 -0.771374 0.240308 37.000000
3.434274 -0.781477 0.240192 34.000000
3.426996 -0.790887 0.239901 47.000000
3.424554 -0.801397 0.239901 34.000000
3.419165 -0.811208 0.239727 45.000000
3.409866 -0.820059 0.239321 48.000000
3.408304 -0.830753 0.239379 46.000000
3.404770 -0.840966 0.239321 44.000000
3.399269 -0.850680 0.239146 57.000000
3.391805 -0.859878 0.238856 56.000000
3.386250 -0.869535 0.238682 47.000000
3.383566 -0.879919 0.238682 51.000000
3.383747 -0.891059 0.238856 43.000000
3.374245 -0.899635 0.238449 34.000000
3.379179 -0.912065 0.238914 63.000000
3.375402 -0.922164 0.238856 46.000000
3.377368 -0.933846 0.239146 54.000000
3.374487 -0.944204 0.239146 47.000000
3.373496 -0.955096 0.239263 68.000000
3.368630 -0.964891 0.239146 41.000000
3.360860 -0.973832 0.238856 45.000000
3.357857 -0.984138 0.238856 48.000000
3.355779 -0.994719 0.238914 46.000000
3.350799 -1.004436 0.238798 50.000000
3.349612 -1.015291 0.238914 59.000000
3.337891 -1.022929 0.238391 32.000000
3.341412 -1.035234 0.238798 70.000000
3.343936 -1.047271 0.239146 51.000000
3.339756 -1.057224 0.239088 37.000000
3.333644 -1.066552 0.238914 57.000000
3.334156 -1.078003 0.239146 44.000000
3.327037 -1.086987 0.238914 49.000000
3.322738 -1.096876 0.238856 61.000000
3.322199 -1.108013 0.239030 50.000000
3.315946 -1.117243 0.238856 62.000000
3.316283 -1.128698 0.239088 50.000000
3.317524 -1.140490 0.239379 57.000000
3.312124 -1.150008 0.239263 53.000000
3.315174 -1.162477 0.239669 40.000000
3.309710 -1.171976 0.239553 64.000000
3.306099 -1.182124 0.239553 62.000000
3.300579 -1.191583 0.239437 48.000000
3.294094 -1.200678 0.239263 60.000000
3.289458 -1.210434 0.239204 51.000000
3.285729 -1.220520 0.239204 51.000000
3.281969 -1.230595 0.239204 76.000000
3.275377 -1.239597 0.239030 65.000000
3.269694 -1.248927 0.238914 46.000000
3.270504 -1.260749 0.239204 58.000000
3.268481 -1.271501 0.239321 57.000000
3.267353 -1.282617 0.239495 53.000000
3.268971 -1.294842 0.239843 50.000000
3.266837 -1.305606 0.239960 58.000000
3.264668 -1.316369 0.240076 56.000000
3.257840 -1.325250 0.239901 53.000000
3.250988 -1.334101 0.239727 60.000000
3.245035 -1.343305 0.239611 58.000000
3.238135 -1.352100 0.239437 47.000000
3.233052 -1.361640 0.239379 55.000000
3.227021 -1.370772 0.239263 48.000000
3.224636 -1.381452 0.239379 50.000000
3.225881 -1.393715 0.239727 46.000000
3.221590 -1.403605 0.239727 46.000000
3.219596 -1.450004 0.240715 54.000000
3.217860 -1.461114 0.240889 53.000000
3.211546 -1.470148 0.240773 56.000000
3.252341 -1.500914 0.243677 20.000000
3.421429 -0.714472 0.197225 19.000000
3.425085 -0.726207 0.197502 43.000000
3.425771 -0.737341 0.197641 55.000000
3.430324 -0.749338 0.197964 49.000000
3.425083 -0.759211 0.197826 32.000000
3.426637 -0.770591 0.198011 56.000000
3.419387 -0.779991 0.197779 40.000000
3.416977 -0.790477 0.197779 36.000000
3.417454 -0.801640 0.197918 54.000000
3.416922 -0.812583 0.198011 43.000000
3.410529 -0.822127 0.197826 45.000000
3.411872 -0.833533 0.198011 70.000000
3.407359 -0.843517 0.197918 54.000000
3.404755 -0.853967 0.197918 36.000000
3.399215 -0.863672 0.197779 57.000000
3.390744 -0.872604 0.197502 51.000000
3.383217 -0.881745 0.197271 47.000000
3.379530 -0.891866 0.197225 40.000000
3.373883 -0.901457 0.197086 62.000000
3.373030 -0.912325 0.197178 47.000000
3.372142 -0.923196 0.197271 46.000000
3.369294 -0.933537 0.197271 47.000000
3.365452 -0.943600 0.197225 49.000000
3.362541 -0.953921 0.197225 46.000000
3.357678 -0.963682 0.197132 54.000000
3.353747 -0.973700 0.197086 43.000000
3.350744 -0.983985 0.197086 60.000000
3.347709 -0.994260 0.197086 40.000000
3.344643 -1.004526 0.197086 60.000000
3.342501 -1.015073 0.197132 47.000000
3.340327 -1.025615 0.197178 52.000000
3.339072 -1.036450 0.197271 55.000000
3.334924 -1.046391 0.197225 47.000000
3.331698 -1.056617 0.197225 41.000000
3.328440 -1.066834 0.197225 64.000000
3.325152 -1.077040 0.197225 50.000000
3.316417 -1.119359 0.197456 50.000000
3.313913 -1.129851 0.197502 41.000000
3.313265 -1.140987 0.197641 31.000000
3.306918 -1.150163 0.197502 35.000000
3.294891 -1.157327 0.197086 48.000000
3.291324 -1.167430 0.197086 56.000000
3.286787 -1.177186 0.197040 66.000000
3.287857 -1.188961 0.197271 46.000000
3.287948 -1.200411 0.197456 41.000000
3.287999 -1.211873 0.197641 43.000000
3.285202 -1.222303 0.197687 47.000000
3.282372 -1.232727 0.197733 46.000000
3.273904 -1.241023 0.197502 42.000000
3.267282 -1.249991 0.197363 53.000000
3.260635 -1.258931 0.197225 50.000000
3.256758 -1.268928 0.197225 51.000000
3.254709 -1.279644 0.197317 52.000000
3.256339 -1.291832 0.197594 38.000000
3.256071 -1.303300 0.197779 65.000000
3.255763 -1.314778 0.197964 51.000000
3.251714 -1.324761 0.197964 40.000000
3.247634 -1.334730 0.197964 48.000000
3.245370 -1.345452 0.198057 49.000000
3.238461 -1.354247 0.197918 49.000000
3.236133 -1.364952 0.198011 41.000000
3.231930 -1.374874 0.198011 39.000000
3.228615 -1.385177 0.198057 48.000000
3.227101 -1.396264 0.198195 38.000000
3.228296 -1.408553 0.198473 36.000000
3.229446 -1.420863 0.198750 32.000000
3.224159 -1.430359 0.198704 37.000000
3.241643 -1.450026 0.199814 26.000000
3.271787 -1.475559 0.201571 16.000000
3.288163 -1.495093 0.202634 6.000000
3.452218 -0.697544 0.154943 34.000000
3.453977 -0.708936 0.155078 41.000000
3.451786 -0.719530 0.155078 36.000000
3.447607 -0.729702 0.155010 33.000000
3.442420 -0.739646 0.154909 58.000000
3.438182 -0.749777 0.154841 50.000000
3.435866 -0.760322 0.154841 57.000000
3.432542 -0.770640 0.154807 44.000000
3.424315 -0.779836 0.154604 58.000000
3.420933 -0.790112 0.154570 49.000000
3.419465 -0.800832 0.154604 38.000000
3.416020 -0.811088 0.154570 47.000000
3.414487 -0.821798 0.154604 60.000000
3.413892 -0.832744 0.154672 55.000000
3.406470 -0.842014 0.154503 63.000000
3.406779 -0.853190 0.154604 44.000000
3.404145 -0.863638 0.154604 49.000000
3.397608 -0.873082 0.154469 58.000000
3.393946 -0.883250 0.154435 55.000000
3.391220 -0.893658 0.154435 46.000000
3.387497 -0.903800 0.154401 47.000000
3.389533 -0.915492 0.154570 43.000000
3.383816 -0.925096 0.154469 54.000000
3.384815 -0.936539 0.154604 50.000000
3.382888 -0.947189 0.154638 46.000000
3.378043 -0.957018 0.154570 61.000000
3.373169 -0.966826 0.154503 64.000000
3.366348 -0.976057 0.154367 70.000000
3.361419 -0.985817 0.154299 42.000000
3.357421 -0.995841 0.154266 43.000000
3.352436 -1.005562 0.154198 43.000000
3.354116 -1.017293 0.154367 44.000000
3.350024 -1.027286 0.154333 52.000000
3.345902 -1.037263 0.154299 56.000000
3.342704 -1.047523 0.154299 57.000000
3.334711 -1.056264 0.154130 61.000000
3.330503 -1.066185 0.154096 51.000000
3.327216 -1.076398 0.154096 60.000000
3.321049 -1.085668 0.153995 69.000000
3.317702 -1.095852 0.153995 60.000000
3.316221 -1.106658 0.154062 48.000000
3.311862 -1.116508 0.154029 53.000000
3.310314 -1.127308 0.154096 60.000000
3.305895 -1.137133 0.154062 46.000000
3.302390 -1.147270 0.154062 60.000000
3.299798 -1.157727 0.154096 60.000000
3.293405 -1.166844 0.153995 56.000000
3.290751 -1.177279 0.154029 59.000000
3.290883 -1.188728 0.154164 52.000000
3.288159 -1.199161 0.154198 47.000000
3.284465 -1.209244 0.154198 48.000000
3.281676 -1.219663 0.154232 60.000000
3.274176 -1.228320 0.154096 63.000000
3.270392 -1.238360 0.154096 55.000000
3.264710 -1.247674 0.154029 48.000000
3.257138 -1.256245 0.153893 49.000000
3.257925 -1.268045 0.154062 52.000000
3.256810 -1.279130 0.154164 53.000000
3.254729 -1.289852 0.154232 57.000000
3.252612 -1.300574 0.154299 49.000000
3.248606 -1.310547 0.154299 49.000000
3.246422 -1.321261 0.154367 70.000000
3.246051 -1.332734 0.154503 45.000000
3.239177 -1.341538 0.154401 50.000000
3.235046 -1.351470 0.154401 47.000000
3.233647 -1.362553 0.154503 51.000000
3.229452 -1.372467 0.154503 32.000000
3.229818 -1.384338 0.154672 49.000000
3.225556 -1.394240 0.154672 50.000000
3.219431 -1.403330 0.154604 45.000000
3.448602 -0.685831 0.111947 14.000000
3.461182 -0.699374 0.112272 32.000000
3.461958 -0.710591 0.112337 35.000000
3.458783 -0.721005 0.112315 34.000000
3.460467 -0.732440 0.112402 44.000000
3.458204 -0.743053 0.112402 29.000000
3.450047 -0.752383 0.112272 36.000000
3.447722 -0.762964 0.112272 35.000000
3.439512 -0.772226 0.112142 39.000000
3.433227 -0.781888 0.112055 62.000000
3.427890 -0.791743 0.111990 44.000000
3.423497 -0.801801 0.111947 43.000000
3.415185 -0.810916 0.111817 60.000000
3.409764 -0.820689 0.111752 48.000000
3.408202 -0.831383 0.111774 56.000000
3.405635 -0.841835 0.111774 49.000000
3.407886 -0.853492 0.111882 44.000000
3.406221 -0.864189 0.111904 54.000000
3.406459 -0.875381 0.111969 54.000000
3.402789 -0.885576 0.111947 47.000000
3.400056 -0.896012 0.111947 51.000000
3.391495 -0.904894 0.111817 46.000000
3.384842 -0.914253 0.111731 51.000000
3.374305 -0.922527 0.111558 54.000000
3.370496 -0.932608 0.111536 62.000000
3.366656 -0.942675 0.111514 53.000000
3.365672 -0.953544 0.111558 56.000000
3.362731 -0.963865 0.111558 72.000000
3.359757 -0.974178 0.111558 44.000000
3.359631 -0.985324 0.111623 39.000000
3.355634 -0.995342 0.111601 50.000000
3.351607 -1.005346 0.111579 48.000000
3.349463 -1.015913 0.111601 60.000000
3.341551 -1.024721 0.111493 57.000000
3.336482 -1.034376 0.111449 50.000000
3.334247 -1.044906 0.111471 62.000000
3.325306 -1.053321 0.111341 56.000000
3.323963 -1.064127 0.111385 67.000000
3.319732 -1.074012 0.111363 48.000000
3.306302 -1.114669 0.111363 60.000000
3.306653 -1.126096 0.111449 47.000000
3.303182 -1.136235 0.111449 49.000000
3.298736 -1.146036 0.111428 56.000000
3.290487 -1.154498 0.111320 43.000000
3.291642 -1.166255 0.111428 50.000000
3.285224 -1.175339 0.111363 67.000000
3.275961 -1.183376 0.111233 38.000000
3.277951 -1.195474 0.111363 64.000000
3.276145 -1.206216 0.111406 59.000000
3.274303 -1.216957 0.111449 66.000000
3.275235 -1.228751 0.111558 58.000000
3.271450 -1.238793 0.111558 48.000000
3.269502 -1.249538 0.111601 47.000000
3.269384 -1.261000 0.111688 48.000000
3.270159 -1.272836 0.111796 44.000000
3.261585 -1.281037 0.111688 43.000000
3.255781 -1.290301 0.111644 54.000000
3.253664 -1.301026 0.111688 34.000000
3.246875 -1.309880 0.111623 58.000000
3.248398 -1.322095 0.111752 44.000000
3.248026 -1.333573 0.111839 31.000000
3.241148 -1.342384 0.111774 41.000000
3.244396 -1.355402 0.111947 40.000000
3.248515 -1.368841 0.112142 27.000000
3.236938 -1.375675 0.111969 37.000000
3.253841 -1.394651 0.112467 10.000000
3.453545 -0.753758 0.068733 23.000000
3.442430 -0.762403 0.068650 27.000000
3.435197 -0.771864 0.068603 29.000000
3.425013 -0.780621 0.068529 40.000000
3.420654 -0.790674 0.068511 41.000000
3.416265 -0.800708 0.068492 41.000000
3.405036 -0.809104 0.068409 40.000000
3.398650 -0.818610 0.068372 58.000000
3.397094 -0.829270 0.068381 46.000000
3.395504 -0.839928 0.068391 50.000000
3.399701 -0.852044 0.068455 59.000000
3.394163 -0.861732 0.068428 52.000000
3.393440 -0.872639 0.068446 38.000000
3.391715 -0.883298 0.068455 61.000000
3.391890 -0.894465 0.068483 52.000000
3.389129 -0.904867 0.068483 53.000000
3.383441 -0.914477 0.068455 58.000000
3.373869 -0.923005 0.068391 77.000000
3.381621 -0.936288 0.068492 39.000000
3.374882 -0.945579 0.068455 71.000000
3.375813 -0.957020 0.068492 70.000000
3.369016 -0.966269 0.068455 57.000000
3.365075 -0.976321 0.068446 69.000000
3.357267 -0.985232 0.068400 60.000000
3.350394 -0.994389 0.068363 52.000000
3.339666 -1.002363 0.068289 53.000000
3.331791 -1.011152 0.068243 55.000000
3.328673 -1.021369 0.068243 72.000000
3.327434 -1.032169 0.068261 48.000000
3.327114 -1.043270 0.068289 57.000000
3.328664 -1.054984 0.068335 59.000000
3.322555 -1.064276 0.068307 59.000000
3.319273 -1.074464 0.068307 80.000000
3.314061 -1.084020 0.068289 81.000000
3.308821 -1.093555 0.068270 84.000000
3.307347 -1.104335 0.068289 73.000000
3.303943 -1.114476 0.068289 63.000000
3.306187 -1.126543 0.068344 48.000000
3.303661 -1.137007 0.068354 68.000000
3.302991 -1.148122 0.068381 74.000000
3.298510 -1.157919 0.068372 67.000000
3.296827 -1.168701 0.068391 53.000000
3.290401 -1.177799 0.068363 77.000000
3.289593 -1.188908 0.068391 76.000000
3.289688 -1.200367 0.068428 63.000000
3.285051 -1.210108 0.068418 55.000000
3.283198 -1.220878 0.068437 56.000000
3.282245 -1.231999 0.068465 62.000000
3.274710 -1.240646 0.068428 58.000000
3.276492 -1.252830 0.068483 45.000000
3.271700 -1.262516 0.068474 80.000000
3.265948 -1.271822 0.068455 52.000000
3.258308 -1.280372 0.068418 53.000000
3.255294 -1.290731 0.068428 48.000000
3.248533 -1.299598 0.068400 54.000000
3.244531 -1.309558 0.068400 53.000000
3.241424 -1.319883 0.068409 38.000000
3.236435 -1.329441 0.068400 59.000000
3.233265 -1.339747 0.068409 49.000000
3.406750 -0.797884 0.024629 25.000000
3.395529 -0.806256 0.024659 35.000000
3.394012 -0.816903 0.024656 45.000000
3.393433 -0.827785 0.024649 49.000000
3.390877 -0.838193 0.024649 32.000000
3.391200 -0.849319 0.024639 40.000000
3.388578 -0.859720 0.024639 40.000000
3.385925 -0.870112 0.024639 52.000000
3.380336 -0.879741 0.024649 57.000000
3.377621 -0.890107 0.024649 52.000000
3.373908 -0.900208 0.024653 57.000000
3.372096 -0.910815 0.024649 42.000000
3.369286 -0.921156 0.024649 50.000000
3.371263 -0.932821 0.024633 47.000000
3.371274 -0.943967 0.024623 57.000000
3.372211 -0.955395 0.024609 50.000000
3.365419 -0.964635 0.024623 45.000000
3.359562 -0.974121 0.024633 50.000000
3.352719 -0.983299 0.024646 48.000000
3.352563 -0.994432 0.024636 71.000000
3.342791 -1.002704 0.024659 53.000000
3.342570 -1.013825 0.024649 55.000000
3.336575 -1.023196 0.024659 45.000000
3.341063 -1.035794 0.024633 69.000000
3.333097 -1.044546 0.024649 57.000000
3.332737 -1.055672 0.024639 62.000000
3.329483 -1.065892 0.024639 100.000000
3.326197 -1.076102 0.024639 93.000000
3.322880 -1.086301 0.024639 96.000000
3.308003 -1.115242 0.024656 97.000000
3.301726 -1.124420 0.024666 75.000000
3.299206 -1.134869 0.024662 86.000000
3.294764 -1.144657 0.024666 93.000000
3.291237 -1.154760 0.024666 63.000000
3.289564 -1.165519 0.024659 68.000000
3.287856 -1.176279 0.024653 60.000000
3.282350 -1.185682 0.024659 71.000000
3.283395 -1.197458 0.024643 53.000000
3.278768 -1.207181 0.024646 48.000000
3.279736 -1.218974 0.024629 37.000000
3.275044 -1.228680 0.024633 54.000000
3.268453 -1.237660 0.024643 54.000000
3.262773 -1.246969 0.024649 68.000000
3.260798 -1.257692 0.024643 40.000000
3.255992 -1.267327 0.024646 48.000000
3.273499 -1.285712 0.024570 34.000000
3.290924 -1.304215 0.024493 29.000000
3.271120 -1.307999 0.024550 39.000000
3.422911 -1.380830 0.023993 13.000000
3.376047 -1.373999 0.024145 21.000000
3.407484 -0.852737 -0.018752 31.000000
3.400005 -0.861958 -0.018673 56.000000
3.403156 -0.873878 -0.018767 39.000000
3.383041 -0.879783 -0.018485 75.000000
3.383226 -0.890922 -0.018532 67.000000
3.380477 -0.901297 -0.018532 84.000000
3.376731 -0.911403 -0.018516 52.000000
3.377777 -0.922813 -0.018579 40.000000
3.374930 -0.933172 -0.018579 60.000000
3.370125 -0.942982 -0.018547 60.000000
3.368178 -0.953590 -0.018563 50.000000
3.363314 -0.963368 -0.018532 57.000000
3.357462 -0.972847 -0.018485 65.000000
3.346786 -0.980892 -0.018359 54.000000
3.349512 -0.992861 -0.018453 92.000000
3.345493 -1.002845 -0.018437 76.000000
3.342400 -1.013104 -0.018437 84.000000
3.342144 -1.024233 -0.018485 96.000000
3.341851 -1.035370 -0.018532 119.000000
3.338659 -1.045618 -0.018532 87.000000
3.337342 -1.056459 -0.018563 88.000000
3.336942 -1.067608 -0.018610 150.000000
3.334602 -1.078148 -0.018626 114.000000
3.324626 -1.086199 -0.018516 143.000000
3.322227 -1.096707 -0.018532 108.000000
3.313156 -1.104996 -0.018437 84.000000
3.309751 -1.115155 -0.018437 100.000000
3.304421 -1.124659 -0.018406 94.000000
3.299064 -1.134142 -0.018375 92.000000
3.293679 -1.143602 -0.018343 82.000000
3.292043 -1.154363 -0.018375 83.000000
3.292256 -1.165793 -0.018437 73.000000
3.289605 -1.176225 -0.018453 86.000000
3.287862 -1.186991 -0.018485 93.000000
3.285144 -1.197415 -0.018500 73.000000
3.278640 -1.206451 -0.018453 68.000000
3.273986 -1.216156 -0.018437 63.000000
3.272112 -1.226897 -0.018469 46.000000
3.270203 -1.237638 -0.018500 44.000000
3.264522 -1.246951 -0.018469 63.000000
3.288669 -1.267753 -0.018940 37.000000
3.299673 -1.283639 -0.019191 45.000000
3.342253 -1.312029 -0.019977 36.000000
3.435817 -1.360951 -0.021626 40.000000
3.462264 -1.383734 -0.022144 54.000000
3.470984 -1.399586 -0.022364 31.000000
3.487049 -1.418519 -0.022710 36.000000
3.372763 -0.855713 -0.059969 16.000000
3.390455 -0.871274 -0.060552 39.000000
3.387766 -0.881672 -0.060552 40.000000
3.380212 -0.890789 -0.060413 33.000000
3.383258 -0.902699 -0.060580 36.000000
3.380473 -0.913075 -0.060580 58.000000
3.380549 -0.924232 -0.060663 36.000000
3.370953 -0.932735 -0.060469 47.000000
3.372889 -0.944418 -0.060608 29.000000
3.359395 -0.951768 -0.060302 45.000000
3.357420 -0.962345 -0.060330 37.000000
3.347731 -0.970695 -0.060136 46.000000
3.341859 -0.980118 -0.060053 55.000000
3.337878 -0.990082 -0.060025 52.000000
3.331952 -0.999457 -0.059942 54.000000
3.325043 -1.008515 -0.059831 43.000000
3.331491 -1.021639 -0.060108 66.000000
3.332161 -1.033038 -0.060219 93.000000
3.329930 -1.043555 -0.060247 155.000000
3.328619 -1.054369 -0.060302 187.000000
3.325368 -1.064576 -0.060302 202.000000
3.320184 -1.074158 -0.060247 217.000000
3.314973 -1.083719 -0.060191 228.000000
3.315429 -1.095137 -0.060302 223.000000
3.312054 -1.105303 -0.060302 209.000000
3.308647 -1.115459 -0.060302 163.000000
3.300478 -1.123995 -0.060164 127.000000
3.300796 -1.135415 -0.060275 170.000000
3.289742 -1.142915 -0.060053 139.000000
3.287163 -1.153332 -0.060080 109.000000
3.286436 -1.164412 -0.060164 91.000000
3.281907 -1.174153 -0.060136 80.000000
3.280170 -1.184895 -0.060191 49.000000
3.252100 -1.186056 -0.059470 17.000000
3.275652 -1.206035 -0.060275 42.000000
3.292553 -1.223733 -0.060885 29.000000
3.298144 -1.237337 -0.061162 45.000000
3.321446 -1.257707 -0.061967 44.000000
3.358662 -1.283579 -0.063188 25.000000
3.396682 -1.310050 -0.064437 17.000000
3.435503 -1.337129 -0.065713 47.000000
3.462093 -1.359712 -0.066629 37.000000
3.476494 -1.377687 -0.067184 29.000000
3.488960 -1.395021 -0.067683 37.000000
3.508769 -1.415434 -0.068404 21.000000
3.505336 -1.426569 -0.068432 34.000000
3.506492 -1.439592 -0.068599 9.000000
3.349524 -0.948306 -0.103610 55.000000
3.343717 -0.957752 -0.103489 46.000000
3.340763 -0.968006 -0.103489 45.000000
3.340654 -0.979094 -0.103610 43.000000
3.340508 -0.990191 -0.103731 42.000000
3.337454 -1.000435 -0.103731 53.000000
3.340107 -1.012409 -0.103972 37.000000
3.337940 -1.022944 -0.104013 70.000000
3.333832 -1.032884 -0.103972 94.000000
3.325880 -1.041614 -0.103771 106.000000
3.325526 -1.052718 -0.103892 102.000000
3.318474 -1.061697 -0.103731 124.000000
3.309497 -1.070028 -0.103489 147.000000
3.313797 -1.082659 -0.103811 235.000000
3.317101 -1.095014 -0.104093 287.000000
3.310883 -1.104237 -0.103972 212.000000
3.307480 -1.114390 -0.103972 225.000000
3.313504 -1.127752 -0.104375 181.000000
3.313808 -1.139212 -0.104537 157.000000
3.308409 -1.148718 -0.104456 116.000000
3.299212 -1.156878 -0.104214 82.000000
3.292822 -1.165993 -0.104093 65.000000
3.294874 -1.178109 -0.104335 57.000000
3.303461 -1.192624 -0.104859 51.000000
3.311990 -1.207203 -0.105383 63.000000
3.332651 -1.226333 -0.106431 42.000000
3.368211 -1.251169 -0.108124 42.000000
3.397100 -1.273778 -0.109535 43.000000
3.409062 -1.290209 -0.110220 31.000000
3.431222 -1.310647 -0.111348 46.000000
3.441170 -1.326560 -0.111953 35.000000
3.458500 -1.345446 -0.112880 34.000000
3.471097 -1.362624 -0.113606 51.000000
3.477118 -1.377315 -0.114049 44.000000
3.479371 -1.390573 -0.114331 30.000000
3.480648 -1.403483 -0.114573 31.000000
3.327379 -0.999347 -0.145070 44.000000
3.326208 -1.010130 -0.145174 32.000000
3.328822 -1.022087 -0.145488 48.000000
3.326624 -1.032591 -0.145541 48.000000
3.323441 -1.042792 -0.145541 41.000000
3.314514 -1.051174 -0.145227 57.000000
3.311273 -1.061337 -0.145227 229.000000
3.313703 -1.073336 -0.145541 768.000000
3.349311 -1.096220 -0.147686 1536.000000
3.352569 -1.108683 -0.148053 1801.000000
3.345363 -1.117699 -0.147843 1555.000000
3.300282 -1.113919 -0.145541 696.000000
3.294958 -1.123395 -0.145436 221.000000
3.292440 -1.133823 -0.145488 55.000000
3.300266 -1.147852 -0.146116 42.000000
3.306152 -1.161278 -0.146640 48.000000
3.317634 -1.176752 -0.147477 55.000000
3.343157 -1.197354 -0.149099 41.000000
3.394882 -1.227623 -0.152187 33.000000
3.408925 -1.244534 -0.153182 33.000000
3.430393 -1.264302 -0.154595 42.000000
3.445219 -1.281779 -0.155641 43.000000
3.455295 -1.297605 -0.156426 61.000000
3.440091 -1.303956 -0.155798 31.000000
3.456597 -1.322347 -0.156950 54.000000
3.462772 -1.336899 -0.157526 78.000000
3.456793 -1.346791 -0.157421 61.000000
3.465658 -1.362502 -0.158154 26.000000
3.460533 -1.372760 -0.158101 35.000000
3.456306 -1.383370 -0.158101 45.000000
3.461306 -1.397704 -0.158625 31.000000
3.460702 -1.409822 -0.158834 15.000000
3.460979 -1.422329 -0.159096 17.000000
3.500637 -1.072824 -0.200205 29.000000
3.485890 -1.080013 -0.199429 36.000000
3.465420 -1.085333 -0.198264 45.000000
3.403091 -1.077281 -0.194252 32.000000
3.373158 -1.079199 -0.192441 47.000000
3.341347 -1.080329 -0.190499 49.000000
3.335171 -1.089646 -0.190305 42.000000
3.322337 -1.096743 -0.189658 39.000000
3.323690 -1.108510 -0.189982 27.000000
3.316491 -1.117427 -0.189723 49.000000
3.329106 -1.133064 -0.190823 42.000000
3.327501 -1.143921 -0.190952 46.000000
3.348485 -1.162637 -0.192635 38.000000
3.391044 -1.189090 -0.195805 52.000000
3.467334 -1.227810 -0.201305 93.000000
3.422208 -1.223654 -0.198458 44.000000
3.443779 -1.243300 -0.200205 53.000000
3.445574 -1.255910 -0.200594 47.000000
3.449196 -1.269233 -0.201111 42.000000
3.449963 -1.281547 -0.201435 56.000000
3.448818 -1.293177 -0.201629 54.000000
3.446701 -1.304458 -0.201758 78.000000
3.446411 -1.316451 -0.202017 71.000000
3.445149 -1.328095 -0.202211 44.000000
3.448498 -1.341554 -0.202729 62.000000
3.451797 -1.355045 -0.203247 65.000000
3.455973 -1.368937 -0.203829 56.000000
3.456390 -1.381386 -0.204152 49.000000
3.459540 -1.394969 -0.204670 52.000000
3.458016 -1.406705 -0.204864 41.000000
3.439837 -1.411623 -0.203894 23.000000
3.563375 -1.082069 -0.248506 15.000000
3.560039 -1.092996 -0.248506 24.000000
3.563335 -1.105980 -0.249042 19.000000
3.531382 -1.107961 -0.246745 37.000000
3.512758 -1.113972 -0.245520 49.000000
3.494131 -1.119880 -0.244296 52.000000
3.475500 -1.125684 -0.243071 53.000000
3.385839 -1.142765 -0.236947 59.000000
3.416296 -1.164719 -0.239703 38.000000
3.436277 -1.183303 -0.241617 51.000000
3.444875 -1.198094 -0.242612 51.000000
3.449650 -1.211628 -0.243301 49.000000
3.456255 -1.225869 -0.244143 68.000000
3.452478 -1.236467 -0.244143 43.000000
3.451481 -1.248069 -0.244372 37.000000
3.451383 -1.260019 -0.244678 42.000000
3.446565 -1.270257 -0.244602 29.000000
3.443586 -1.281172 -0.244678 40.000000
3.444307 -1.293482 -0.245061 37.000000
3.444052 -1.305456 -0.245367 90.000000
3.433512 -1.313524 -0.244832 46.000000
3.432256 -1.325128 -0.245061 63.000000
3.432821 -1.337460 -0.245444 31.000000
3.435197 -1.350537 -0.245980 33.000000
3.440307 -1.364744 -0.246745 30.000000
3.442585 -1.377883 -0.247281 38.000000
3.447587 -1.392169 -0.248046 35.000000
3.447918 -1.404619 -0.248429 40.000000
3.458350 -1.421250 -0.249654 22.000000
3.470554 -1.438721 -0.251032 9.000000
3.588580 -1.089115 -0.296450 19.000000
3.575700 -1.097197 -0.295563 23.000000
3.568511 -1.106981 -0.295208 31.000000
3.552743 -1.114048 -0.294055 30.000000
3.535067 -1.120427 -0.292724 45.000000
3.523076 -1.128531 -0.291925 56.000000
3.513911 -1.137493 -0.291393 64.000000
3.510405 -1.148269 -0.291393 52.000000
3.504974 -1.158408 -0.291216 57.000000
3.497625 -1.167893 -0.290861 45.000000
3.496857 -1.179573 -0.291127 47.000000
3.496992 -1.191581 -0.291482 45.000000
3.497087 -1.203601 -0.291837 44.000000
3.496201 -1.215306 -0.292103 43.000000
3.487757 -1.224377 -0.291659 46.000000
3.489617 -1.237068 -0.292192 64.000000
3.490494 -1.249448 -0.292635 68.000000
3.482897 -1.258796 -0.292280 27.000000
3.488376 -1.272891 -0.293168 74.000000
3.476977 -1.280832 -0.292458 67.000000
3.469297 -1.290104 -0.292103 64.000000
3.464390 -1.300391 -0.292014 78.000000
3.452933 -1.308190 -0.291304 57.000000
3.447043 -1.318065 -0.291127 65.000000
3.437407 -1.326482 -0.290595 58.000000
3.430537 -1.335937 -0.290328 49.000000
3.427349 -1.346820 -0.290417 48.000000
3.430609 -1.360266 -0.291127 43.000000
3.429193 -1.371895 -0.291393 46.000000
3.433281 -1.385766 -0.292192 30.000000
3.429013 -1.396292 -0.292192 28.000000
3.431163 -1.409456 -0.292813 35.000000
3.448906 -1.429129 -0.294942 7.000000
3.583332 -1.087442 -0.343249 24.000000
3.566662 -1.094349 -0.341832 30.000000
3.557587 -1.103519 -0.341225 30.000000
3.546589 -1.112050 -0.340415 35.000000
3.530831 -1.119022 -0.339099 39.000000
3.515063 -1.125908 -0.337783 45.000000
3.506859 -1.135156 -0.337277 55.000000
3.503360 -1.145910 -0.337277 39.000000
3.501717 -1.157276 -0.337479 49.000000
3.499094 -1.168329 -0.337581 35.000000
3.499264 -1.180329 -0.337985 36.000000
3.505986 -1.194585 -0.339099 49.000000
3.510772 -1.208247 -0.340010 43.000000
3.509868 -1.219991 -0.340314 53.000000
3.508925 -1.231741 -0.340617 42.000000
3.509819 -1.244161 -0.341124 52.000000
3.501302 -1.253248 -0.340617 86.000000
3.512412 -1.269390 -0.342237 113.000000
3.501958 -1.277775 -0.341529 63.000000
3.490552 -1.285764 -0.340719 43.000000
3.480063 -1.294042 -0.340010 54.000000
3.471419 -1.302966 -0.339504 53.000000
3.466475 -1.313258 -0.339403 30.000000
3.448489 -1.318561 -0.337884 52.000000
3.444427 -1.329135 -0.337884 27.000000
3.439406 -1.339335 -0.337783 35.000000
3.437133 -1.350608 -0.337985 35.000000
3.437598 -1.362979 -0.338492 47.000000
3.443562 -1.377580 -0.339605 34.000000
3.446701 -1.391115 -0.340415 35.000000
3.447025 -1.403557 -0.340921 31.000000
3.509889 -1.441699 -0.348311 12.000000
3.633572 -1.114270 -0.394372 14.000000
3.558961 -1.103339 -0.385895 39.000000
3.550819 -1.112766 -0.385330 32.000000
3.540758 -1.121554 -0.384539 38.000000
3.525945 -1.128775 -0.383182 45.000000
3.516794 -1.137752 -0.382504 45.000000
3.517064 -1.149771 -0.382956 54.000000
3.510690 -1.159621 -0.382617 48.000000
3.507116 -1.170386 -0.382617 55.000000
3.508216 -1.182727 -0.383182 46.000000
3.509274 -1.195087 -0.383748 38.000000
3.517805 -1.210050 -0.385217 45.000000
3.527215 -1.225404 -0.386799 40.000000
3.529064 -1.238194 -0.387478 41.000000
3.529931 -1.250674 -0.388043 35.000000
3.544787 -1.268194 -0.390303 67.000000
3.567979 -1.288855 -0.393581 154.000000
3.511737 -1.280726 -0.387252 34.000000
3.499400 -1.288403 -0.386234 42.000000
3.484255 -1.294978 -0.384878 47.000000
3.480266 -1.305662 -0.384878 51.000000
3.465093 -1.312110 -0.383522 54.000000
3.463836 -1.323799 -0.383861 60.000000
3.459758 -1.334419 -0.383861 43.000000
3.454722 -1.344667 -0.383748 35.000000
3.457054 -1.357803 -0.384539 51.000000
3.454719 -1.369135 -0.384765 66.000000
3.445890 -1.377882 -0.384200 54.000000
3.444411 -1.389563 -0.384539 43.000000
3.440131 -1.400124 -0.384539 27.000000
3.441334 -1.412936 -0.385217 23.000000
3.572439 -1.108121 -0.434345 26.000000
3.567129 -1.118483 -0.434095 38.000000
3.558005 -1.127625 -0.433343 26.000000
3.548860 -1.136721 -0.432591 37.000000
3.536859 -1.144857 -0.431463 37.000000
3.530501 -1.154778 -0.431087 38.000000
3.524115 -1.164671 -0.430711 38.000000
3.518643 -1.174849 -0.430460 45.000000
3.515023 -1.185639 -0.430460 47.000000
3.517943 -1.198655 -0.431337 37.000000
3.522693 -1.212345 -0.432465 36.000000
3.531141 -1.227378 -0.434095 38.000000
3.535784 -1.241160 -0.435223 53.000000
3.548794 -1.257963 -0.437479 47.000000
3.551457 -1.271183 -0.438356 47.000000
3.557805 -1.285779 -0.439735 100.000000
3.533337 -1.289213 -0.436977 47.000000
3.517261 -1.295593 -0.435348 42.000000
3.495600 -1.299813 -0.432967 34.000000
3.492524 -1.310880 -0.433092 45.000000
3.479207 -1.318077 -0.431839 40.000000
3.478854 -1.330161 -0.432340 48.000000
3.473831 -1.340470 -0.432215 58.000000
3.466929 -1.350043 -0.431839 45.000000
3.467388 -1.362486 -0.432465 42.000000
3.459502 -1.371655 -0.431964 52.000000
3.452514 -1.381158 -0.431588 47.000000
3.453781 -1.393970 -0.432340 29.000000
3.485328 -1.419140 -0.437228 12.000000
3.587499 -1.122896 -0.483250 31.000000
3.579316 -1.132403 -0.482562 39.000000
3.572051 -1.142172 -0.482013 31.000000
3.562875 -1.151297 -0.481188 49.000000
3.552736 -1.160070 -0.480226 57.000000
3.544457 -1.169412 -0.479539 47.000000
3.540853 -1.180280 -0.479539 50.000000
3.544724 -1.193668 -0.480638 48.000000
3.544796 -1.205814 -0.481188 53.000000
3.550447 -1.219903 -0.482562 39.000000
3.553238 -1.233063 -0.483524 36.000000
3.558786 -1.247236 -0.484899 36.000000
3.566147 -1.262115 -0.486548 42.000000
3.576249 -1.278051 -0.488610 18.000000
3.559268 -1.284309 -0.486686 28.000000
3.551588 -1.293866 -0.486136 34.000000
3.539235 -1.301678 -0.484899 37.000000
3.526868 -1.309426 -0.483662 37.000000
3.515415 -1.317459 -0.482562 53.000000
3.503019 -1.325083 -0.481325 53.000000
3.495235 -1.334410 -0.480776 49.000000
3.487428 -1.343702 -0.480226 40.000000
3.483289 -1.354395 -0.480226 44.000000
3.476352 -1.363990 -0.479813 58.000000
3.471230 -1.374284 -0.479676 54.000000
3.467917 -1.385295 -0.479813 55.000000
3.464569 -1.396298 -0.479951 61.000000
3.473115 -1.412145 -0.481875 25.000000
3.475180 -1.425426 -0.482837 16.000000
3.612653 -1.133432 -0.532711 23.000000
3.574281 -1.133461 -0.527191 36.000000
3.576437 -1.146231 -0.528086 29.000000
3.557851 -1.152327 -0.525699 44.000000
3.549600 -1.161701 -0.524953 46.000000
3.543202 -1.171655 -0.524506 35.000000
3.541467 -1.183146 -0.524804 47.000000
3.545316 -1.196533 -0.525998 46.000000
