ply
format ascii 1.0
element vertex 1227
property float x
property float y
property float z
property float intensity
end_header
2.795383 -0.275605 -0.212609 38.000000
2.785606 -0.283272 -0.211811 46.000000
2.781752 -0.291505 -0.211545 69.000000
2.785796 -0.300572 -0.211988 58.000000
2.783871 -0.309008 -0.211900 57.000000
2.789837 -0.318338 -0.212521 61.000000
2.798740 -0.328057 -0.213408 58.000000
2.849951 -0.360688 -0.218287 39.000000
2.876489 -0.373020 -0.220772 58.000000
2.891129 -0.383943 -0.222191 65.000000
2.896846 -0.393752 -0.222812 66.000000
2.895624 -0.402637 -0.222812 66.000000
2.892403 -0.411238 -0.222635 67.000000
2.885214 -0.419250 -0.222102 54.000000
2.882929 -0.427953 -0.222014 61.000000
2.876678 -0.436049 -0.221570 58.000000
2.876311 -0.445025 -0.221659 56.000000
2.878868 -0.454469 -0.222014 55.000000
2.873526 -0.462665 -0.221659 57.000000
2.875042 -0.471963 -0.221925 71.000000
2.878492 -0.481604 -0.222369 53.000000
2.872092 -0.489595 -0.221925 54.000000
2.873521 -0.498916 -0.222191 54.000000
2.870996 -0.507556 -0.222102 65.000000
2.867464 -0.516008 -0.221925 42.000000
2.868807 -0.525342 -0.222191 56.000000
2.865223 -0.533776 -0.222014 61.000000
2.861615 -0.542193 -0.221836 44.000000
2.860916 -0.551158 -0.221925 50.000000
2.865077 -0.561082 -0.222457 52.000000
2.868226 -0.570842 -0.222901 57.000000
2.879153 -0.582207 -0.224054 89.000000
2.880280 -0.591639 -0.224320 108.000000
2.876501 -0.600066 -0.224143 84.000000
2.876595 -0.609301 -0.224320 59.000000
2.876660 -0.618542 -0.224498 73.000000
2.876695 -0.627790 -0.224675 75.000000
2.879618 -0.637690 -0.225119 47.000000
2.867930 -0.644337 -0.224232 46.000000
2.855257 -0.650696 -0.223256 47.000000
2.836750 -0.655638 -0.221748 35.000000
2.813391 -0.659335 -0.219796 41.000000
2.791005 -0.663125 -0.217933 50.000000
2.764749 -0.665851 -0.215715 54.000000
2.749146 -0.671021 -0.214473 56.000000
2.732571 -0.675863 -0.213142 50.000000
2.727586 -0.683517 -0.212876 66.000000
2.725477 -0.691882 -0.212876 60.000000
2.720447 -0.699495 -0.212609 50.000000
2.718288 -0.707838 -0.212609 45.000000
2.735366 -0.721256 -0.214384 27.000000
2.767065 -0.264586 -0.245056 33.000000
2.764260 -0.272879 -0.244854 33.000000
2.765389 -0.281559 -0.245056 45.000000
2.768470 -0.290456 -0.245461 40.000000
2.778447 -0.300119 -0.246575 58.000000
2.780479 -0.308970 -0.246879 60.000000
2.791380 -0.318849 -0.248093 67.000000
2.814104 -0.330184 -0.250523 57.000000
2.833821 -0.341305 -0.252649 37.000000
2.830786 -0.349755 -0.252446 30.000000
2.863258 -0.362675 -0.255888 43.000000
2.888772 -0.374904 -0.258621 76.000000
2.887608 -0.383764 -0.258621 56.000000
2.892332 -0.393424 -0.259229 57.000000
2.887170 -0.401749 -0.258824 48.000000
2.878044 -0.409487 -0.258014 37.000000
2.876774 -0.418314 -0.258014 45.000000
2.881382 -0.428013 -0.258621 42.000000
2.881038 -0.437000 -0.258722 45.000000
2.884600 -0.446596 -0.259229 48.000000
2.889113 -0.456372 -0.259836 49.000000
2.890646 -0.465707 -0.260140 46.000000
2.891167 -0.474895 -0.260342 35.000000
2.902453 -0.485893 -0.261658 41.000000
2.901929 -0.494963 -0.261759 49.000000
2.901378 -0.504033 -0.261861 43.000000
2.898838 -0.512759 -0.261759 30.000000
2.894314 -0.521123 -0.261456 46.000000
2.891723 -0.529821 -0.261354 47.000000
2.893018 -0.539236 -0.261658 35.000000
2.886462 -0.547184 -0.261152 55.000000
2.887700 -0.556601 -0.261456 63.000000
2.878169 -0.563931 -0.260646 100.000000
2.877401 -0.572952 -0.260747 64.000000
2.866853 -0.580005 -0.259836 43.000000
2.865060 -0.588798 -0.259836 46.000000
2.866162 -0.598193 -0.260140 52.000000
2.861393 -0.606366 -0.259836 60.000000
2.856601 -0.614515 -0.259532 57.000000
2.859563 -0.624336 -0.260038 47.000000
2.861519 -0.633965 -0.260443 39.000000
2.866356 -0.644265 -0.261152 31.000000
2.855635 -0.651069 -0.260241 29.000000
2.843931 -0.657590 -0.259229 39.000000
2.865148 -0.671753 -0.261658 19.000000
2.815643 -0.669286 -0.256698 33.000000
2.777786 -0.669313 -0.252952 46.000000
2.757355 -0.673355 -0.251029 42.000000
2.737892 -0.677517 -0.249207 63.000000
2.729045 -0.684222 -0.248498 40.000000
2.726933 -0.692592 -0.248498 59.000000
2.720941 -0.699965 -0.248093 51.000000
2.718780 -0.708309 -0.248093 60.000000
2.718518 -0.717154 -0.248296 28.000000
2.770589 -0.264091 -0.278630 35.000000
2.780642 -0.273662 -0.279873 33.000000
2.779789 -0.282192 -0.279873 67.000000
2.780887 -0.290926 -0.280099 74.000000
2.782945 -0.299776 -0.280438 73.000000
2.786950 -0.308860 -0.281004 62.000000
2.807707 -0.319886 -0.283490 46.000000
2.829410 -0.331159 -0.286090 45.000000
2.872571 -0.363047 -0.291402 68.000000
2.881298 -0.373136 -0.292533 60.000000
2.889004 -0.383151 -0.293550 70.000000
2.888800 -0.392146 -0.293663 66.000000
2.890535 -0.401417 -0.294002 64.000000
2.892241 -0.410703 -0.294341 69.000000
2.892934 -0.419860 -0.294567 56.000000
2.898512 -0.429754 -0.295358 63.000000
2.904057 -0.439687 -0.296150 66.000000
2.909567 -0.449658 -0.296941 58.000000
2.912100 -0.459201 -0.297393 68.000000
2.915582 -0.468923 -0.297958 62.000000
2.918052 -0.478509 -0.298410 54.000000
2.925390 -0.488935 -0.299427 71.000000
2.924855 -0.498074 -0.299540 63.000000
2.926251 -0.507555 -0.299880 71.000000
2.930550 -0.517568 -0.300558 78.000000
2.959263 -0.532010 -0.304062 187.000000
2.926342 -0.535361 -0.300445 66.000000
2.921756 -0.543790 -0.300106 63.000000
2.904454 -0.549793 -0.298297 66.000000
2.897875 -0.557761 -0.297732 73.000000
2.884449 -0.564358 -0.296376 58.000000
2.875883 -0.571848 -0.295584 51.000000
2.870219 -0.579881 -0.295132 60.000000
2.864533 -0.587884 -0.294680 67.000000
2.862716 -0.596670 -0.294680 77.000000
2.857956 -0.604832 -0.294341 58.000000
2.856087 -0.613597 -0.294341 68.000000
2.857104 -0.622992 -0.294680 59.000000
2.853239 -0.631325 -0.294454 71.000000
2.860013 -0.642035 -0.295471 45.000000
2.862874 -0.651911 -0.296037 35.000000
2.843435 -0.656664 -0.294002 33.000000
2.829798 -0.662664 -0.292646 38.000000
2.810352 -0.667209 -0.290611 32.000000
2.779312 -0.668850 -0.287220 38.000000
2.753115 -0.671485 -0.284394 42.000000
2.731752 -0.675157 -0.282134 46.000000
2.725812 -0.682569 -0.281682 56.000000
2.722742 -0.690684 -0.281569 46.000000
2.716761 -0.698044 -0.281117 53.000000
2.723261 -0.708629 -0.282134 37.000000
2.715309 -0.715461 -0.281456 15.000000
2.723661 -0.726607 -0.282699 9.000000
2.773452 -0.273783 -0.313900 30.000000
2.761741 -0.281189 -0.312521 37.000000
2.762839 -0.289867 -0.312772 48.000000
2.770814 -0.299297 -0.313900 60.000000
2.797493 -0.310853 -0.317409 52.000000
2.819199 -0.322014 -0.320292 37.000000
2.861556 -0.335731 -0.325807 26.000000
2.857557 -0.344154 -0.325431 43.000000
2.872242 -0.354859 -0.327436 48.000000
2.884920 -0.365409 -0.329191 58.000000
2.888705 -0.374895 -0.329817 65.000000
2.889509 -0.384016 -0.330068 47.000000
2.892249 -0.393413 -0.330569 54.000000
2.894959 -0.402830 -0.331071 45.000000
2.894692 -0.411849 -0.331196 58.000000
2.895379 -0.421012 -0.331447 55.000000
2.896036 -0.430184 -0.331697 53.000000
2.895684 -0.439215 -0.331823 53.000000
2.896284 -0.448400 -0.332073 52.000000
2.894895 -0.457283 -0.332073 58.000000
2.897396 -0.466792 -0.332575 38.000000
2.901825 -0.476642 -0.333327 47.000000
2.904263 -0.486196 -0.333828 53.000000
2.908626 -0.496102 -0.334580 52.000000
2.910023 -0.505532 -0.334956 45.000000
2.933861 -0.518940 -0.338215 134.000000
2.933231 -0.528114 -0.338340 115.000000
2.898415 -0.531044 -0.334079 47.000000
2.896772 -0.539934 -0.334079 64.000000
2.890228 -0.547897 -0.333452 62.000000
2.881714 -0.555450 -0.332575 55.000000
2.875128 -0.563336 -0.331948 44.000000
2.869494 -0.571381 -0.331447 51.000000
2.861892 -0.579003 -0.330695 42.000000
2.860102 -0.587781 -0.330695 41.000000
2.855372 -0.595946 -0.330319 52.000000
2.853530 -0.604703 -0.330319 49.000000
2.857481 -0.614704 -0.331071 42.000000
2.855582 -0.623468 -0.331071 55.000000
2.856562 -0.632869 -0.331447 36.000000
2.857511 -0.642281 -0.331823 55.000000
2.857462 -0.651485 -0.332073 42.000000
2.818715 -0.651770 -0.327311 29.000000
2.773232 -0.650241 -0.321671 19.000000
2.756650 -0.664229 -0.320041 16.000000
2.746888 -0.670803 -0.319039 33.000000
2.719775 -0.673041 -0.315780 31.000000
2.714810 -0.680660 -0.315404 49.000000
2.705015 -0.687035 -0.314401 68.000000
2.706739 -0.696318 -0.314903 60.000000
2.699789 -0.703370 -0.314276 41.000000
2.693781 -0.710639 -0.313775 15.000000
2.767231 -0.271371 -0.347454 35.000000
2.765400 -0.279759 -0.347317 32.000000
2.770440 -0.288859 -0.348142 50.000000
2.791207 -0.299687 -0.351165 44.000000
2.828670 -0.312496 -0.356526 23.000000
2.870971 -0.335018 -0.362711 48.000000
2.902161 -0.365767 -0.367521 66.000000
2.900043 -0.374542 -0.367384 55.000000
2.892989 -0.382658 -0.366559 40.000000
2.891801 -0.391531 -0.366559 75.000000
2.890586 -0.400402 -0.366559 52.000000
2.886402 -0.408851 -0.366147 54.000000
2.881213 -0.417136 -0.365597 49.000000
2.883840 -0.426554 -0.366147 55.000000
2.882517 -0.435399 -0.366147 78.000000
2.886062 -0.444996 -0.366834 42.000000
2.893490 -0.455235 -0.368071 78.000000
2.897947 -0.465052 -0.368896 57.000000
2.904327 -0.475221 -0.369995 54.000000
2.910671 -0.485434 -0.371095 46.000000
2.917957 -0.495856 -0.372332 63.000000
2.922277 -0.505820 -0.373156 59.000000
2.921687 -0.514955 -0.373294 84.000000
2.930818 -0.525842 -0.374806 146.000000
2.914575 -0.532161 -0.372744 56.000000
2.910007 -0.540557 -0.372332 53.000000
2.904442 -0.548746 -0.371782 70.000000
2.898854 -0.556906 -0.371232 57.000000
2.890327 -0.564467 -0.370270 57.000000
2.883724 -0.572367 -0.369583 74.000000
2.878071 -0.580428 -0.369033 52.000000
2.874336 -0.588857 -0.368758 47.000000
2.867667 -0.596663 -0.368071 67.000000
2.861946 -0.604639 -0.367521 53.000000
2.864920 -0.614455 -0.368208 63.000000
2.863022 -0.623242 -0.368208 63.000000
2.863997 -0.632664 -0.368621 67.000000
2.863976 -0.641881 -0.368896 80.000000
2.857164 -0.649566 -0.368208 52.000000
2.855158 -0.658329 -0.368208 50.000000
2.846374 -0.665506 -0.367246 29.000000
2.792973 -0.680184 -0.360512 11.000000
2.749523 -0.678539 -0.354601 22.000000
2.736858 -0.684327 -0.353090 26.000000
2.722264 -0.689557 -0.351303 36.000000
2.714379 -0.696428 -0.350478 41.000000
2.710313 -0.704254 -0.350203 32.000000
2.718676 -0.715339 -0.351715 32.000000
2.776462 -0.248785 -0.382029 14.000000
2.775686 -0.257302 -0.382029 30.000000
2.775867 -0.265910 -0.382178 39.000000
2.773070 -0.274231 -0.381880 31.000000
2.775167 -0.283037 -0.382327 34.000000
2.793954 -0.293609 -0.385311 38.000000
2.810736 -0.304086 -0.387997 33.000000
2.832394 -0.315214 -0.391428 20.000000
2.870712 -0.328382 -0.397396 28.000000
2.891297 -0.339717 -0.400678 38.000000
2.909876 -0.350946 -0.403662 48.000000
2.911730 -0.360235 -0.404109 38.000000
2.907668 -0.368794 -0.403662 45.000000
2.903581 -0.377332 -0.403214 60.000000
2.899469 -0.385848 -0.402766 60.000000
2.893373 -0.394077 -0.402021 48.000000
2.895088 -0.403360 -0.402468 62.000000
2.889921 -0.411683 -0.401871 41.000000
2.890602 -0.420832 -0.402170 55.000000
2.889297 -0.429698 -0.402170 62.000000
2.891876 -0.439153 -0.402766 61.000000
2.900287 -0.449533 -0.404258 53.000000
2.902801 -0.459045 -0.404855 45.000000
2.908213 -0.469048 -0.405899 52.000000
2.915542 -0.479409 -0.407242 45.000000
2.922835 -0.489819 -0.408585 37.000000
2.925217 -0.499448 -0.409182 44.000000
2.927568 -0.509096 -0.409778 57.000000
2.922098 -0.517387 -0.409182 61.000000
2.929255 -0.527925 -0.410524 104.000000
2.919841 -0.535485 -0.409331 31.000000
2.912352 -0.543355 -0.408436 52.000000
2.899984 -0.550264 -0.406795 32.000000
2.895369 -0.558597 -0.406347 44.000000
2.887819 -0.566338 -0.405452 49.000000
2.880249 -0.574038 -0.404557 46.000000
2.873629 -0.581892 -0.403811 58.000000
2.867955 -0.589910 -0.403214 73.000000
2.865164 -0.598505 -0.403065 56.000000
2.862347 -0.607087 -0.402916 47.000000
2.861438 -0.616074 -0.403065 53.000000
2.854704 -0.623796 -0.402319 42.000000
2.864362 -0.635115 -0.404109 60.000000
2.861435 -0.643683 -0.403960 47.000000
2.861375 -0.652898 -0.404258 46.000000
2.849724 -0.659448 -0.402766 37.000000
2.802438 -0.657589 -0.395755 8.000000
2.782129 -0.661844 -0.392920 14.000000
2.724084 -0.674608 -0.384864 19.000000
2.723920 -0.683442 -0.385162 21.000000
2.709350 -0.688635 -0.383223 48.000000
2.710098 -0.697682 -0.383670 39.000000
2.709859 -0.706491 -0.383969 30.000000
2.720109 -0.718077 -0.385908 22.000000
2.699740 -0.721576 -0.383073 16.000000
2.797492 -0.231567 -0.419406 25.000000
2.793818 -0.239895 -0.418922 30.000000
2.793069 -0.248465 -0.418922 34.000000
2.793277 -0.257123 -0.419083 40.000000
2.791492 -0.265598 -0.418922 49.000000
2.785753 -0.273678 -0.418117 46.000000
2.779991 -0.281725 -0.417311 50.000000
2.803653 -0.292819 -0.421339 25.000000
2.846899 -0.306174 -0.428587 11.000000
2.913480 -0.349561 -0.440186 41.000000
2.905537 -0.357653 -0.439058 54.000000
2.907363 -0.366936 -0.439541 55.000000
2.904266 -0.375601 -0.439219 70.000000
2.897230 -0.383731 -0.438253 57.000000
2.892127 -0.392087 -0.437608 60.000000
2.890911 -0.400958 -0.437608 54.000000
2.887713 -0.409548 -0.437286 67.000000
2.887419 -0.418547 -0.437447 62.000000
2.882216 -0.426825 -0.436803 67.000000
2.883821 -0.436108 -0.437286 81.000000
2.889297 -0.446009 -0.438414 55.000000
2.898639 -0.456561 -0.440186 50.000000
2.897224 -0.465452 -0.440186 59.000000
2.909418 -0.476574 -0.442441 53.000000
2.920597 -0.487612 -0.444535 47.000000
2.926871 -0.497895 -0.445824 60.000000
2.935054 -0.508558 -0.447435 46.000000
2.930564 -0.517046 -0.446951 40.000000
2.914393 -0.523415 -0.444535 99.000000
2.922482 -0.534130 -0.446146 49.000000
2.909186 -0.540927 -0.444213 50.000000
2.894907 -0.547464 -0.442119 45.000000
2.886429 -0.555037 -0.440991 53.000000
2.879870 -0.562943 -0.440186 75.000000
2.880065 -0.572160 -0.440508 62.000000
2.873460 -0.580016 -0.439702 64.000000
2.871666 -0.588829 -0.439702 58.000000
2.869847 -0.597637 -0.439702 71.000000
2.868000 -0.606439 -0.439702 51.000000
2.869985 -0.616064 -0.440347 74.000000
2.870010 -0.625286 -0.440669 79.000000
2.867115 -0.633875 -0.440508 50.000000
2.871897 -0.644181 -0.441636 62.000000
2.868945 -0.652770 -0.441474 48.000000
2.856351 -0.659126 -0.439702 37.000000
2.816838 -0.659112 -0.433420 19.000000
2.797518 -0.663648 -0.430521 8.000000
2.743386 -0.677529 -0.422466 24.000000
2.742252 -0.686182 -0.422627 36.000000
2.739177 -0.694350 -0.422466 36.000000
2.736078 -0.702504 -0.422305 28.000000
2.725313 -0.708659 -0.420855 29.000000
2.722172 -0.716765 -0.420694 57.000000
2.720914 -0.725367 -0.420855 42.000000
2.723440 -0.734998 -0.421661 41.000000
2.664051 -0.727738 -0.411996 13.000000
2.635171 -0.728540 -0.407485 9.000000
2.782077 -0.240684 -0.451430 25.000000
2.780344 -0.249131 -0.451257 24.000000
2.775644 -0.257298 -0.450565 33.000000
2.774842 -0.265812 -0.450565 39.000000
2.773033 -0.274228 -0.450392 23.000000
2.784917 -0.284028 -0.452640 24.000000
2.772277 -0.291340 -0.450565 39.000000
2.786060 -0.301427 -0.453159 42.000000
2.814490 -0.313229 -0.458348 33.000000
2.806665 -0.321082 -0.457137 9.000000
2.858492 -0.335876 -0.466477 16.000000
2.848647 -0.343586 -0.464920 26.000000
2.853445 -0.353048 -0.465958 33.000000
2.867983 -0.363777 -0.468726 44.000000
2.861969 -0.371941 -0.467861 61.000000
2.858862 -0.380461 -0.467515 42.000000
2.860609 -0.389628 -0.468034 56.000000
2.845742 -0.396505 -0.465612 32.000000
2.855239 -0.406757 -0.467515 48.000000
2.853978 -0.415515 -0.467515 45.000000
2.850741 -0.423980 -0.467169 55.000000
2.848453 -0.432576 -0.466996 44.000000
2.851979 -0.442066 -0.467861 48.000000
2.851583 -0.450967 -0.468034 44.000000
2.857965 -0.460965 -0.469417 57.000000
2.866257 -0.471325 -0.471147 40.000000
2.873540 -0.481578 -0.472704 32.000000
2.869137 -0.489895 -0.472185 39.000000
2.881206 -0.501052 -0.474606 32.000000
2.886445 -0.511089 -0.475817 23.000000
2.937210 -0.529355 -0.485157 148.000000
2.873566 -0.527017 -0.474087 40.000000
2.863221 -0.534208 -0.472531 45.000000
2.853827 -0.541524 -0.471147 44.000000
2.852152 -0.550277 -0.471147 42.000000
2.846584 -0.558268 -0.470455 53.000000
2.840994 -0.566230 -0.469763 48.000000
2.826693 -0.572407 -0.467515 33.000000
2.827818 -0.581671 -0.468034 39.000000
2.828912 -0.590947 -0.468553 50.000000
2.825159 -0.599215 -0.468207 44.000000
2.831011 -0.609535 -0.469590 50.000000
2.830090 -0.618428 -0.469763 70.000000
2.809908 -0.623064 -0.466477 29.000000
2.811827 -0.632545 -0.467169 41.000000
2.803151 -0.639637 -0.465958 33.000000
2.800215 -0.648012 -0.465785 19.000000
2.752957 -0.663846 -0.458348 25.000000
2.734641 -0.668321 -0.455408 27.000000
2.713454 -0.671980 -0.451948 37.000000
2.708514 -0.679584 -0.451430 48.000000
2.720736 -0.691523 -0.454024 29.000000
2.721464 -0.700603 -0.454543 26.000000
2.782211 -0.725322 -0.465958 12.000000
2.718066 -0.717539 -0.454716 35.000000
2.710142 -0.724351 -0.453678 50.000000
2.758302 -0.746275 -0.462845 17.000000
2.774346 -0.051350 -0.481652 40.000000
2.773192 -0.059840 -0.481467 34.000000
2.771031 -0.068299 -0.481098 57.000000
2.770808 -0.076800 -0.481098 51.000000
2.767612 -0.085209 -0.480545 43.000000
2.768320 -0.093733 -0.480729 52.000000
2.767037 -0.102189 -0.480545 49.000000
2.762783 -0.110520 -0.479807 50.000000
2.766358 -0.119165 -0.480545 63.000000
2.761070 -0.127425 -0.479623 49.000000
2.762630 -0.135992 -0.479992 45.000000
2.761218 -0.144415 -0.479807 63.000000
2.763706 -0.153049 -0.480361 57.000000
2.762243 -0.161470 -0.480176 46.000000
2.762715 -0.170004 -0.480361 67.000000
2.760219 -0.178352 -0.479992 36.000000
2.759659 -0.186820 -0.479992 33.000000
2.760053 -0.195355 -0.480176 43.000000
2.761401 -0.203967 -0.480545 47.000000
2.759782 -0.212362 -0.480361 47.000000
2.758138 -0.220749 -0.480176 39.000000
2.759407 -0.229373 -0.480545 55.000000
2.761628 -0.238092 -0.481098 45.000000
2.760884 -0.246563 -0.481098 59.000000
2.759136 -0.254942 -0.480914 60.000000
2.759319 -0.263499 -0.481098 47.000000
2.755564 -0.271673 -0.480545 58.000000
2.757650 -0.280425 -0.481098 64.000000
2.750913 -0.288268 -0.479992 47.000000
2.747083 -0.296390 -0.479438 47.000000
2.745185 -0.304708 -0.479254 45.000000
2.745213 -0.313240 -0.479438 49.000000
2.746192 -0.321890 -0.479807 54.000000
2.752863 -0.348387 -0.481652 40.000000
2.752756 -0.356958 -0.481836 54.000000
2.752622 -0.365531 -0.482021 53.000000
2.756357 -0.374637 -0.482943 36.000000
2.754221 -0.382956 -0.482759 61.000000
2.749141 -0.390850 -0.482021 43.000000
2.749875 -0.399565 -0.482390 44.000000
2.748636 -0.408000 -0.482390 44.000000
2.746399 -0.416283 -0.482205 46.000000
2.747052 -0.425008 -0.482574 57.000000
2.741852 -0.432820 -0.481836 57.000000
2.741481 -0.441386 -0.482021 44.000000
2.741084 -0.449954 -0.482205 49.000000
2.737752 -0.458037 -0.481836 56.000000
2.741178 -0.467261 -0.482759 47.000000
2.740700 -0.475837 -0.482943 66.000000
2.740195 -0.484414 -0.483128 60.000000
2.743533 -0.493689 -0.484050 51.000000
2.738138 -0.501396 -0.483312 55.000000
2.739486 -0.510334 -0.483865 55.000000
2.735010 -0.518187 -0.483312 42.000000
2.732442 -0.526389 -0.483128 40.000000
2.723099 -0.533258 -0.481652 57.000000
2.727233 -0.542761 -0.482759 49.000000
2.723629 -0.550736 -0.482390 53.000000
2.721926 -0.559089 -0.482390 49.000000
2.724046 -0.568241 -0.483128 48.000000
2.723252 -0.576799 -0.483312 60.000000
2.724352 -0.585772 -0.483865 49.000000
2.722542 -0.594127 -0.483865 53.000000
2.720706 -0.602477 -0.483865 48.000000
2.719804 -0.611037 -0.484050 46.000000
2.721750 -0.620252 -0.484788 55.000000
2.714089 -0.627271 -0.483681 35.000000
2.716936 -0.636716 -0.484603 34.000000
2.711145 -0.644139 -0.483865 58.000000
2.708200 -0.652224 -0.483681 59.000000
2.698548 -0.658664 -0.482205 39.000000
2.693653 -0.666232 -0.481652 29.000000
2.685876 -0.673058 -0.480545 40.000000
2.686656 -0.682021 -0.481098 56.000000
2.686455 -0.690750 -0.481467 38.000000
2.688128 -0.699980 -0.482205 62.000000
2.686918 -0.708475 -0.482390 48.000000
2.692328 -0.718744 -0.483865 52.000000
2.692008 -0.727513 -0.484234 48.000000
2.690711 -0.736028 -0.484419 49.000000
2.693176 -0.745592 -0.485341 30.000000
2.687090 -0.752790 -0.484603 49.000000
2.686659 -0.761566 -0.484972 49.000000
2.689979 -0.771432 -0.486079 45.000000
2.687599 -0.779681 -0.486079 40.000000
2.685194 -0.787923 -0.486079 47.000000
2.688418 -0.797835 -0.487186 48.000000
2.685957 -0.806080 -0.487186 51.000000
2.684412 -0.814602 -0.487370 40.000000
2.680961 -0.822545 -0.487186 45.000000
2.679363 -0.831058 -0.487370 48.000000
2.678677 -0.839862 -0.487739 40.000000
2.675151 -0.847779 -0.487555 58.000000
2.675345 -0.856882 -0.488108 52.000000
2.670833 -0.864481 -0.487739 40.000000
2.667234 -0.872365 -0.487555 38.000000
2.616021 -0.864501 -0.477962 7.000000
2.760495 -0.077344 -0.512986 49.000000
2.752404 -0.085573 -0.511418 46.000000
2.755069 -0.094116 -0.512006 45.000000
2.751827 -0.102460 -0.511418 63.000000
2.752480 -0.110941 -0.511614 54.000000
2.752126 -0.119385 -0.511614 64.000000
2.750768 -0.127782 -0.511418 49.000000
2.751342 -0.136269 -0.511614 58.000000
2.747974 -0.144556 -0.511025 59.000000
2.750454 -0.153148 -0.511614 63.000000
2.749972 -0.161586 -0.511614 53.000000
2.748484 -0.169962 -0.511418 49.000000
2.748928 -0.178457 -0.511614 43.000000
2.744454 -0.186625 -0.510829 53.000000
2.741913 -0.194906 -0.510437 45.000000
2.746192 -0.203677 -0.511418 44.000000
2.740665 -0.211726 -0.510437 59.000000
2.740980 -0.220211 -0.510633 56.000000
2.745178 -0.229025 -0.511614 61.000000
2.741531 -0.237194 -0.511025 53.000000
2.744698 -0.245952 -0.511810 46.000000
2.744906 -0.254461 -0.512006 50.000000
2.739232 -0.262416 -0.511025 36.000000
2.739390 -0.270915 -0.511221 47.000000
2.737571 -0.279219 -0.511025 58.000000
2.733775 -0.287310 -0.510437 47.000000
2.734831 -0.295906 -0.510829 50.000000
2.732935 -0.304187 -0.510633 67.000000
2.734912 -0.312903 -0.511221 62.000000
2.735887 -0.321520 -0.511614 58.000000
2.733914 -0.329795 -0.511418 50.000000
2.733863 -0.338301 -0.511614 59.000000
2.726975 -0.345949 -0.510437 40.000000
2.727846 -0.354566 -0.510829 40.000000
2.725773 -0.362804 -0.510633 59.000000
2.726590 -0.371429 -0.511025 52.000000
2.724467 -0.379657 -0.510829 53.000000
2.726202 -0.388427 -0.511418 59.000000
2.725968 -0.396930 -0.511614 47.000000
2.722797 -0.405004 -0.511221 61.000000
2.716694 -0.412621 -0.510241 57.000000
2.710570 -0.420205 -0.509260 58.000000
2.708300 -0.428366 -0.509064 49.000000
2.708909 -0.436985 -0.509456 52.000000
2.706588 -0.445135 -0.509260 56.000000
2.709078 -0.454083 -0.510045 76.000000
2.713472 -0.463380 -0.511221 51.000000
2.713970 -0.472038 -0.511614 47.000000
2.715406 -0.480874 -0.512202 56.000000
2.714883 -0.489376 -0.512398 48.000000
2.713369 -0.497703 -0.512398 54.000000
2.718577 -0.507281 -0.513771 52.000000
2.717008 -0.515619 -0.513771 62.000000
2.712525 -0.523396 -0.513183 46.000000
2.716680 -0.532846 -0.514359 38.000000
2.714071 -0.540987 -0.514163 67.000000
2.713360 -0.549505 -0.514359 45.000000
2.708779 -0.557235 -0.513771 60.000000
2.703218 -0.564743 -0.512986 62.000000
2.702431 -0.573236 -0.513183 64.000000
2.702577 -0.581937 -0.513575 41.000000
2.702695 -0.590643 -0.513967 54.000000
2.702785 -0.599356 -0.514359 66.000000
2.698064 -0.607001 -0.513771 61.000000
2.702881 -0.616800 -0.515144 57.000000
2.696199 -0.623986 -0.514163 45.000000
2.695227 -0.632478 -0.514359 64.000000
2.693274 -0.640744 -0.514359 45.000000
2.688435 -0.648315 -0.513771 56.000000
2.686434 -0.656560 -0.513771 55.000000
2.687263 -0.665505 -0.514359 57.000000
2.682354 -0.673032 -0.513771 68.000000
2.685029 -0.682464 -0.514752 57.000000
2.680074 -0.689966 -0.514163 71.000000
2.679842 -0.698679 -0.514555 52.000000
2.682427 -0.708147 -0.515536 47.000000
2.673610 -0.714603 -0.514163 57.000000
2.675192 -0.723825 -0.514948 51.000000
2.677688 -0.733322 -0.515928 52.000000
2.672590 -0.740749 -0.515340 50.000000
2.674082 -0.750003 -0.516124 53.000000
2.672712 -0.758471 -0.516320 65.000000
2.667545 -0.765856 -0.515732 64.000000
2.671775 -0.775948 -0.517105 64.000000
2.667500 -0.783589 -0.516713 58.000000
2.665083 -0.791770 -0.516713 46.000000
2.666398 -0.801069 -0.517497 51.000000
2.662990 -0.808961 -0.517301 49.000000
2.663308 -0.817990 -0.517889 61.000000
2.664532 -0.827318 -0.518674 54.000000
2.669467 -0.837835 -0.520243 48.000000
2.669689 -0.846909 -0.520831 41.000000
2.667078 -0.855096 -0.520831 31.000000
2.667241 -0.864180 -0.521420 29.000000
2.672033 -0.874797 -0.522988 42.000000
2.630231 -0.870072 -0.514752 7.000000
2.748724 -0.041482 -0.544289 39.000000
2.746628 -0.049879 -0.543873 36.000000
2.754286 -0.058473 -0.545535 33.000000
2.754093 -0.066922 -0.545535 45.000000
2.754853 -0.075398 -0.545743 43.000000
2.750697 -0.083730 -0.544912 51.000000
2.749450 -0.092136 -0.544704 55.000000
2.747199 -0.100499 -0.544289 70.000000
2.744923 -0.108849 -0.543873 73.000000
2.735781 -0.116893 -0.542003 58.000000
2.733455 -0.125196 -0.541588 60.000000
2.730127 -0.133437 -0.540965 46.000000
2.726774 -0.141660 -0.540341 54.000000
2.730233 -0.150240 -0.541172 57.000000
2.729760 -0.158616 -0.541172 46.000000
2.733166 -0.167230 -0.542003 55.000000
2.732640 -0.175614 -0.542003 59.000000
2.733064 -0.184063 -0.542211 47.000000
2.735414 -0.192653 -0.542834 64.000000
2.738712 -0.201332 -0.543665 50.000000
2.737106 -0.209658 -0.543458 57.000000
2.736450 -0.218055 -0.543458 52.000000
2.739667 -0.226772 -0.544289 54.000000
2.742857 -0.235512 -0.545120 57.000000
2.738225 -0.243578 -0.544289 60.000000
2.733568 -0.251619 -0.543458 55.000000
2.729862 -0.259726 -0.542834 52.000000
2.723211 -0.267525 -0.541588 44.000000
2.722378 -0.275878 -0.541588 67.000000
2.717627 -0.283822 -0.540757 65.000000
2.717716 -0.292263 -0.540965 58.000000
2.716807 -0.300600 -0.540965 53.000000
2.722675 -0.309708 -0.542419 60.000000
2.724492 -0.343832 -0.543665 61.000000
2.719544 -0.351687 -0.542834 56.000000
2.723301 -0.360671 -0.543873 51.000000
2.722181 -0.369024 -0.543873 50.000000
2.716192 -0.376702 -0.542834 54.000000
2.719866 -0.385720 -0.543873 43.000000
2.718670 -0.394063 -0.543873 59.000000
2.718416 -0.402545 -0.544081 66.000000
2.721037 -0.411469 -0.544912 55.000000
2.712994 -0.418770 -0.543458 57.000000
2.714595 -0.427548 -0.544081 53.000000
2.713271 -0.435874 -0.544081 50.000000
2.705164 -0.443089 -0.542627 65.000000
2.707651 -0.452031 -0.543458 43.000000
2.702394 -0.459679 -0.542627 56.000000
2.699044 -0.467633 -0.542211 64.000000
2.699523 -0.476252 -0.542627 49.000000
2.692273 -0.483493 -0.541380 54.000000
2.695588 -0.492631 -0.542419 44.000000
2.701757 -0.502330 -0.544081 71.000000
2.700203 -0.510616 -0.544081 54.000000
2.699584 -0.519083 -0.544289 49.000000
2.696059 -0.526987 -0.543873 47.000000
2.698267 -0.536019 -0.544704 51.000000
2.702363 -0.545457 -0.545950 67.000000
2.697802 -0.553155 -0.545327 48.000000
2.696093 -0.561429 -0.545327 59.000000
2.694357 -0.569698 -0.545327 54.000000
2.694510 -0.578372 -0.545743 57.000000
2.697501 -0.587678 -0.546781 63.000000
2.696641 -0.596162 -0.546989 48.000000
2.691936 -0.603790 -0.546366 63.000000
2.691024 -0.612263 -0.546574 68.000000
2.687227 -0.620076 -0.546158 45.000000
2.688169 -0.628986 -0.546781 55.000000
2.687179 -0.637457 -0.546989 50.000000
2.682357 -0.645011 -0.546366 45.000000
2.679415 -0.653006 -0.546158 58.000000
2.679299 -0.661692 -0.546574 54.000000
2.677256 -0.669909 -0.546574 57.000000
2.680877 -0.679563 -0.547820 59.000000
2.679727 -0.688028 -0.548028 49.000000
2.678550 -0.696492 -0.548236 39.000000
2.682076 -0.706202 -0.549482 55.000000
2.680842 -0.714679 -0.549690 50.000000
2.683359 -0.724175 -0.550728 41.000000
2.679237 -0.731889 -0.550313 52.000000
2.674151 -0.739323 -0.549690 46.000000
2.673754 -0.748051 -0.550105 40.000000
2.668623 -0.755450 -0.549482 47.000000
2.666293 -0.763634 -0.549482 60.000000
2.666756 -0.772628 -0.550105 49.000000
2.664373 -0.780805 -0.550105 61.000000
2.663841 -0.789532 -0.550521 54.000000
2.662343 -0.797982 -0.550728 69.000000
2.660818 -0.806430 -0.550936 43.000000
2.661138 -0.815450 -0.551560 47.000000
2.657689 -0.823320 -0.551352 48.000000
2.657951 -0.832348 -0.551975 45.000000
2.655385 -0.840498 -0.551975 33.000000
2.649998 -0.847746 -0.551352 33.000000
2.652039 -0.857378 -0.552390 38.000000
2.649396 -0.865510 -0.552390 42.000000
2.617005 -0.863818 -0.545743 14.000000
2.738009 -0.077199 -0.575552 43.000000
2.737760 -0.085599 -0.575552 48.000000
2.741385 -0.094130 -0.576429 54.000000
2.738158 -0.102432 -0.575771 65.000000
2.736856 -0.110793 -0.575552 47.000000
2.732604 -0.119021 -0.574676 45.000000
2.729302 -0.127269 -0.574018 44.000000
2.726950 -0.135546 -0.573580 41.000000
2.725547 -0.143860 -0.573361 60.000000
2.725092 -0.152221 -0.573361 51.000000
2.724612 -0.160581 -0.573361 58.000000
2.725081 -0.168999 -0.573580 62.000000
2.727471 -0.177548 -0.574237 53.000000
2.729834 -0.186113 -0.574895 41.000000
2.731196 -0.194625 -0.575333 66.000000
2.732532 -0.203147 -0.575771 56.000000
2.727032 -0.211155 -0.574676 41.000000
2.732207 -0.219987 -0.575991 67.000000
2.736381 -0.228773 -0.577086 44.000000
2.734694 -0.237083 -0.576867 37.000000
2.728123 -0.244951 -0.575552 51.000000
2.726387 -0.253230 -0.575333 60.000000
2.722683 -0.261315 -0.574676 56.000000
2.724782 -0.269954 -0.575333 45.000000
2.722970 -0.278213 -0.575114 52.000000
2.720163 -0.286362 -0.574676 61.000000
2.719272 -0.294706 -0.574676 52.000000
2.718355 -0.303048 -0.574676 48.000000
2.715473 -0.311165 -0.574237 51.000000
2.715475 -0.319608 -0.574457 44.000000
2.714482 -0.327937 -0.574457 50.000000
2.708621 -0.335666 -0.573361 41.000000
2.708546 -0.344097 -0.573580 52.000000
2.703608 -0.351903 -0.572703 52.000000
2.704450 -0.360452 -0.573142 45.000000
2.703331 -0.368748 -0.573142 58.000000
2.699288 -0.376637 -0.572484 53.000000
2.700052 -0.385191 -0.572922 35.000000
2.694995 -0.392911 -0.572046 51.000000
2.696672 -0.401608 -0.572703 51.000000
2.701216 -0.410757 -0.574018 45.000000
2.697050 -0.418594 -0.573361 49.000000
2.697681 -0.427171 -0.573799 61.000000
2.695394 -0.435290 -0.573580 47.000000
2.693083 -0.443399 -0.573361 42.000000
2.694597 -0.452143 -0.574018 50.000000
2.691274 -0.460079 -0.573580 63.000000
2.686966 -0.467833 -0.572922 61.000000
2.687439 -0.476414 -0.573361 63.000000
2.682124 -0.483966 -0.572484 55.000000
2.681586 -0.492368 -0.572703 52.000000
2.680063 -0.500592 -0.572703 57.000000
2.677556 -0.508631 -0.572484 61.000000
2.675983 -0.516843 -0.572484 44.000000
2.675342 -0.525238 -0.572703 52.000000
2.678503 -0.534396 -0.573799 42.000000
2.680676 -0.543384 -0.574676 64.000000
2.677085 -0.551213 -0.574237 59.000000
2.677291 -0.559823 -0.574676 59.000000
2.670789 -0.567023 -0.573580 47.000000
2.669037 -0.575214 -0.573580 55.000000
2.673932 -0.584856 -0.575114 42.000000
2.667362 -0.592002 -0.574018 34.000000
2.668389 -0.600824 -0.574676 52.000000
2.672241 -0.610309 -0.575991 52.000000
2.670356 -0.618504 -0.575991 51.000000
2.672246 -0.627585 -0.576867 53.000000
2.674105 -0.636682 -0.577744 36.000000
2.668344 -0.643969 -0.576867 40.000000
2.663513 -0.651459 -0.576210 55.000000
2.663396 -0.660096 -0.576648 52.000000
2.661358 -0.668264 -0.576648 41.000000
2.661187 -0.676906 -0.577086 59.000000
2.661933 -0.685796 -0.577744 37.000000
2.657928 -0.693468 -0.577306 57.000000
2.656731 -0.701868 -0.577525 44.000000
2.656451 -0.710518 -0.577963 47.000000
2.653316 -0.718410 -0.577744 55.000000
2.650159 -0.726290 -0.577525 49.000000
2.648858 -0.734677 -0.577744 54.000000
2.649410 -0.743590 -0.578401 48.000000
2.650871 -0.752780 -0.579278 68.000000
2.650425 -0.761447 -0.579716 48.000000
2.652762 -0.770934 -0.580812 69.000000
2.651320 -0.779344 -0.581031 61.000000
2.652658 -0.788585 -0.581908 57.000000
2.650226 -0.796719 -0.581908 39.000000
2.649637 -0.805413 -0.582346 47.000000
2.645288 -0.812966 -0.581908 50.000000
2.644645 -0.821656 -0.582346 64.000000
2.640250 -0.829182 -0.581908 50.000000
2.638623 -0.837573 -0.582127 41.000000
2.638829 -0.846557 -0.582785 42.000000
2.639004 -0.855550 -0.583442 39.000000
2.637294 -0.863946 -0.583661 23.000000
2.642969 -0.874789 -0.585634 17.000000
2.746939 -0.041455 -0.611521 37.000000
2.736097 -0.049686 -0.608983 27.000000
2.739823 -0.058163 -0.609906 38.000000
2.734768 -0.066450 -0.608753 50.000000
2.729688 -0.074706 -0.607599 49.000000
2.723611 -0.082902 -0.606215 55.000000
2.720426 -0.091159 -0.605522 56.000000
2.719161 -0.099469 -0.605292 48.000000
2.715927 -0.107695 -0.604599 50.000000
2.716556 -0.116068 -0.604830 58.000000
2.716187 -0.124402 -0.604830 61.000000
2.717736 -0.132830 -0.605292 54.000000
2.723146 -0.141471 -0.606676 56.000000
2.723671 -0.149878 -0.606907 46.000000
2.722227 -0.158177 -0.606676 42.000000
2.722700 -0.166588 -0.606907 53.000000
2.722176 -0.174940 -0.606907 66.000000
2.721626 -0.183291 -0.606907 47.000000
2.717169 -0.191366 -0.605984 51.000000
2.715599 -0.199630 -0.605753 61.000000
2.715944 -0.208034 -0.605984 55.000000
2.716262 -0.216443 -0.606215 68.000000
2.716555 -0.224856 -0.606445 61.000000
2.712944 -0.232939 -0.605753 57.000000
2.709309 -0.241002 -0.605061 56.000000
2.713402 -0.249760 -0.606215 60.000000
2.709717 -0.257806 -0.605522 58.000000
2.706008 -0.265832 -0.604830 62.000000
2.704212 -0.274035 -0.604599 62.000000
2.702391 -0.282229 -0.604369 54.000000
2.705382 -0.290935 -0.605292 43.000000
2.703509 -0.299126 -0.605061 55.000000
2.695812 -0.306649 -0.603446 56.000000
2.689915 -0.339463 -0.602984 56.000000
2.684036 -0.347090 -0.601831 57.000000
2.685852 -0.355706 -0.602523 45.000000
2.685712 -0.364075 -0.602754 41.000000
2.687474 -0.372715 -0.603446 65.000000
2.690171 -0.381505 -0.604369 46.000000
2.687062 -0.389477 -0.603907 48.000000
2.683930 -0.397434 -0.603446 42.000000
2.690394 -0.406831 -0.605292 57.000000
2.687211 -0.414786 -0.604830 58.000000
2.686886 -0.423180 -0.605061 55.000000
2.683654 -0.431112 -0.604599 53.000000
2.678478 -0.438714 -0.603676 56.000000
2.679039 -0.447250 -0.604138 57.000000
2.679573 -0.455794 -0.604599 55.000000
2.679120 -0.464179 -0.604830 47.000000
2.677684 -0.472396 -0.604830 50.000000
2.677179 -0.480781 -0.605061 53.000000
2.680477 -0.489867 -0.606215 36.000000
2.682788 -0.498800 -0.607137 43.000000
2.682201 -0.507210 -0.607368 41.000000
2.678722 -0.515068 -0.606907 65.000000
2.673309 -0.522537 -0.605984 55.000000
2.669785 -0.530357 -0.605522 58.000000
2.670053 -0.538930 -0.605984 62.000000
2.666480 -0.546728 -0.605522 65.000000
2.662885 -0.554509 -0.605061 54.000000
2.658316 -0.562072 -0.604369 45.000000
2.662287 -0.571451 -0.605753 53.000000
2.661472 -0.579823 -0.605984 50.000000
2.662530 -0.588616 -0.606676 43.000000
2.658813 -0.596356 -0.606215 43.000000
2.657920 -0.604726 -0.606445 62.000000
2.657948 -0.613316 -0.606907 48.000000
2.659844 -0.622355 -0.607830 42.000000
2.659815 -0.630961 -0.608291 49.000000
2.660705 -0.639801 -0.608983 41.000000
2.658730 -0.647961 -0.608983 49.000000
2.657674 -0.656349 -0.609214 51.000000
2.657535 -0.664972 -0.609675 41.000000
2.654540 -0.672883 -0.609445 59.000000
2.649636 -0.680297 -0.608753 79.000000
2.647536 -0.688423 -0.608753 67.000000
2.650116 -0.697782 -0.609906 50.000000
2.648903 -0.706160 -0.610137 58.000000
2.647663 -0.714537 -0.610368 51.000000
2.648274 -0.723426 -0.611060 50.000000
2.645105 -0.731288 -0.610829 55.000000
2.644723 -0.739924 -0.611291 41.000000
2.646185 -0.749095 -0.612213 63.000000
2.645745 -0.757746 -0.612675 51.000000
2.647146 -0.766943 -0.613598 46.000000
2.644781 -0.775061 -0.613598 41.000000
2.642390 -0.783171 -0.613598 34.000000
2.643703 -0.792392 -0.614521 41.000000
2.643122 -0.801064 -0.614982 48.000000
2.637861 -0.808314 -0.614290 41.000000
2.635369 -0.816403 -0.614290 52.000000
2.631923 -0.824193 -0.614059 48.000000
2.630310 -0.832558 -0.614290 48.000000
2.626817 -0.840327 -0.614059 44.000000
2.627004 -0.849280 -0.614751 38.000000
2.616987 -0.854917 -0.612906 43.000000
2.620819 -0.865078 -0.614521 27.000000
2.649535 -0.883585 -0.622366 13.000000
2.734382 -0.034661 -0.642207 21.000000
2.711221 -0.075985 -0.636638 45.000000
2.710006 -0.084273 -0.636396 43.000000
2.706825 -0.092488 -0.635670 48.000000
2.706529 -0.100792 -0.635670 44.000000
2.707176 -0.109134 -0.635912 48.000000
2.706829 -0.117439 -0.635912 53.000000
2.706456 -0.125743 -0.635912 50.000000
2.706058 -0.134045 -0.635912 59.000000
2.703696 -0.142246 -0.635428 47.000000
2.709059 -0.150861 -0.636881 45.000000
2.711489 -0.159341 -0.637607 52.000000
2.711956 -0.167719 -0.637849 44.000000
2.716270 -0.176350 -0.639059 42.000000
2.719588 -0.184944 -0.640028 54.000000
2.716105 -0.193082 -0.639301 63.000000
2.711629 -0.201129 -0.638333 54.000000
2.706162 -0.209075 -0.637123 57.000000
2.698738 -0.216836 -0.635428 54.000000
2.697093 -0.225034 -0.635186 46.000000
2.692523 -0.232974 -0.634218 45.000000
2.690829 -0.241148 -0.633976 54.000000
2.691043 -0.249491 -0.634218 54.000000
2.693162 -0.258022 -0.634944 47.000000
2.686565 -0.265713 -0.633491 37.000000
2.691529 -0.274542 -0.634944 62.000000
2.685849 -0.282294 -0.633733 45.000000
2.684005 -0.290428 -0.633491 48.000000
2.681173 -0.298448 -0.633007 48.000000
2.679281 -0.306562 -0.632765 37.000000
2.674473 -0.314329 -0.631797 39.000000
2.671569 -0.322301 -0.631312 53.000000
2.670568 -0.330496 -0.631312 54.000000
2.672429 -0.339053 -0.632039 51.000000
2.672339 -0.347375 -0.632281 49.000000
2.668375 -0.355189 -0.631555 57.000000
2.665350 -0.363112 -0.631070 64.000000
2.668067 -0.371822 -0.632039 56.000000
2.670756 -0.380552 -0.633007 42.000000
2.665735 -0.388186 -0.632039 39.000000
2.667411 -0.396789 -0.632765 51.000000
2.670019 -0.405552 -0.633733 50.000000
2.673556 -0.414483 -0.634944 58.000000
2.677064 -0.423439 -0.636154 56.000000
2.673836 -0.431342 -0.635670 47.000000
2.668671 -0.438915 -0.634702 42.000000
2.671139 -0.447740 -0.635670 55.000000
2.672623 -0.456422 -0.636396 43.000000
2.673122 -0.464951 -0.636881 57.000000
2.669772 -0.472812 -0.636396 59.000000
2.667354 -0.480829 -0.636154 49.000000
2.667775 -0.489359 -0.636638 46.000000
2.671030 -0.498430 -0.637849 45.000000
2.670442 -0.506802 -0.638091 39.000000
2.666016 -0.514443 -0.637365 48.000000
2.666330 -0.522992 -0.637849 57.000000
2.669471 -0.532116 -0.639059 53.000000
2.671630 -0.541072 -0.640028 55.000000
2.669007 -0.549071 -0.639786 50.000000
2.665410 -0.556861 -0.639301 46.000000
2.663689 -0.565035 -0.639301 52.000000
2.662892 -0.573409 -0.639544 42.000000
2.657328 -0.580749 -0.638575 47.000000
2.652692 -0.588270 -0.637849 37.000000
2.648035 -0.595767 -0.637123 57.000000
2.644302 -0.603458 -0.636638 48.000000
2.641493 -0.611349 -0.636396 48.000000
2.639605 -0.619450 -0.636396 43.000000
2.638636 -0.627770 -0.636638 50.000000
2.637641 -0.636089 -0.636881 50.000000
2.639447 -0.645098 -0.637849 43.000000
2.636514 -0.652960 -0.637607 48.000000
2.635440 -0.661281 -0.637849 43.000000
2.633399 -0.669364 -0.637849 52.000000
2.631333 -0.677440 -0.637849 60.000000
2.624547 -0.684287 -0.636638 54.000000
2.626188 -0.693325 -0.637607 50.000000
2.623111 -0.701129 -0.637365 58.000000
2.620011 -0.708920 -0.637123 58.000000
2.621567 -0.717978 -0.638091 46.000000
2.621222 -0.726535 -0.638575 51.000000
2.621784 -0.735359 -0.639301 42.000000
2.625117 -0.744986 -0.640754 45.000000
2.624684 -0.753570 -0.641238 35.000000
2.620496 -0.761079 -0.640754 44.000000
2.620011 -0.769661 -0.641238 38.000000
2.618568 -0.777971 -0.641480 51.000000
2.618027 -0.786559 -0.641964 55.000000
2.616530 -0.794869 -0.642207 49.000000
2.613152 -0.802608 -0.641964 40.000000
2.613457 -0.811483 -0.642691 57.000000
2.617436 -0.821529 -0.644385 55.000000
2.613979 -0.829262 -0.644143 36.000000
2.614194 -0.838165 -0.644870 27.000000
2.606072 -0.844389 -0.643417 43.000000
2.604391 -0.852682 -0.643659 40.000000
2.615582 -0.865233 -0.647291 19.000000
2.595429 -0.867418 -0.642691 6.000000
2.705906 -0.040360 -0.668631 42.000000
2.708671 -0.048714 -0.669391 33.000000
2.705607 -0.056963 -0.668631 38.000000
2.706387 -0.065287 -0.668884 45.000000
2.707141 -0.073616 -0.669138 40.000000
2.704968 -0.081862 -0.668631 52.000000
2.702771 -0.090096 -0.668124 48.000000
2.697648 -0.098210 -0.666857 43.000000
2.697334 -0.106486 -0.666857 44.000000
2.698928 -0.114844 -0.667364 71.000000
2.696630 -0.123035 -0.666857 43.000000
2.697206 -0.131355 -0.667110 46.000000
2.691960 -0.139378 -0.665843 43.000000
2.696349 -0.147902 -0.667110 55.000000
2.696848 -0.156230 -0.667364 62.000000
2.696357 -0.164503 -0.667364 38.000000
2.693908 -0.172650 -0.666857 53.000000
2.695297 -0.181044 -0.667364 57.000000
2.693763 -0.189244 -0.667110 46.000000
2.694135 -0.197579 -0.667364 42.000000
2.689658 -0.205548 -0.666350 54.000000
2.685158 -0.213491 -0.665337 49.000000
2.688346 -0.222047 -0.666350 49.000000
2.687652 -0.230294 -0.666350 70.000000
2.688860 -0.238710 -0.666857 58.000000
2.690042 -0.247135 -0.667364 55.000000
2.690234 -0.255479 -0.667617 48.000000
2.691363 -0.263920 -0.668124 57.000000
2.690541 -0.272176 -0.668124 60.000000
2.681996 -0.279625 -0.666097 56.000000
2.682087 -0.287956 -0.666350 52.000000
2.681191 -0.296183 -0.666350 48.000000
2.683153 -0.304735 -0.667110 60.000000
2.679212 -0.337639 -0.667110 56.000000
2.674326 -0.345361 -0.666097 49.000000
2.673254 -0.353564 -0.666097 58.000000
2.664487 -0.360724 -0.664069 45.000000
2.663368 -0.368897 -0.664069 49.000000
2.668928 -0.378017 -0.665843 54.000000
2.661055 -0.385232 -0.664069 50.000000
2.656989 -0.392969 -0.663309 59.000000
2.658641 -0.401553 -0.664069 44.000000
2.657396 -0.409708 -0.664069 64.000000
2.659949 -0.418460 -0.665083 53.000000
2.663428 -0.427386 -0.666350 49.000000
2.663059 -0.435712 -0.666604 72.000000
2.666481 -0.444676 -0.667871 49.000000
2.671780 -0.453990 -0.669645 46.000000
2.667515 -0.461689 -0.668884 49.000000
2.659417 -0.468695 -0.667110 50.000000
2.656063 -0.476510 -0.666604 51.000000
2.651733 -0.484134 -0.665843 41.000000
2.648333 -0.491914 -0.665337 40.000000
2.648713 -0.500396 -0.665843 51.000000
2.649065 -0.508885 -0.666350 50.000000
2.648441 -0.517195 -0.666604 57.000000
2.656330 -0.527203 -0.669138 47.000000
2.660389 -0.536498 -0.670658 55.000000
2.659678 -0.544852 -0.670912 52.000000
2.656100 -0.552615 -0.670405 42.000000
2.657232 -0.561361 -0.671165 57.000000
2.654551 -0.569308 -0.670912 50.000000
2.653737 -0.577655 -0.671165 69.000000
2.653841 -0.586211 -0.671672 58.000000
2.653919 -0.594774 -0.672179 51.000000
2.650195 -0.602484 -0.671672 57.000000
2.651161 -0.611264 -0.672432 53.000000
2.651158 -0.619836 -0.672939 38.000000
2.649244 -0.627966 -0.672939 56.000000
2.647305 -0.636091 -0.672939 63.000000
2.642521 -0.643523 -0.672179 65.000000
2.637717 -0.650931 -0.671419 52.000000
2.637584 -0.659490 -0.671925 62.000000
2.637424 -0.668055 -0.672432 48.000000
2.631614 -0.675181 -0.671419 46.000000
2.627658 -0.682764 -0.670912 46.000000
2.622744 -0.690084 -0.670152 50.000000
2.624354 -0.699124 -0.671165 59.000000
2.618461 -0.706164 -0.670152 53.000000
2.614416 -0.713684 -0.669645 37.000000
2.613146 -0.721959 -0.669898 48.000000
2.614645 -0.731015 -0.670912 43.000000
2.612390 -0.739034 -0.670912 53.000000
2.611970 -0.747577 -0.671419 47.000000
2.610594 -0.755856 -0.671672 48.000000
2.609191 -0.764134 -0.671925 46.000000
2.605907 -0.771860 -0.671672 44.000000
2.604453 -0.780129 -0.671925 62.000000
2.600196 -0.787555 -0.671419 48.000000
2.599617 -0.796095 -0.671925 52.000000
2.598087 -0.804353 -0.672179 36.000000
2.599299 -0.813477 -0.673193 59.000000
2.598636 -0.822031 -0.673699 46.000000
2.601630 -0.831768 -0.675220 42.000000
2.600907 -0.840341 -0.675727 49.000000
2.601995 -0.849518 -0.676740 36.000000
2.596621 -0.856587 -0.675980 40.000000
2.593062 -0.864243 -0.675727 14.000000
2.716241 -0.033967 -0.703658 24.000000
2.693679 -0.091577 -0.697846 48.000000
2.694349 -0.099876 -0.698110 35.000000
2.692102 -0.108065 -0.697582 49.000000
2.691758 -0.116324 -0.697582 44.000000
2.687535 -0.124404 -0.696525 46.000000
2.683287 -0.132461 -0.695468 39.000000
2.682868 -0.140692 -0.695468 60.000000
2.681461 -0.148869 -0.695204 41.000000
2.680029 -0.157039 -0.694940 48.000000
2.676646 -0.165084 -0.694147 52.000000
2.676127 -0.173295 -0.694147 38.000000
2.680394 -0.181829 -0.695468 50.000000
2.679824 -0.190051 -0.695468 58.000000
2.680190 -0.198343 -0.695732 43.000000
2.673799 -0.206122 -0.694147 44.000000
2.670270 -0.214094 -0.693354 44.000000
2.671523 -0.222445 -0.693883 34.000000
2.669867 -0.230557 -0.693619 36.000000
2.667226 -0.238576 -0.693090 41.000000
2.669363 -0.247023 -0.693883 45.000000
2.666672 -0.255029 -0.693354 37.000000
2.672596 -0.263869 -0.695204 39.000000
2.670814 -0.271970 -0.694940 37.000000
2.669008 -0.280063 -0.694675 61.000000
2.671013 -0.288559 -0.695468 38.000000
2.668198 -0.296540 -0.694940 40.000000
2.669192 -0.304943 -0.695468 42.000000
2.662496 -0.312458 -0.693883 33.000000
2.661525 -0.320625 -0.693883 42.000000
2.662443 -0.329025 -0.694411 48.000000
2.656637 -0.336588 -0.693090 34.000000
2.656548 -0.344860 -0.693354 50.000000
2.651653 -0.352502 -0.692297 38.000000
2.649604 -0.360506 -0.692033 40.000000
2.649441 -0.368766 -0.692297 44.000000
2.651161 -0.377299 -0.693090 42.000000
2.648082 -0.385154 -0.692562 36.000000
2.648796 -0.393559 -0.693090 43.000000
2.646623 -0.401539 -0.692826 36.000000
2.649191 -0.410246 -0.693883 38.000000
2.646015 -0.418071 -0.693354 39.000000
2.643768 -0.426034 -0.693090 59.000000
2.645303 -0.434611 -0.693883 53.000000
2.644909 -0.442883 -0.694147 44.000000
2.643538 -0.450996 -0.694147 39.000000
2.647843 -0.460092 -0.695732 36.000000
2.648319 -0.468549 -0.696261 50.000000
2.651615 -0.477524 -0.697582 20.000000
2.648240 -0.485310 -0.697053 33.000000
2.649583 -0.493961 -0.697846 50.000000
2.645212 -0.501550 -0.697053 40.000000
2.645555 -0.510027 -0.697582 54.000000
2.639246 -0.517216 -0.696261 47.000000
2.637646 -0.525311 -0.696261 47.000000
2.639804 -0.534164 -0.697317 33.000000
2.637208 -0.542067 -0.697053 38.000000
2.632700 -0.549565 -0.696261 37.000000
2.633832 -0.558238 -0.697053 42.000000
2.633993 -0.566721 -0.697582 38.000000
2.637896 -0.576031 -0.699167 41.000000
2.635175 -0.583913 -0.698903 45.000000
2.632430 -0.591784 -0.698638 47.000000
2.630602 -0.599857 -0.698638 31.000000
2.631569 -0.608576 -0.699431 46.000000
2.629689 -0.616646 -0.699431 64.000000
2.626847 -0.624489 -0.699167 39.000000
2.620229 -0.631417 -0.697846 47.000000
2.618280 -0.639453 -0.697846 32.000000
2.616306 -0.647483 -0.697846 44.000000
2.613372 -0.655272 -0.697582 42.000000
2.616958 -0.664709 -0.699167 53.000000
2.607434 -0.670815 -0.697053 38.000000
2.606297 -0.679054 -0.697317 45.000000
2.610729 -0.688766 -0.699167 38.000000
2.603945 -0.695530 -0.697846 21.000000
2.612041 -0.706281 -0.700752 31.000000
2.610792 -0.714545 -0.701016 35.000000
2.611377 -0.723323 -0.701809 44.000000
2.617504 -0.733670 -0.704187 52.000000
2.616169 -0.741960 -0.704451 42.000000
2.613880 -0.749983 -0.704451 35.000000
2.610641 -0.757730 -0.704187 46.000000
2.612931 -0.767092 -0.705508 34.000000
2.611491 -0.775379 -0.705772 35.000000
2.602632 -0.781449 -0.703923 40.000000
2.599300 -0.789150 -0.703658 40.000000
2.595944 -0.796838 -0.703394 48.000000
2.597172 -0.805940 -0.704451 42.000000
2.592847 -0.813328 -0.703923 49.000000
2.590339 -0.821279 -0.703923 35.000000
2.593319 -0.830986 -0.705508 33.000000
2.591675 -0.839235 -0.705772 41.000000
2.586338 -0.846283 -0.704980 11.000000
2.580982 -0.853307 -0.704187 25.000000
2.585671 -0.863663 -0.706301 18.000000
2.687407 -0.032302 -0.728937 21.000000
2.698830 -0.040722 -0.732241 35.000000
2.691964 -0.048879 -0.730314 36.000000
2.690840 -0.057117 -0.730038 38.000000
2.686809 -0.065278 -0.728937 36.000000
2.687557 -0.073547 -0.729212 40.000000
2.682513 -0.081645 -0.727836 56.000000
2.685133 -0.089972 -0.728662 47.000000
2.692530 -0.098491 -0.730864 50.000000
2.696058 -0.106904 -0.731965 59.000000
2.697638 -0.115257 -0.732516 46.000000
2.697272 -0.123533 -0.732516 41.000000
2.691118 -0.131525 -0.730864 45.000000
2.692623 -0.139881 -0.731415 51.000000
2.687381 -0.147876 -0.730038 62.000000
2.679237 -0.155673 -0.727836 50.000000
2.671070 -0.163421 -0.725634 38.000000
2.668638 -0.171492 -0.725083 46.000000
2.669058 -0.179743 -0.725358 53.000000
2.666576 -0.187795 -0.724808 33.000000
2.665029 -0.195905 -0.724532 42.000000
2.663457 -0.204007 -0.724257 54.000000
2.666652 -0.212483 -0.725358 50.000000
2.667903 -0.220822 -0.725909 47.000000
