ply
format ascii 1.0
element vertex 1256
property float x
property float y
property float z
property float intensity
end_header
3.257614 -0.805299 0.684183 42.000000
3.252271 -0.814574 0.683612 36.000000
3.250709 -0.824789 0.683802 33.000000
3.250065 -0.835247 0.684183 38.000000
3.247487 -0.845214 0.684183 36.000000
3.247727 -0.855923 0.684755 34.000000
3.245085 -0.865882 0.684755 39.000000
3.238622 -0.874811 0.683993 44.000000
3.239712 -0.885778 0.684755 32.000000
3.234140 -0.894928 0.684183 33.000000
3.235161 -0.905904 0.684945 46.000000
3.235200 -0.916627 0.685517 27.000000
3.233317 -0.926818 0.685707 34.000000
3.230458 -0.936733 0.685707 41.000000
3.228511 -0.946916 0.685898 33.000000
3.228414 -0.957653 0.686469 44.000000
3.224521 -0.967271 0.686279 37.000000
3.220598 -0.976875 0.686088 55.000000
3.220402 -0.987613 0.686660 39.000000
3.219233 -0.998069 0.687040 27.000000
3.222713 -1.009994 0.688374 36.000000
3.219600 -1.019876 0.688374 41.000000
3.218326 -1.030347 0.688755 26.000000
3.217952 -1.041122 0.689326 33.000000
3.211010 -1.049770 0.688564 29.000000
3.204977 -1.058694 0.687993 36.000000
3.203577 -1.069143 0.688374 24.000000
3.196560 -1.077713 0.687612 40.000000
3.193239 -1.087515 0.687612 39.000000
3.188959 -1.096987 0.687421 27.000000
3.186506 -1.107087 0.687612 32.000000
3.184021 -1.117183 0.687802 42.000000
3.184280 -1.128256 0.688564 34.000000
3.181728 -1.138351 0.688755 45.000000
3.178221 -1.148107 0.688755 54.000000
3.175606 -1.158188 0.688945 39.000000
3.176645 -1.169619 0.689897 39.000000
3.175802 -1.180385 0.690469 36.000000
3.177681 -1.192190 0.691612 30.000000
3.176763 -1.202975 0.692183 37.000000
3.176726 -1.214116 0.692945 42.000000
3.180315 -1.226680 0.694469 32.000000
3.181111 -1.238210 0.695421 35.000000
3.177297 -1.247964 0.695421 37.000000
3.172541 -1.257345 0.695230 42.000000
3.167757 -1.266708 0.695040 34.000000
3.165677 -1.277154 0.695421 47.000000
3.159015 -1.285751 0.694850 34.000000
3.148698 -1.292829 0.693516 54.000000
3.143810 -1.302108 0.693326 44.000000
3.137989 -1.310990 0.692945 39.000000
3.136666 -1.321754 0.693516 26.000000
3.133500 -1.331755 0.693707 44.000000
3.125789 -1.339816 0.692945 33.000000
3.120763 -1.349010 0.692754 46.000000
3.117510 -1.358970 0.692945 34.000000
3.116921 -1.370107 0.693707 40.000000
3.114498 -1.380458 0.694088 33.000000
3.112938 -1.391208 0.694659 48.000000
3.113131 -1.402766 0.695611 40.000000
3.114176 -1.414745 0.696754 37.000000
3.122318 -1.430011 0.699421 43.000000
3.121482 -1.441229 0.700183 42.000000
3.120606 -1.452454 0.700944 32.000000
3.123247 -1.465355 0.702468 48.000000
3.119624 -1.475349 0.702659 27.000000
3.110651 -1.482803 0.701706 51.000000
3.110513 -1.494463 0.702659 35.000000
3.105913 -1.503999 0.702659 36.000000
3.100402 -1.513090 0.702468 35.000000
3.098388 -1.523894 0.703040 28.000000
3.088420 -1.530779 0.701897 32.000000
3.088979 -1.542877 0.703040 8.000000
3.276403 -0.723822 0.642487 14.000000
3.287608 -0.736885 0.644987 38.000000
3.283413 -0.746531 0.644630 39.000000
3.282066 -0.756822 0.644809 21.000000
3.284519 -0.768008 0.645702 23.000000
3.281190 -0.777854 0.645523 34.000000
3.275918 -0.787227 0.644987 42.000000
3.273487 -0.797274 0.644987 40.000000
3.271026 -0.807313 0.644987 31.000000
3.271397 -0.818061 0.645523 30.000000
3.268872 -0.828094 0.645523 38.000000
3.263457 -0.837385 0.644987 39.000000
3.262777 -0.847888 0.645345 35.000000
3.257306 -0.857143 0.644809 35.000000
3.255612 -0.867385 0.644987 34.000000
3.250086 -0.876600 0.644451 35.000000
3.246432 -0.886308 0.644273 37.000000
3.244646 -0.896526 0.644451 32.000000
3.243775 -0.907006 0.644809 32.000000
3.242871 -0.917490 0.645166 41.000000
3.242878 -0.928247 0.645702 27.000000
3.243795 -0.939287 0.646416 34.000000
3.244675 -0.950341 0.647131 38.000000
3.244575 -0.961130 0.647667 44.000000
3.245380 -0.972209 0.648381 32.000000
3.241441 -0.981876 0.648203 32.000000
3.238413 -0.991816 0.648203 31.000000
3.238175 -1.002620 0.648739 39.000000
3.234144 -1.012256 0.648560 44.000000
3.227272 -1.020986 0.647845 48.000000
3.227873 -1.032081 0.648560 33.000000
3.225627 -1.042282 0.648739 40.000000
3.219608 -1.051257 0.648203 33.000000
3.216368 -1.061129 0.648203 31.000000
3.216831 -1.072237 0.648917 44.000000
3.215391 -1.082729 0.649274 37.000000
3.217643 -1.094490 0.650346 35.000000
3.214270 -1.104357 0.650346 31.000000
3.208078 -1.113245 0.649810 48.000000
3.207433 -1.124058 0.650346 36.000000
3.208607 -1.135535 0.651239 42.000000
3.204182 -1.145042 0.651061 36.000000
3.199728 -1.154533 0.650882 40.000000
3.198020 -1.165018 0.651239 30.000000
3.191661 -1.173805 0.650704 42.000000
3.188967 -1.183934 0.650882 34.000000
3.189926 -1.195439 0.651775 39.000000
3.181642 -1.203479 0.650882 26.000000
3.180693 -1.214287 0.651418 43.000000
3.182461 -1.226163 0.652490 44.000000
3.180518 -1.236634 0.652847 39.000000
3.177625 -1.246745 0.653026 36.000000
3.180188 -1.259024 0.654276 44.000000
3.175397 -1.268410 0.654097 36.000000
3.171491 -1.278146 0.654097 42.000000
3.170289 -1.288982 0.654633 39.000000
3.166320 -1.298702 0.654633 33.000000
3.164139 -1.309163 0.654991 47.000000
3.165555 -1.321139 0.656062 32.000000
3.159673 -1.330080 0.655705 40.000000
3.157389 -1.340537 0.656062 42.000000
3.153261 -1.350218 0.656062 36.000000
3.145491 -1.358325 0.655348 44.000000
3.138603 -1.366790 0.654812 31.000000
3.137098 -1.377599 0.655348 42.000000
3.131057 -1.386420 0.654991 34.000000
3.131281 -1.398026 0.655884 39.000000
3.132360 -1.410050 0.656956 56.000000
3.129811 -1.420467 0.657313 56.000000
3.135280 -1.434566 0.659278 32.000000
3.131757 -1.444591 0.659456 44.000000
3.130879 -1.455852 0.660171 40.000000
3.136197 -1.470045 0.662136 40.000000
3.130783 -1.479239 0.661957 42.000000
3.126230 -1.488838 0.661957 35.000000
3.126082 -1.500551 0.662850 43.000000
3.120578 -1.509706 0.662672 27.000000
3.123891 -1.523155 0.664279 33.000000
3.116554 -1.531429 0.663744 30.000000
3.117131 -1.543604 0.664815 20.000000
3.136150 -1.565025 0.669638 10.000000
3.320437 -0.734841 0.609320 14.000000
3.299888 -0.740927 0.606148 41.000000
3.298560 -0.751266 0.606315 28.000000
3.293358 -0.760717 0.605815 30.000000
3.291008 -0.770818 0.605815 26.000000
3.290547 -0.781366 0.606148 26.000000
3.287175 -0.791227 0.605981 35.000000
3.288564 -0.802241 0.606649 31.000000
3.288959 -0.813036 0.607150 48.000000
3.290276 -0.824079 0.607818 37.000000
3.289643 -0.834654 0.608152 55.000000
3.279427 -0.842782 0.606816 35.000000
3.277780 -0.853087 0.606983 36.000000
3.273241 -0.862637 0.606649 32.000000
3.268673 -0.872168 0.606315 39.000000
3.265030 -0.881935 0.606148 38.000000
3.256602 -0.890389 0.605147 40.000000
3.253855 -0.900376 0.605147 40.000000
3.256775 -0.911948 0.606148 34.000000
3.250167 -0.920861 0.605481 46.000000
3.250170 -0.931643 0.605981 33.000000
3.248243 -0.941884 0.606148 46.000000
3.248177 -0.952676 0.606649 42.000000
3.249020 -0.963757 0.607317 44.000000
3.250771 -0.975136 0.608152 32.000000
3.245877 -0.984532 0.607818 29.000000
3.241898 -0.994197 0.607651 38.000000
3.236949 -1.003555 0.607317 36.000000
3.232914 -1.013187 0.607150 33.000000
3.228850 -1.022803 0.606983 43.000000
3.226636 -1.033005 0.607150 25.000000
3.223452 -1.042899 0.607150 36.000000
3.224923 -1.054314 0.607985 35.000000
3.225419 -1.065438 0.608653 47.000000
3.222135 -1.075329 0.608653 29.000000
3.222558 -1.086468 0.609320 37.000000
3.222944 -1.097620 0.609988 38.000000
3.216764 -1.106541 0.609487 36.000000
3.215217 -1.117051 0.609821 35.000000
3.213635 -1.127562 0.610155 42.000000
3.214809 -1.139061 0.610990 31.000000
3.212227 -1.149251 0.611157 26.000000
3.207759 -1.158765 0.610990 33.000000
3.202336 -1.167926 0.610656 43.000000
3.198738 -1.177745 0.610656 35.000000
3.193261 -1.186867 0.610322 46.000000
3.179448 -1.192852 0.608486 26.000000
3.184996 -1.206089 0.610155 38.000000
3.184044 -1.216910 0.610656 48.000000
3.185816 -1.228800 0.611657 41.000000
3.184788 -1.239640 0.612158 38.000000
3.180969 -1.249405 0.612158 28.000000
3.180789 -1.260610 0.612826 51.000000
3.180568 -1.271826 0.613494 34.000000
3.180309 -1.283052 0.614162 29.000000
3.178185 -1.293546 0.614495 37.000000
3.177850 -1.304787 0.615163 41.000000
3.176565 -1.315661 0.615664 32.000000
3.181613 -1.329198 0.617333 37.000000
3.180246 -1.340101 0.617834 40.000000
3.176120 -1.349851 0.617834 42.000000
3.171057 -1.359201 0.617667 58.000000
3.170493 -1.370487 0.618335 43.000000
3.162658 -1.378633 0.617667 41.000000
3.161122 -1.389518 0.618168 44.000000
3.154139 -1.398012 0.617667 45.000000
3.151635 -1.408486 0.618001 48.000000
3.148199 -1.418554 0.618168 43.000000
3.146525 -1.429428 0.618669 40.000000
3.143918 -1.439895 0.619003 29.000000
3.145753 -1.452425 0.620171 32.000000
3.145752 -1.464148 0.621006 32.000000
3.144817 -1.475466 0.621674 44.000000
3.142950 -1.486371 0.622175 33.000000
3.141936 -1.497702 0.622842 27.000000
3.136437 -1.506908 0.622676 31.000000
3.131799 -1.516523 0.622676 30.000000
3.132449 -1.528717 0.623677 27.000000
3.124204 -1.536580 0.623009 27.000000
3.118592 -1.545720 0.622842 28.000000
3.320456 -0.734165 0.566839 12.000000
3.298909 -0.740021 0.563741 37.000000
3.304329 -0.751893 0.564980 26.000000
3.302970 -0.762249 0.565135 30.000000
3.298692 -0.771929 0.564825 33.000000
3.297269 -0.782273 0.564980 38.000000
3.296775 -0.792848 0.565290 42.000000
3.299126 -0.804129 0.566064 44.000000
3.299521 -0.814957 0.566529 37.000000
3.297005 -0.825076 0.566529 33.000000
3.292543 -0.834702 0.566219 44.000000
3.285182 -0.843570 0.565445 42.000000
3.282579 -0.853645 0.565445 35.000000
3.278989 -0.863460 0.565290 38.000000
3.274415 -0.873007 0.564980 49.000000
3.271721 -0.883048 0.564980 41.000000
3.270903 -0.893603 0.565290 47.000000
3.269098 -0.903897 0.565445 44.000000
3.272018 -0.915520 0.566374 48.000000
3.272996 -0.926631 0.566993 40.000000
3.272037 -0.937212 0.567303 37.000000
3.273890 -0.948621 0.568078 58.000000
3.274757 -0.959773 0.568697 49.000000
3.277480 -0.971501 0.569626 36.000000
3.274484 -0.981551 0.569626 49.000000
3.269567 -0.991019 0.569317 58.000000
3.262733 -0.999887 0.568697 35.000000
3.256819 -1.009015 0.568233 45.000000
3.254650 -1.019297 0.568387 42.000000
3.250566 -1.028979 0.568233 39.000000
3.250217 -1.039850 0.568697 34.000000
3.251711 -1.051337 0.569472 38.000000
3.255044 -1.063457 0.570556 51.000000
3.254580 -1.074368 0.571020 44.000000
3.248457 -1.083409 0.570556 40.000000
3.245118 -1.093371 0.570556 50.000000
3.239878 -1.102684 0.570246 46.000000
3.229940 -1.110370 0.569162 47.000000
3.223718 -1.119302 0.568697 51.000000
3.216541 -1.127879 0.568078 44.000000
3.214927 -1.138401 0.568387 39.000000
3.210490 -1.147926 0.568233 37.000000
3.206953 -1.157771 0.568233 40.000000
3.206170 -1.168619 0.568697 40.000000
3.206278 -1.179815 0.569317 39.000000
3.210052 -1.192399 0.570556 46.000000
3.211929 -1.204324 0.571485 45.000000
3.208219 -1.214172 0.571485 51.000000
3.210016 -1.226125 0.572414 54.000000
3.211770 -1.238100 0.573344 43.000000
3.205194 -1.246873 0.572879 49.000000
3.204112 -1.257784 0.573344 42.000000
3.200238 -1.267608 0.573344 44.000000
3.193583 -1.276320 0.572879 53.000000
3.196065 -1.288698 0.573963 55.000000
3.193927 -1.299242 0.574273 47.000000
3.183528 -1.306409 0.573189 46.000000
3.183156 -1.317682 0.573808 41.000000
3.184568 -1.329726 0.574738 49.000000
3.179564 -1.339106 0.574583 53.000000
3.175440 -1.348855 0.574583 40.000000
3.170379 -1.358201 0.574428 32.000000
3.173452 -1.371057 0.575667 49.000000
3.171947 -1.381971 0.576132 30.000000
3.173120 -1.394080 0.577061 52.000000
3.169731 -1.404209 0.577216 48.000000
3.169918 -1.415942 0.577990 48.000000
3.172765 -1.428907 0.579229 39.000000
3.166567 -1.437817 0.578919 37.000000
3.162141 -1.447525 0.578919 32.000000
3.162170 -1.459290 0.579694 42.000000
3.158574 -1.469401 0.579849 37.000000
3.157629 -1.480763 0.580468 31.000000
3.153964 -1.490866 0.580623 41.000000
3.147591 -1.499685 0.580313 39.000000
3.150100 -1.512757 0.581552 38.000000
3.148112 -1.523705 0.582017 28.000000
3.141646 -1.532490 0.581707 33.000000
3.133384 -1.540377 0.581088 26.000000
3.123332 -1.547351 0.580159 27.000000
3.105312 -1.550305 0.577835 5.000000
3.324131 -0.745755 0.526038 22.000000
3.310246 -0.753318 0.524322 29.000000
3.310812 -0.764137 0.524751 35.000000
3.308452 -0.774291 0.524751 25.000000
3.306061 -0.784437 0.524751 33.000000
3.305564 -0.795039 0.525037 51.000000
3.301186 -0.804708 0.524751 35.000000
3.301584 -0.815543 0.525180 34.000000
3.300987 -0.826149 0.525466 33.000000
3.296518 -0.835786 0.525180 33.000000
3.296814 -0.846633 0.525609 32.000000
3.294202 -0.856744 0.525609 48.000000
3.288686 -0.866091 0.525180 35.000000
3.286014 -0.876176 0.525180 32.000000
3.286177 -0.887026 0.525609 42.000000
3.283440 -0.897104 0.525609 31.000000
3.280672 -0.907173 0.525609 34.000000
3.277874 -0.917234 0.525609 49.000000
3.280758 -0.928902 0.526467 37.000000
3.276942 -0.938691 0.526324 43.000000
3.276898 -0.949565 0.526753 42.000000
3.272070 -0.959058 0.526467 37.000000
3.272908 -0.970216 0.527039 32.000000
3.274657 -0.981672 0.527754 46.000000
3.271630 -0.991714 0.527754 38.000000
3.268572 -1.001746 0.527754 39.000000
3.269265 -1.012940 0.528326 43.000000
3.268031 -1.023556 0.528612 34.000000
3.264876 -1.033577 0.528612 37.000000
3.257919 -1.042384 0.528040 45.000000
3.259414 -1.053895 0.528755 47.000000
3.258048 -1.064504 0.529041 33.000000
3.258526 -1.075734 0.529612 40.000000
3.254271 -1.085413 0.529469 28.000000
3.250926 -1.095392 0.529469 28.000000
3.253172 -1.107272 0.530327 39.000000
3.248824 -1.116926 0.530184 29.000000
3.241642 -1.125591 0.529612 40.000000
3.236305 -1.134876 0.529326 45.000000
3.231875 -1.144470 0.529184 46.000000
3.233009 -1.156044 0.529898 45.000000
3.230378 -1.166293 0.530041 47.000000
3.228645 -1.176876 0.530327 43.000000
3.229663 -1.188483 0.531042 50.000000
3.229714 -1.199763 0.531614 36.000000
3.228798 -1.210708 0.532043 35.000000
3.226920 -1.221308 0.532329 44.000000
3.219459 -1.229791 0.531757 29.000000
3.223060 -1.242508 0.532901 39.000000
3.218310 -1.252031 0.532758 38.000000
3.210768 -1.260454 0.532186 45.000000
3.208727 -1.271027 0.532472 37.000000
3.210327 -1.283067 0.533330 38.000000
3.209130 -1.294019 0.533759 45.000000
3.205145 -1.303859 0.533759 33.000000
3.195635 -1.311433 0.532901 32.000000
3.193426 -1.321988 0.533187 38.000000
3.193009 -1.333303 0.533759 48.000000
3.187078 -1.342325 0.533473 39.000000
3.177479 -1.349777 0.532615 30.000000
3.177872 -1.361466 0.533330 41.000000
3.181859 -1.374739 0.534617 47.000000
3.183978 -1.387260 0.535617 36.000000
3.186958 -1.400204 0.536761 53.000000
3.186267 -1.411577 0.537333 31.000000
3.186440 -1.423363 0.538048 38.000000
3.184766 -1.434350 0.538477 43.000000
3.176745 -1.442479 0.537905 44.000000
3.174105 -1.453041 0.538191 40.000000
3.168734 -1.462358 0.538048 38.000000
3.164232 -1.472073 0.538048 31.000000
3.160597 -1.482193 0.538191 38.000000
3.157825 -1.492728 0.538477 39.000000
3.157699 -1.504537 0.539192 45.000000
3.161099 -1.518070 0.540479 39.000000
3.170683 -1.534656 0.542766 18.000000
3.158842 -1.540907 0.541622 26.000000
3.161206 -1.554082 0.542766 32.000000
3.176825 -1.573872 0.546055 9.000000
3.174638 -1.584936 0.546483 13.000000
3.407190 -0.731453 0.494733 9.000000
3.358436 -0.731766 0.488443 22.000000
3.351335 -0.740996 0.487788 49.000000
3.348079 -0.751057 0.487656 48.000000
3.341892 -0.760445 0.487132 35.000000
3.343407 -0.771586 0.487656 44.000000
3.340060 -0.781614 0.487525 53.000000
3.336681 -0.791628 0.487394 46.000000
3.327490 -0.800238 0.486477 51.000000
3.322129 -0.809738 0.486084 42.000000
3.321554 -0.820402 0.486346 43.000000
3.319022 -0.830589 0.486346 46.000000
3.315497 -0.840524 0.486215 44.000000
3.316744 -0.851678 0.486739 60.000000
3.315074 -0.862100 0.486870 52.000000
3.313373 -0.872519 0.487001 46.000000
3.311638 -0.882935 0.487132 47.000000
3.306999 -0.892574 0.486870 41.000000
3.304245 -0.902716 0.486870 44.000000
3.300505 -0.912584 0.486739 41.000000
3.294826 -0.921904 0.486346 55.000000
3.297705 -0.933629 0.487132 54.000000
3.294825 -0.943742 0.487132 42.000000
3.292866 -0.954122 0.487263 45.000000
3.291826 -0.964778 0.487525 40.000000
3.288851 -0.974872 0.487525 49.000000
3.290593 -0.986382 0.488181 49.000000
3.291346 -0.997623 0.488705 53.000000
3.286374 -1.007135 0.488443 49.000000
3.286109 -1.018093 0.488836 30.000000
3.287701 -1.029652 0.489491 64.000000
3.283581 -1.039434 0.489360 51.000000
3.283209 -1.050410 0.489753 40.000000
3.280915 -1.060783 0.489884 54.000000
3.273875 -1.069612 0.489360 52.000000
3.273403 -1.080583 0.489753 40.000000
3.271953 -1.091249 0.490015 43.000000
3.268589 -1.101282 0.490015 52.000000
3.268949 -1.112582 0.490539 41.000000
3.264583 -1.122284 0.490408 42.000000
3.262061 -1.132619 0.490539 57.000000
3.254829 -1.141309 0.490015 54.000000
3.252247 -1.151621 0.490146 67.000000
3.250565 -1.162261 0.490408 49.000000
3.243254 -1.170881 0.489884 39.000000
3.240578 -1.181165 0.490015 52.000000
3.237870 -1.191444 0.490146 43.000000
3.233270 -1.201027 0.490015 50.000000
3.234211 -1.212681 0.490671 46.000000
3.227694 -1.221545 0.490277 41.000000
3.226709 -1.232503 0.490671 45.000000
3.230313 -1.245250 0.491719 45.000000
3.230173 -1.256593 0.492243 48.000000
3.226302 -1.266497 0.492243 36.000000
3.227931 -1.278581 0.493029 54.000000
3.231358 -1.291422 0.494078 48.000000
3.230139 -1.302442 0.494471 52.000000
3.230719 -1.314214 0.495126 42.000000
3.225755 -1.323743 0.494995 47.000000
3.221679 -1.333633 0.494995 48.000000
3.223975 -1.346186 0.495912 42.000000
3.218003 -1.355300 0.495650 51.000000
3.213830 -1.365167 0.495650 48.000000
3.205070 -1.373068 0.494995 31.000000
3.209033 -1.386434 0.496174 50.000000
3.206582 -1.397065 0.496437 43.000000
3.206819 -1.408890 0.497092 44.000000
3.207919 -1.421132 0.497878 37.000000
3.208975 -1.433393 0.498664 29.000000
3.208178 -1.444860 0.499188 43.000000
3.204633 -1.455106 0.499319 52.000000
3.202857 -1.466169 0.499713 42.000000
3.198344 -1.475989 0.499713 44.000000
3.191105 -1.484539 0.499319 34.000000
3.182048 -1.492217 0.498664 36.000000
3.179247 -1.502820 0.498926 46.000000
3.172831 -1.511714 0.498664 41.000000
3.169072 -1.521870 0.498795 41.000000
3.167065 -1.532881 0.499188 51.000000
3.165911 -1.544330 0.499713 47.000000
3.167386 -1.557098 0.500630 48.000000
3.166147 -1.568569 0.501154 58.000000
3.167528 -1.581375 0.502071 34.000000
3.170632 -1.595096 0.503251 25.000000
3.177218 -1.610645 0.504954 14.000000
3.187270 -1.628053 0.507182 6.000000
3.345886 -0.739244 0.444707 22.000000
3.348448 -0.750590 0.445301 36.000000
3.352907 -0.762398 0.446134 38.000000
3.347649 -0.772013 0.445777 53.000000
3.347199 -0.782731 0.446015 46.000000
3.344781 -0.792997 0.446015 38.000000
3.340402 -0.802791 0.445777 32.000000
3.341782 -0.813974 0.446253 43.000000
3.340233 -0.824460 0.446371 39.000000
3.335762 -0.834223 0.446134 32.000000
3.339925 -0.846158 0.446966 42.000000
3.340199 -0.857140 0.447323 34.000000
3.336592 -0.867134 0.447204 31.000000
3.336797 -0.878124 0.447561 52.000000
3.331208 -0.887591 0.447204 44.000000
3.326553 -0.897290 0.446966 49.000000
3.326658 -0.908275 0.447323 43.000000
3.317156 -0.916628 0.446490 45.000000
3.313371 -0.926534 0.446371 47.000000
3.311469 -0.936964 0.446490 43.000000
3.308579 -0.947119 0.446490 54.000000
3.310426 -0.958645 0.447085 53.000000
3.310328 -0.969633 0.447442 51.000000
3.307338 -0.979784 0.447442 48.000000
3.306219 -0.990496 0.447680 45.000000
3.305066 -1.001209 0.447918 44.000000
3.301029 -1.011054 0.447799 63.000000
3.297911 -1.021177 0.447799 39.000000
3.292868 -1.030697 0.447561 39.000000
3.292531 -1.041692 0.447918 33.000000
3.289319 -1.051789 0.447918 44.000000
3.285132 -1.061570 0.447799 61.000000
3.285635 -1.072875 0.448274 51.000000
3.287986 -1.084815 0.448988 33.000000
3.293121 -1.097721 0.450058 44.000000
3.290679 -1.108135 0.450177 48.000000
3.290084 -1.119184 0.450534 52.000000
3.291331 -1.130884 0.451128 38.000000
3.285032 -1.140001 0.450772 47.000000
3.283393 -1.150730 0.451010 41.000000
3.275166 -1.159143 0.450415 60.000000
3.260374 -1.165180 0.448988 47.000000
3.259585 -1.176187 0.449345 51.000000
3.252230 -1.184824 0.448869 51.000000
3.245783 -1.193769 0.448512 40.000000
3.243037 -1.204066 0.448631 43.000000
3.241187 -1.214706 0.448869 55.000000
3.241160 -1.226048 0.449345 63.000000
3.243878 -1.238463 0.450177 61.000000
3.245622 -1.250549 0.450891 62.000000
3.245473 -1.261939 0.451366 44.000000
3.245284 -1.273339 0.451842 56.000000
3.243208 -1.284020 0.452080 40.000000
3.240176 -1.294332 0.452199 51.000000
3.238953 -1.305379 0.452556 43.000000
3.236773 -1.316057 0.452793 43.000000
3.232720 -1.325981 0.452793 42.000000
3.231390 -1.337031 0.453150 32.000000
3.227272 -1.346938 0.453150 54.000000
3.222210 -1.356448 0.453031 46.000000
3.222603 -1.368266 0.453626 36.000000
3.214739 -1.376584 0.453150 65.000000
3.211412 -1.386834 0.453269 45.000000
3.211694 -1.398661 0.453864 51.000000
3.211025 -1.410103 0.454339 45.000000
3.213040 -1.422760 0.455172 47.000000
3.216821 -1.436251 0.456242 47.000000
3.212399 -1.446113 0.456242 38.000000
3.215182 -1.459242 0.457194 37.000000
3.207981 -1.467861 0.456837 50.000000
3.206167 -1.478943 0.457194 40.000000
3.198013 -1.487099 0.456718 38.000000
3.189839 -1.495219 0.456242 38.000000
3.188828 -1.506694 0.456718 43.000000
3.186881 -1.517750 0.457075 41.000000
3.182209 -1.527520 0.457075 29.000000
3.179296 -1.538140 0.457312 28.000000
3.176347 -1.548756 0.457550 29.000000
3.176928 -1.561119 0.458264 36.000000
3.173904 -1.571739 0.458502 25.000000
3.169067 -1.581469 0.458502 21.000000
3.142907 -1.580485 0.455648 8.000000
3.384173 -0.758540 0.406957 17.000000
3.377952 -0.768037 0.406530 31.000000
3.366860 -0.776385 0.405569 39.000000
3.366398 -0.787164 0.405783 36.000000
3.359130 -0.796341 0.405249 33.000000
3.362472 -0.808037 0.405889 46.000000
3.363841 -0.819291 0.406316 56.000000
3.363242 -0.830084 0.406530 46.000000
3.357786 -0.839674 0.406210 46.000000
3.360013 -0.851193 0.406744 44.000000
3.359312 -0.861992 0.406957 47.000000
3.358577 -0.872795 0.407171 46.000000
3.351075 -0.881829 0.406637 36.000000
3.348354 -0.892106 0.406637 39.000000
3.346561 -0.902633 0.406744 45.000000
3.347613 -0.913944 0.407171 56.000000
3.344793 -0.924210 0.407171 48.000000
3.338112 -0.933396 0.406744 50.000000
3.331406 -0.942549 0.406316 49.000000
3.332322 -0.953861 0.406744 44.000000
3.329380 -0.964080 0.406744 50.000000
3.325452 -0.974010 0.406637 52.000000
3.318635 -0.983077 0.406210 50.000000
3.316556 -0.993540 0.406316 56.000000
3.317298 -1.004864 0.406744 56.000000
3.318002 -1.016201 0.407171 38.000000
3.314869 -1.026376 0.407171 46.000000
3.318347 -1.038621 0.407918 48.000000
3.317041 -1.049396 0.408132 42.000000
3.315699 -1.060174 0.408345 47.000000
3.319054 -1.072482 0.409093 35.000000
3.312913 -1.081733 0.408772 58.000000
3.312411 -1.092827 0.409093 52.000000
3.311872 -1.103928 0.409413 54.000000
3.307528 -1.113766 0.409306 56.000000
3.305036 -1.124228 0.409413 44.000000
3.301572 -1.134363 0.409413 49.000000
3.298076 -1.144486 0.409413 41.000000
3.297364 -1.155586 0.409734 44.000000
3.293803 -1.165697 0.409734 49.000000
3.290211 -1.175797 0.409734 51.000000
3.288459 -1.186561 0.409947 43.000000
3.288540 -1.198006 0.410374 47.000000
3.287648 -1.209119 0.410695 36.000000
3.282059 -1.218507 0.410481 46.000000
3.277375 -1.228222 0.410374 54.000000
3.271731 -1.237567 0.410161 54.000000
3.270705 -1.248663 0.410481 51.000000
3.273354 -1.261194 0.411229 54.000000
3.273175 -1.272673 0.411656 38.000000
3.269256 -1.282709 0.411656 46.000000
3.265305 -1.292733 0.411656 49.000000
3.264094 -1.303851 0.411976 36.000000
3.265611 -1.316090 0.412617 36.000000
3.257874 -1.324604 0.412190 42.000000
3.249195 -1.332705 0.411656 51.000000
3.246010 -1.343048 0.411762 35.000000
3.245544 -1.354532 0.412190 58.000000
3.244123 -1.365641 0.412510 52.000000
3.239918 -1.375587 0.412510 37.000000
3.236596 -1.385912 0.412617 48.000000
3.237806 -1.398201 0.413257 44.000000
3.236235 -1.409319 0.413578 50.000000
3.230986 -1.418841 0.413471 48.000000
3.227527 -1.429150 0.413578 47.000000
3.225851 -1.440261 0.413898 43.000000
3.220510 -1.449743 0.413791 36.000000
3.216047 -1.459617 0.413791 50.000000
3.215171 -1.471132 0.414219 50.000000
3.215156 -1.483072 0.414752 37.000000
3.212394 -1.493767 0.414966 50.000000
3.213197 -1.506148 0.415607 48.000000
3.213056 -1.518123 0.416141 51.000000
3.214667 -1.530967 0.416888 46.000000
3.213540 -1.542544 0.417315 33.000000
3.205213 -1.550663 0.416888 29.000000
3.200440 -1.560489 0.416888 30.000000
3.196530 -1.570739 0.416995 23.000000
3.194369 -1.581863 0.417315 15.000000
3.369200 -0.766713 0.364344 43.000000
3.383323 -0.780846 0.365959 30.000000
3.376064 -0.790090 0.365484 30.000000
3.362969 -0.797919 0.364439 44.000000
3.363409 -0.808930 0.364724 46.000000
3.360912 -0.819245 0.364724 44.000000
3.364181 -0.830983 0.365294 43.000000
3.360651 -0.841059 0.365199 42.000000
3.359019 -0.851610 0.365294 47.000000
3.360248 -0.862900 0.365674 53.000000
3.358549 -0.873455 0.365769 43.000000
3.356816 -0.884008 0.365864 38.000000
3.356012 -0.894815 0.366054 54.000000
3.352289 -0.904848 0.365959 36.000000
3.354299 -0.916438 0.366434 64.000000
3.351472 -0.926725 0.366434 45.000000
3.349572 -0.937270 0.366529 40.000000
3.348596 -0.948084 0.366719 43.000000
3.345672 -0.958353 0.366719 49.000000
3.342716 -0.968613 0.366719 51.000000
3.339729 -0.978864 0.366719 55.000000
3.333846 -0.988257 0.366434 55.000000
3.328891 -0.997910 0.366244 61.000000
3.326767 -1.008407 0.366339 54.000000
3.326513 -1.019482 0.366624 54.000000
3.325272 -1.030272 0.366814 51.000000
3.327796 -1.042252 0.367383 42.000000
3.326481 -1.053057 0.367573 64.000000
3.320390 -1.062348 0.367288 57.000000
3.319957 -1.073448 0.367573 45.000000
3.314755 -1.083011 0.367383 42.000000
3.308581 -1.092240 0.367099 42.000000
3.307103 -1.103014 0.367288 47.000000
3.303704 -1.113155 0.367288 46.000000
3.304043 -1.124568 0.367668 46.000000
3.307168 -1.136962 0.368333 47.000000
3.304605 -1.147429 0.368428 36.000000
3.302008 -1.157891 0.368523 60.000000
3.305948 -1.170672 0.369283 33.000000
3.298591 -1.179470 0.368903 55.000000
3.296830 -1.190259 0.369093 62.000000
3.295969 -1.201390 0.369378 50.000000
3.294136 -1.212183 0.369568 57.000000
3.290402 -1.222284 0.369568 47.000000
3.283840 -1.231325 0.369283 36.000000
3.279115 -1.241042 0.369188 55.000000
3.276223 -1.251451 0.369283 39.000000
3.277942 -1.263643 0.369853 54.000000
3.276833 -1.274776 0.370138 47.000000
3.274760 -1.285550 0.370328 38.000000
3.273578 -1.296690 0.370613 36.000000
3.271433 -1.307465 0.370803 45.000000
3.269253 -1.318239 0.370993 64.000000
3.270727 -1.330512 0.371562 55.000000
3.261103 -1.338274 0.370993 58.000000
3.259742 -1.349414 0.371278 37.000000
3.263855 -1.362858 0.372132 54.000000
3.259659 -1.372865 0.372132 39.000000
3.255431 -1.382859 0.372132 47.000000
3.250258 -1.392449 0.372037 45.000000
3.241401 -1.400441 0.371562 43.000000
3.239828 -1.411571 0.371847 55.000000
3.228190 -1.418303 0.371088 42.000000
3.222913 -1.427797 0.370993 50.000000
3.222153 -1.439301 0.371372 52.000000
3.221354 -1.450814 0.371752 42.000000
3.220514 -1.462335 0.372132 41.000000
3.224160 -1.475935 0.372987 40.000000
3.227753 -1.489571 0.373842 34.000000
3.231292 -1.503243 0.374697 62.000000
3.228468 -1.513994 0.374887 58.000000
3.225608 -1.524742 0.375077 46.000000
3.224510 -1.536343 0.375457 55.000000
3.220679 -1.546659 0.375551 36.000000
3.215919 -1.556532 0.375551 20.000000
3.210234 -1.565955 0.375457 37.000000
3.202734 -1.574480 0.375172 34.000000
3.226438 -1.598431 0.378211 6.000000
3.421180 -0.766840 0.324972 9.000000
3.405206 -0.774237 0.323818 28.000000
3.397959 -0.783560 0.323405 38.000000
3.389717 -0.792619 0.322911 37.000000
3.385330 -0.802555 0.322746 30.000000
3.376069 -0.811306 0.322168 51.000000
3.370659 -0.820953 0.321921 55.000000
3.368125 -0.831290 0.321921 43.000000
3.363625 -0.841135 0.321756 44.000000
3.361029 -0.851451 0.321756 46.000000
3.367088 -0.863988 0.322498 55.000000
3.372138 -0.876321 0.323158 56.000000
3.372325 -0.887423 0.323405 58.000000
3.373439 -0.898792 0.323735 42.000000
3.372589 -0.909656 0.323900 50.000000
3.376513 -0.921837 0.324477 53.000000
3.371747 -0.931661 0.324312 48.000000
3.370793 -0.942538 0.324477 39.000000
3.367885 -0.952875 0.324477 40.000000
3.361113 -0.962105 0.324147 50.000000
3.363889 -0.974076 0.324642 42.000000
3.356103 -0.982991 0.324230 52.000000
3.353072 -0.993283 0.324230 48.000000
3.349054 -1.003279 0.324147 58.000000
3.340237 -1.011815 0.323653 42.000000
3.339976 -1.022934 0.323900 56.000000
3.338726 -1.033766 0.324065 50.000000
3.339343 -1.045195 0.324395 42.000000
3.338971 -1.056337 0.324642 55.000000
3.332867 -1.065665 0.324395 44.000000
3.335272 -1.077724 0.324890 47.000000
3.331949 -1.087952 0.324890 49.000000
3.326703 -1.097544 0.324725 53.000000
3.328048 -1.109321 0.325137 61.000000
3.321795 -1.118572 0.324890 54.000000
3.321178 -1.129721 0.325137 47.000000
3.318639 -1.140229 0.325219 59.000000
3.314184 -1.150078 0.325137 41.000000
3.315342 -1.161889 0.325549 46.000000
3.309883 -1.171390 0.325384 49.000000
3.300643 -1.179526 0.324890 45.000000
3.300758 -1.191000 0.325219 46.000000
3.298961 -1.201803 0.325384 43.000000
3.300871 -1.213984 0.325879 54.000000
3.297131 -1.224105 0.325879 44.000000
3.293360 -1.234214 0.325879 50.000000
3.293286 -1.245723 0.326209 47.000000
3.294104 -1.257599 0.326621 49.000000
3.293950 -1.269133 0.326951 34.000000
3.290969 -1.279594 0.327034 50.000000
3.287956 -1.290048 0.327116 51.000000
3.289542 -1.302331 0.327611 43.000000
3.288308 -1.313527 0.327858 57.000000
3.287035 -1.324727 0.328106 54.000000
3.287571 -1.336682 0.328518 46.000000
3.284377 -1.347140 0.328600 52.000000
3.287595 -1.360259 0.329260 56.000000
3.284326 -1.370723 0.329342 48.000000
3.284698 -1.382727 0.329755 44.000000
3.281358 -1.393187 0.329837 50.000000
3.276152 -1.402855 0.329755 44.000000
3.272747 -1.413295 0.329837 53.000000
3.268396 -1.423329 0.329837 46.000000
3.261277 -1.432147 0.329590 45.000000
3.262335 -1.444567 0.330085 37.000000
3.256068 -1.453756 0.329920 44.000000
3.254318 -1.464967 0.330167 39.000000
3.251624 -1.475768 0.330332 41.000000
3.244362 -1.484492 0.330085 50.000000
3.243412 -1.496109 0.330414 42.000000
3.241518 -1.507314 0.330662 37.000000
3.237780 -1.517674 0.330744 35.000000
3.238515 -1.530156 0.331239 38.000000
3.232906 -1.539656 0.331157 54.000000
3.238948 -1.554743 0.332146 27.000000
3.234163 -1.564673 0.332146 43.000000
3.227556 -1.573714 0.331981 33.000000
3.226290 -1.585367 0.332311 38.000000
3.242844 -1.605874 0.334290 9.000000
3.394230 -0.773641 0.281552 27.000000
3.401561 -0.786294 0.282258 45.000000
3.398161 -0.796498 0.282187 33.000000
3.392790 -0.806229 0.281976 40.000000
3.389330 -0.816401 0.281905 51.000000
3.387779 -0.827032 0.281976 59.000000
3.388131 -0.838139 0.282187 49.000000
3.383608 -0.848046 0.282046 39.000000
3.380991 -0.858422 0.282046 33.000000
3.386070 -0.870776 0.282611 44.000000
3.390140 -0.882918 0.283106 43.000000
3.386451 -0.893060 0.283035 42.000000
3.384659 -0.903703 0.283106 38.000000
3.381871 -0.914082 0.283106 53.000000
3.383862 -0.925768 0.283459 40.000000
3.381005 -0.936145 0.283459 43.000000
3.377157 -0.946245 0.283388 45.000000
3.378077 -0.957688 0.283671 30.000000
3.377041 -0.968597 0.283812 45.000000
3.369263 -0.977565 0.283459 51.000000
3.369120 -0.988739 0.283671 45.000000
3.362245 -0.997936 0.283388 44.000000
3.355345 -1.007101 0.283106 54.000000
3.357968 -1.019127 0.283529 34.000000
3.352918 -1.028839 0.283388 42.000000
3.348793 -1.038826 0.283318 38.000000
3.351301 -1.050884 0.283741 52.000000
3.347111 -1.060859 0.283671 55.000000
3.343840 -1.071123 0.283671 53.000000
3.340538 -1.081377 0.283671 59.000000
3.340049 -1.092550 0.283883 44.000000
3.333840 -1.101854 0.283671 45.000000
3.336122 -1.113970 0.284094 49.000000
3.334579 -1.124837 0.284236 51.000000
3.332056 -1.135384 0.284306 40.000000
3.334217 -1.147547 0.284730 42.000000
3.332566 -1.158425 0.284871 38.000000
3.328996 -1.168644 0.284871 41.000000
3.328216 -1.179850 0.285083 48.000000
3.318944 -1.188040 0.284659 44.000000
3.320914 -1.200250 0.285083 52.000000
3.319090 -1.211116 0.285224 35.000000
3.315359 -1.221293 0.285224 55.000000
3.316272 -1.233195 0.285578 36.000000
3.311538 -1.243014 0.285507 37.000000
3.308642 -1.253520 0.285578 51.000000
3.313168 -1.266869 0.286213 56.000000
3.309265 -1.277027 0.286213 52.000000
3.306262 -1.287536 0.286284 54.000000
3.301367 -1.297309 0.286213 43.000000
3.298299 -1.307799 0.286284 47.000000
3.296124 -1.318652 0.286425 37.000000
3.291137 -1.328385 0.286354 38.000000
3.285198 -1.337724 0.286213 52.000000
3.281079 -1.347796 0.286213 51.000000
3.281537 -1.359764 0.286566 41.000000
3.280111 -1.370978 0.286778 58.000000
3.279567 -1.382584 0.287061 42.000000
3.278064 -1.393809 0.287273 50.000000
3.279274 -1.406217 0.287696 48.000000
3.280438 -1.418644 0.288120 42.000000
3.277900 -1.429499 0.288261 44.000000
3.276238 -1.440752 0.288473 47.000000
3.273627 -1.451605 0.288615 41.000000
3.267336 -1.460828 0.288473 35.000000
3.261020 -1.470026 0.288332 45.000000
3.256495 -1.480023 0.288332 37.000000
3.253753 -1.490838 0.288473 38.000000
3.251880 -1.502067 0.288685 35.000000
3.248162 -1.512457 0.288756 33.000000
3.251634 -1.526227 0.289391 32.000000
3.252347 -1.538754 0.289815 36.000000
3.247611 -1.548725 0.289815 35.000000
3.247340 -1.560840 0.290168 23.000000
3.237149 -1.568188 0.289745 34.000000
3.228737 -1.576363 0.289462 34.000000
3.243579 -1.595943 0.291016 22.000000
3.290509 -1.631571 0.295112 7.000000
3.443034 -0.783472 0.240715 19.000000
3.426024 -0.790662 0.239843 34.000000
3.419694 -0.800259 0.239611 33.000000
3.417223 -0.810747 0.239611 35.000000
3.408895 -0.819825 0.239263 51.000000
3.409274 -0.830989 0.239437 47.000000
3.408647 -0.841924 0.239553 34.000000
3.403142 -0.851650 0.239379 54.000000
3.403417 -0.862823 0.239553 41.000000
3.400753 -0.873261 0.239553 43.000000
3.399991 -0.884193 0.239669 50.000000
3.401124 -0.895637 0.239901 50.000000
3.402218 -0.907096 0.240134 44.000000
3.399419 -0.917530 0.240134 53.000000
3.397551 -0.928218 0.240192 45.000000
3.391801 -0.937839 0.240018 49.000000
3.388908 -0.948240 0.240018 61.000000
3.380219 -0.957000 0.239669 44.000000
3.382066 -0.968741 0.239960 30.000000
3.376201 -0.978279 0.239785 47.000000
3.375100 -0.989194 0.239901 44.000000
3.386406 -1.003801 0.240773 29.000000
3.378530 -1.012752 0.240482 51.000000
3.380183 -1.024561 0.240773 44.000000
3.384660 -1.037268 0.241237 44.000000
3.379555 -1.047056 0.241121 54.000000
3.376326 -1.057419 0.241121 41.000000
3.375921 -1.068677 0.241296 40.000000
3.370725 -1.078420 0.241179 43.000000
3.366451 -1.088449 0.241121 57.000000
3.363096 -1.098772 0.241121 41.000000
3.359709 -1.109085 0.241121 39.000000
3.357238 -1.119703 0.241179 36.000000
3.360409 -1.132230 0.241586 55.000000
3.361644 -1.144143 0.241876 34.000000
3.361895 -1.155749 0.242109 46.000000
3.362105 -1.167368 0.242341 33.000000
3.360392 -1.178338 0.242457 44.000000
3.357702 -1.188976 0.242515 30.000000
3.354038 -1.199271 0.242515 46.000000
3.348466 -1.208878 0.242399 45.000000
3.344741 -1.219145 0.242399 41.000000
3.340048 -1.229056 0.242341 58.000000
3.337198 -1.239645 0.242399 36.000000
3.335248 -1.250579 0.242515 34.000000
3.331396 -1.260805 0.242515 52.000000
3.329377 -1.271732 0.242632 53.000000
3.328254 -1.283018 0.242806 52.000000
3.323372 -1.292861 0.242748 43.000000
3.318460 -1.302686 0.242690 51.000000
3.316304 -1.313596 0.242806 38.000000
3.313186 -1.324135 0.242864 51.000000
3.309108 -1.334294 0.242864 36.000000
3.306848 -1.345192 0.242980 42.000000
3.301782 -1.354952 0.242922 38.000000
3.302222 -1.366985 0.243212 29.000000
3.300776 -1.378264 0.243387 40.000000
3.306652 -1.392647 0.244026 25.000000
3.295932 -1.400053 0.243619 39.000000
3.295291 -1.411731 0.243851 37.000000
3.293694 -1.423022 0.244026 32.000000
3.293889 -1.435115 0.244316 34.000000
3.292212 -1.446418 0.244490 43.000000
3.291410 -1.458130 0.244723 43.000000
3.287832 -1.468628 0.244781 23.000000
3.282401 -1.478298 0.244723 40.000000
3.280577 -1.489600 0.244897 36.000000
3.279622 -1.501320 0.245129 37.000000
3.284971 -1.515977 0.245768 25.000000
3.281210 -1.526469 0.245826 37.000000
3.281030 -1.538648 0.246117 33.000000
3.281709 -1.551268 0.246465 34.000000
3.280540 -1.563047 0.246698 43.000000
3.274829 -1.572672 0.246640 32.000000
3.269989 -1.582711 0.246640 34.000000
3.263323 -1.591860 0.246523 32.000000
3.253945 -1.599662 0.246233 20.000000
3.445684 -0.785980 0.199028 14.000000
3.441310 -0.796098 0.198935 29.000000
3.433016 -0.805285 0.198658 34.000000
3.432473 -0.816275 0.198750 41.000000
3.424125 -0.825400 0.198473 35.000000
3.419636 -0.835427 0.198380 26.000000
3.414148 -0.845195 0.198242 25.000000
3.408631 -0.854938 0.198103 39.000000
3.409866 -0.866374 0.198288 36.000000
3.412029 -0.878074 0.198519 44.000000
3.411252 -0.889041 0.198612 37.000000
3.409475 -0.899757 0.198658 31.000000
3.407663 -0.910471 0.198704 33.000000
3.409676 -0.922224 0.198935 49.000000
3.403940 -0.931890 0.198797 38.000000
3.406841 -0.943927 0.199074 44.000000
3.398158 -0.952758 0.198797 43.000000
3.400985 -0.964813 0.199074 33.000000
3.422976 -0.982399 0.200276 33.000000
3.394042 -0.985385 0.199028 48.000000
3.405381 -1.000010 0.199721 46.000000
3.432943 -1.019543 0.201201 33.000000
3.449892 -1.036098 0.202172 32.000000
3.458168 -1.050157 0.202726 31.000000
3.446335 -1.058125 0.202310 39.000000
3.434485 -1.066031 0.201894 45.000000
3.431198 -1.076563 0.201894 50.000000
3.422166 -1.085275 0.201617 40.000000
3.424528 -1.097596 0.201894 44.000000
3.410690 -1.104715 0.201386 44.000000
3.400638 -1.113001 0.201062 48.000000
3.405744 -1.126248 0.201478 58.000000
3.402273 -1.136692 0.201478 31.000000
3.401609 -1.148082 0.201617 24.000000
3.414146 -1.163987 0.202403 31.000000
3.400168 -1.170882 0.201894 43.000000
3.399391 -1.182291 0.202033 39.000000
3.414600 -1.199330 0.202958 32.000000
3.393956 -1.203795 0.202125 48.000000
3.397771 -1.216894 0.202495 45.000000
3.407175 -1.232064 0.203143 40.000000
3.395871 -1.239773 0.202773 23.000000
3.397676 -1.252256 0.203050 35.000000
3.396627 -1.263718 0.203189 34.000000
3.394605 -1.274835 0.203281 30.000000
3.378533 -1.280644 0.202680 23.000000
3.392317 -1.297779 0.203559 28.000000
3.387388 -1.307821 0.203512 40.000000
3.384290 -1.318570 0.203559 32.000000
3.367212 -1.323834 0.202911 24.000000
3.378922 -1.340415 0.203697 27.000000
3.349751 -1.340761 0.202449 21.000000
3.345622 -1.351031 0.202449 23.000000
3.338685 -1.360159 0.202310 16.000000
3.352978 -1.377984 0.203235 11.000000
3.333968 -1.382149 0.202495 15.000000
3.346303 -1.399302 0.203328 8.000000
3.374213 -1.423139 0.204946 10.000000
3.650610 -1.082839 0.164625 19.000000
3.648228 -1.094321 0.164658 26.000000
3.638159 -1.103477 0.164421 29.000000
3.620425 -1.110237 0.163914 35.000000
3.608410 -1.118675 0.163609 52.000000
3.599239 -1.127946 0.163406 43.000000
3.595762 -1.138983 0.163406 80.000000
3.585588 -1.147876 0.163169 98.000000
3.597263 -1.163794 0.163711 39.000000
3.587027 -1.172651 0.163474 57.000000
3.581514 -1.183023 0.163406 53.000000
3.583556 -1.195904 0.163609 84.000000
3.580817 -1.207212 0.163643 62.000000
3.578988 -1.218837 0.163711 54.000000
3.578067 -1.230787 0.163812 50.000000
3.574274 -1.241758 0.163812 50.000000
3.570448 -1.252718 0.163812 58.000000
3.564704 -1.262998 0.163744 70.000000
3.563635 -1.274939 0.163846 58.000000
3.561587 -1.286546 0.163914 50.000000
3.556684 -1.297124 0.163880 41.000000
3.558315 -1.310102 0.164083 53.000000
3.555216 -1.321361 0.164117 54.000000
3.559566 -1.335422 0.164421 45.000000
3.557322 -1.347044 0.164489 65.000000
3.550372 -1.356881 0.164388 90.000000
3.554584 -1.371005 0.164692 54.000000
3.554087 -1.383354 0.164828 52.000000
3.547035 -1.393155 0.164726 41.000000
3.542744 -1.404031 0.164726 42.000000
3.443769 -1.377034 0.161273 11.000000
3.654243 -1.096014 0.118418 20.000000
3.612590 -1.095625 0.117552 35.000000
3.601564 -1.104361 0.117379 36.000000
3.592429 -1.113631 0.117249 48.000000
3.586133 -1.123751 0.117184 62.000000
3.582669 -1.134748 0.117184 48.000000
3.579170 -1.145734 0.117184 67.000000
3.577541 -1.157324 0.117227 78.000000
3.574924 -1.168605 0.117249 56.000000
3.576069 -1.181133 0.117357 59.000000
3.569583 -1.191151 0.117292 60.000000
3.568754 -1.203053 0.117357 65.000000
3.567886 -1.214963 0.117422 63.000000
3.562251 -1.225253 0.117379 59.000000
3.557531 -1.235848 0.117357 42.000000
3.549005 -1.245104 0.117249 41.000000
3.542341 -1.254985 0.117184 61.000000
3.539416 -1.266183 0.117206 50.000000
3.534574 -1.276697 0.117184 38.000000
3.533458 -1.288562 0.117249 42.000000
3.528550 -1.299051 0.117227 49.000000
3.526423 -1.310566 0.117271 39.000000
3.533619 -1.325589 0.117530 35.000000
3.537017 -1.339254 0.117704 85.000000
3.541297 -1.353309 0.117898 77.000000
3.551122 -1.369559 0.118223 46.000000
3.546904 -1.380447 0.118223 69.000000
3.556612 -1.396800 0.118548 40.000000
3.552310 -1.407705 0.118548 38.000000
3.539619 -1.415259 0.118353 10.000000
3.652839 -1.096397 0.071314 15.000000
3.635106 -1.103241 0.071175 25.000000
3.613541 -1.108813 0.070999 27.000000
3.596752 -1.115744 0.070870 35.000000
3.588542 -1.125277 0.070823 41.000000
3.583166 -1.135677 0.070805 44.000000
3.577760 -1.146054 0.070786 34.000000
3.570422 -1.155793 0.070749 51.000000
3.560207 -1.164565 0.070685 83.000000
3.555668 -1.175168 0.070675 71.000000
3.552046 -1.186071 0.070675 56.000000
3.545548 -1.196004 0.070648 60.000000
3.544701 -1.207844 0.070675 63.000000
3.543815 -1.219690 0.070703 62.000000
3.537224 -1.229571 0.070675 50.000000
3.536265 -1.241411 0.070703 44.000000
3.531497 -1.251920 0.070694 55.000000
3.530464 -1.263760 0.070722 48.000000
3.530332 -1.275945 0.070759 54.000000
3.530158 -1.288142 0.070796 65.000000
3.532758 -1.301386 0.070860 66.000000
3.529685 -1.312567 0.070870 44.000000
3.535939 -1.327256 0.070971 47.000000
3.537461 -1.340225 0.071027 73.000000
3.535201 -1.351785 0.071045 71.000000
3.535701 -1.364425 0.071092 53.000000
3.538953 -1.378170 0.071166 35.000000
3.531916 -1.387923 0.071138 34.000000
3.527641 -1.398753 0.071138 22.000000
3.526118 -1.410683 0.071166 14.000000
3.643580 -1.092819 0.023618 13.000000
3.618198 -1.097324 0.023694 29.000000
3.604297 -1.105198 0.023731 33.000000
3.589426 -1.112701 0.023770 49.000000
3.586950 -1.124007 0.023767 40.000000
3.577764 -1.133196 0.023787 43.000000
3.565699 -1.141426 0.023817 49.000000
3.560277 -1.151745 0.023823 52.000000
3.552924 -1.161421 0.023837 51.000000
3.546495 -1.171376 0.023847 57.000000
3.541936 -1.181934 0.023850 63.000000
3.538294 -1.192795 0.023850 50.000000
3.532724 -1.203001 0.023857 66.000000
3.529962 -1.214159 0.023853 57.000000
3.525276 -1.224655 0.023857 49.000000
3.521502 -1.235464 0.023857 45.000000
3.517695 -1.246262 0.023857 37.000000
3.513855 -1.257049 0.023857 65.000000
3.512804 -1.268841 0.023847 47.000000
3.511714 -1.280639 0.023837 45.000000
3.510584 -1.292443 0.023827 51.000000
3.506602 -1.303207 0.023827 50.000000
3.504460 -1.314661 0.023820 55.000000
3.502281 -1.326114 0.023814 71.000000
3.502867 -1.338636 0.023797 48.000000
3.505275 -1.351893 0.023774 47.000000
3.512295 -1.366990 0.023734 36.000000
3.535081 -1.388351 0.023638 25.000000
3.528016 -1.398086 0.023648 28.000000
3.529282 -1.411129 0.023628 28.000000
3.536066 -1.426436 0.023588 15.000000
3.645265 -1.092741 -0.023354 16.000000
3.622758 -1.098117 -0.023040 40.000000
3.606945 -1.105416 -0.022835 54.000000
3.605447 -1.117069 -0.022867 29.000000
3.591507 -1.124837 -0.022694 32.000000
3.576601 -1.132228 -0.022506 35.000000
3.566444 -1.141062 -0.022396 45.000000
3.550559 -1.147997 -0.022191 67.000000
3.541318 -1.157021 -0.022097 56.000000
3.532055 -1.165999 -0.022003 62.000000
3.523719 -1.175248 -0.021924 90.000000
3.520096 -1.186053 -0.021924 50.000000
3.511708 -1.195235 -0.021846 49.000000
3.504243 -1.204703 -0.021783 52.000000
3.504308 -1.216760 -0.021846 58.000000
3.504333 -1.228830 -0.021909 85.000000
3.500546 -1.239575 -0.021909 70.000000
3.499552 -1.251319 -0.021956 67.000000
3.495696 -1.262049 -0.021956 59.000000
3.497444 -1.274823 -0.022050 74.000000
3.499146 -1.287620 -0.022144 62.000000
3.498929 -1.299742 -0.022207 50.000000
3.496797 -1.311173 -0.022239 38.000000
3.498369 -1.324019 -0.022333 48.000000
3.492422 -1.334031 -0.022301 54.000000
3.501374 -1.349776 -0.022521 40.000000
3.508398 -1.364863 -0.022710 23.000000
3.519085 -1.381468 -0.022961 24.000000
3.518548 -1.393731 -0.023024 39.000000
3.523540 -1.408231 -0.023181 42.000000
3.532185 -1.424271 -0.023401 22.000000
3.534282 -1.437739 -0.023511 6.000000
3.615391 -1.084374 -0.068155 14.000000
3.604394 -1.093142 -0.067933 34.000000
3.594332 -1.102146 -0.067739 23.000000
3.590934 -1.113168 -0.067739 27.000000
3.574147 -1.119999 -0.067350 40.000000
3.564023 -1.128848 -0.067156 41.000000
3.552925 -1.137342 -0.066934 55.000000
3.543712 -1.146392 -0.066767 41.000000
3.530676 -1.154156 -0.066490 43.000000
3.522372 -1.163416 -0.066351 48.000000
3.514045 -1.172637 -0.066212 37.000000
3.509483 -1.183093 -0.066185 61.000000
3.505837 -1.193855 -0.066185 50.000000
3.499322 -1.203630 -0.066101 54.000000
3.496557 -1.214688 -0.066129 55.000000
3.494701 -1.226071 -0.066185 54.000000
3.496577 -1.238788 -0.066351 37.000000
3.490877 -1.248837 -0.066296 46.000000
3.493611 -1.261916 -0.066490 47.000000
3.490663 -1.272970 -0.066518 45.000000
3.489555 -1.284708 -0.066601 49.000000
3.490283 -1.297148 -0.066740 40.000000
3.487223 -1.308201 -0.066767 48.000000
3.485998 -1.319954 -0.066851 44.000000
3.489403 -1.333495 -0.067073 35.000000
3.494623 -1.347788 -0.067350 25.000000
3.497925 -1.361402 -0.067572 42.000000
3.511412 -1.379064 -0.068099 34.000000
3.515529 -1.393142 -0.068349 41.000000
3.519593 -1.407259 -0.068599 24.000000
3.526385 -1.422534 -0.068932 23.000000
3.519226 -1.432217 -0.068848 8.000000
3.574855 -1.095578 -0.114009 35.000000
3.569568 -1.105948 -0.113928 52.000000
3.562344 -1.115700 -0.113767 45.000000
3.556999 -1.126020 -0.113686 53.000000
3.546866 -1.134795 -0.113404 66.000000
3.540516 -1.144749 -0.113283 62.000000
3.530339 -1.153433 -0.113001 58.000000
3.522040 -1.162692 -0.112799 56.000000
3.509926 -1.170646 -0.112437 54.000000
3.504425 -1.180771 -0.112356 71.000000
3.496056 -1.189906 -0.112155 63.000000
3.488610 -1.199327 -0.111993 58.000000
3.487745 -1.211007 -0.112114 40.000000
3.484013 -1.221702 -0.112114 60.000000
3.481191 -1.232719 -0.112155 49.000000
3.478333 -1.243729 -0.112195 43.000000
3.476381 -1.255074 -0.112276 48.000000
3.475330 -1.266760 -0.112396 51.000000
3.475178 -1.278797 -0.112558 37.000000
3.475921 -1.291193 -0.112759 52.000000
3.483170 -1.306062 -0.113243 50.000000
3.488492 -1.320279 -0.113646 43.000000
3.497492 -1.335968 -0.114210 40.000000
3.499903 -1.349209 -0.114492 31.000000
3.505990 -1.363926 -0.114936 29.000000
3.510159 -1.377963 -0.115298 38.000000
3.509631 -1.390198 -0.115460 38.000000
3.507205 -1.401700 -0.115540 27.000000
3.421343 -1.379563 -0.111993 5.000000
3.588052 -1.089554 -0.159514 24.000000
3.568462 -1.095579 -0.158625 35.000000
3.563176 -1.105930 -0.158520 39.000000
3.559767 -1.116857 -0.158520 41.000000
3.551564 -1.126265 -0.158258 41.000000
3.546189 -1.136547 -0.158154 44.000000
3.536985 -1.145576 -0.157840 67.000000
3.529657 -1.155181 -0.157630 56.000000
3.526096 -1.166005 -0.157630 43.000000
3.517766 -1.175236 -0.157369 57.000000
3.509413 -1.184428 -0.157107 51.000000
3.496309 -1.191970 -0.156583 37.000000
3.477527 -1.197493 -0.155746 20.000000
3.487986 -1.213072 -0.156531 23.000000
3.492729 -1.226743 -0.157002 29.000000
3.484242 -1.235785 -0.156740 24.000000
3.484196 -1.247815 -0.156950 21.000000
3.482229 -1.259177 -0.157054 46.000000
3.481165 -1.270881 -0.157211 36.000000
3.474438 -1.280520 -0.157054 53.000000
3.471429 -1.291521 -0.157107 60.000000
3.469320 -1.302867 -0.157211 76.000000
3.472778 -1.316334 -0.157630 51.000000
3.478051 -1.330547 -0.158154 55.000000
3.485134 -1.345524 -0.158782 52.000000
3.489365 -1.359470 -0.159253 37.000000
3.496332 -1.374550 -0.159881 26.000000
3.504167 -1.390053 -0.160561 28.000000
3.507304 -1.403763 -0.160980 32.000000
