ply
format ascii 1.0
element vertex 899
property float x
property float y
property float z
property float intensity
end_header
4.521586 -1.174667 0.593837 8.000000
4.410959 -1.350596 0.586821 5.000000
4.298134 -1.625465 0.584680 8.000000
4.309832 -1.675381 0.588129 9.000000
4.339800 -1.702365 0.592648 15.000000
4.341020 -1.718228 0.593480 8.000000
4.325584 -1.727490 0.592172 11.000000
4.314738 -1.738527 0.591459 13.000000
4.304784 -1.749888 0.590864 9.000000
4.277499 -1.784849 0.589437 22.000000
4.278977 -1.847432 0.592529 17.000000
4.277842 -1.862532 0.593123 18.000000
4.291202 -1.884025 0.595621 25.000000
4.291758 -1.899993 0.596453 16.000000
4.295883 -1.917601 0.597762 24.000000
4.591647 -1.118477 0.542040 10.000000
4.546687 -1.122310 0.537448 49.000000
4.546116 -1.136977 0.537768 53.000000
4.541643 -1.150675 0.537662 44.000000
4.535202 -1.163861 0.537341 60.000000
4.534496 -1.178520 0.537662 45.000000
4.519321 -1.189389 0.536380 51.000000
4.509887 -1.201712 0.535739 60.000000
4.507138 -1.215801 0.535846 44.000000
4.498591 -1.228313 0.535312 44.000000
4.492886 -1.241579 0.535099 47.000000
4.491928 -1.256161 0.535419 78.000000
4.488052 -1.269936 0.535419 61.000000
4.484135 -1.283699 0.535419 63.000000
4.476356 -1.296344 0.534992 52.000000
4.465679 -1.308114 0.534244 54.000000
4.455663 -1.334919 0.534031 53.000000
4.447741 -1.347429 0.533604 78.000000
4.446437 -1.361942 0.533924 78.000000
4.446987 -1.377048 0.534458 63.000000
4.444639 -1.391279 0.534672 81.000000
4.439402 -1.404609 0.534565 69.000000
4.431283 -1.417010 0.534138 53.000000
4.425969 -1.430293 0.534031 60.000000
4.422506 -1.444173 0.534138 68.000000
4.416166 -1.457111 0.533924 59.000000
4.417334 -1.472540 0.534565 103.000000
4.411853 -1.485768 0.534458 74.000000
4.404450 -1.498335 0.534138 105.000000
4.397952 -1.511195 0.533924 139.000000
4.388599 -1.523050 0.533390 113.000000
4.383906 -1.536507 0.533390 124.000000
4.380108 -1.550281 0.533497 146.000000
4.377204 -1.564381 0.533711 110.000000
4.370513 -1.577128 0.533497 131.000000
4.364720 -1.590188 0.533390 134.000000
4.369152 -1.607005 0.534458 187.000000
4.361405 -1.619363 0.534138 131.000000
4.351762 -1.630991 0.533604 82.000000
4.348598 -1.645038 0.533817 88.000000
4.342601 -1.658017 0.533711 79.000000
4.334711 -1.670259 0.533390 94.000000
4.328639 -1.683190 0.533283 106.000000
4.325306 -1.697188 0.533497 83.000000
4.321928 -1.711182 0.533711 87.000000
4.317581 -1.724803 0.533817 86.000000
4.315035 -1.739156 0.534138 94.000000
4.312442 -1.753510 0.534458 90.000000
4.307043 -1.766732 0.534458 64.000000
4.303440 -1.780698 0.534672 71.000000
4.298873 -1.794276 0.534778 82.000000
4.293349 -1.807456 0.534778 90.000000
4.289614 -1.821397 0.534992 82.000000
4.282177 -1.833765 0.534778 94.000000
4.276531 -1.846894 0.534778 71.000000
4.269022 -1.859212 0.534565 60.000000
4.265118 -1.873100 0.534778 70.000000
4.258442 -1.885774 0.534672 58.000000
4.251729 -1.898424 0.534565 56.000000
4.270363 -1.922482 0.537448 6.000000
4.538496 -1.120628 0.480691 50.000000
4.530207 -1.133340 0.480216 62.000000
4.529604 -1.147966 0.480501 63.000000
4.523169 -1.161115 0.480216 75.000000
4.519585 -1.174987 0.480216 86.000000
4.513071 -1.188088 0.479931 77.000000
4.503633 -1.200391 0.479361 82.000000
4.497045 -1.213425 0.479077 90.000000
4.485618 -1.225120 0.478317 102.000000
4.479919 -1.238346 0.478127 114.000000
4.472264 -1.251012 0.477747 115.000000
4.466489 -1.264185 0.477557 103.000000
4.472160 -1.280621 0.478507 108.000000
4.472991 -1.295719 0.478982 120.000000
4.469951 -1.309715 0.479077 117.000000
4.464957 -1.323140 0.478982 111.000000
4.458016 -1.335976 0.478697 124.000000
4.450085 -1.348492 0.478317 117.000000
4.444023 -1.361556 0.478127 119.000000
4.437923 -1.374595 0.477937 80.000000
4.435585 -1.388798 0.478127 93.000000
4.435100 -1.403600 0.478507 95.000000
4.432669 -1.417807 0.478697 90.000000
4.428299 -1.431399 0.478697 78.000000
4.422940 -1.444669 0.478602 80.000000
4.413760 -1.456673 0.478127 102.000000
4.407382 -1.469578 0.477937 109.000000
4.400022 -1.482140 0.477652 116.000000
4.393569 -1.494992 0.477462 115.000000
4.386137 -1.507494 0.477177 109.000000
4.381491 -1.520943 0.477177 103.000000
4.375865 -1.534049 0.477082 114.000000
4.373954 -1.548463 0.477367 101.000000
4.372932 -1.563214 0.477747 90.000000
4.369052 -1.576961 0.477842 100.000000
4.367000 -1.591379 0.478127 108.000000
4.360229 -1.604082 0.477937 117.000000
4.353420 -1.616759 0.477747 103.000000
4.347507 -1.629758 0.477652 113.000000
4.339693 -1.642033 0.477367 100.000000
4.337425 -1.656404 0.477652 101.000000
4.332324 -1.669703 0.477652 102.000000
4.329964 -1.684068 0.477937 103.000000
4.324777 -1.697344 0.477937 123.000000
4.321401 -1.711337 0.478127 104.000000
4.317054 -1.724956 0.478222 91.000000
4.310819 -1.737821 0.478127 92.000000
4.307311 -1.751787 0.478317 83.000000
4.302837 -1.765371 0.478412 83.000000
4.298321 -1.778944 0.478507 102.000000
4.293762 -1.792506 0.478602 93.000000
4.290077 -1.806443 0.478792 102.000000
4.285431 -1.819986 0.478887 84.000000
4.279828 -1.833124 0.478887 100.000000
4.276011 -1.847035 0.479077 98.000000
4.273063 -1.861337 0.479361 83.000000
4.269156 -1.875238 0.479551 83.000000
4.267023 -1.889938 0.479931 64.000000
4.262114 -1.903426 0.480026 62.000000
4.503527 -1.097004 0.418400 10.000000
4.521425 -1.116072 0.420214 38.000000
4.517980 -1.129938 0.420214 64.000000
4.517390 -1.144528 0.420461 60.000000
4.515788 -1.158878 0.420626 61.000000
4.517999 -1.174231 0.421121 87.000000
4.513411 -1.187833 0.421038 61.000000
4.509746 -1.201674 0.421038 53.000000
4.510849 -1.216802 0.421451 85.000000
4.503249 -1.229586 0.421121 69.000000
4.494653 -1.242068 0.420709 58.000000
4.488901 -1.255314 0.420544 77.000000
4.482152 -1.268266 0.420296 62.000000
4.476324 -1.281462 0.420131 61.000000
4.469500 -1.294358 0.419884 63.000000
4.468377 -1.308904 0.420131 69.000000
4.464340 -1.322607 0.420131 74.000000
4.462171 -1.336869 0.420296 96.000000
4.459002 -1.350842 0.420379 93.000000
4.452931 -1.363932 0.420214 77.000000
4.451581 -1.378471 0.420461 100.000000
4.442576 -1.390633 0.420049 83.000000
4.438289 -1.404256 0.420049 97.000000
4.435858 -1.418473 0.420214 114.000000
4.430537 -1.431769 0.420131 79.000000
4.426124 -1.445355 0.420131 113.000000
4.420722 -1.458615 0.420049 100.000000
4.416226 -1.472171 0.420049 109.000000
4.406966 -1.484122 0.419637 98.000000
4.400506 -1.496993 0.419472 88.000000
4.395893 -1.510487 0.419472 88.000000
4.391238 -1.523966 0.419472 75.000000
4.391243 -1.539079 0.419884 81.000000
4.390259 -1.553875 0.420214 77.000000
4.385471 -1.567337 0.420214 76.000000
4.381579 -1.581122 0.420296 79.000000
4.377644 -1.594898 0.420379 80.000000
4.370860 -1.607633 0.420214 73.000000
4.364973 -1.620688 0.420131 76.000000
4.358114 -1.633372 0.419966 77.000000
4.354014 -1.647088 0.420049 72.000000
4.349872 -1.660794 0.420131 85.000000
4.345686 -1.674489 0.420214 73.000000
4.340528 -1.687814 0.420214 87.000000
4.334402 -1.700758 0.420131 84.000000
4.328238 -1.713681 0.420049 91.000000
4.319258 -1.725473 0.419719 81.000000
4.313019 -1.738343 0.419637 79.000000
4.307666 -1.751567 0.419637 88.000000
4.303194 -1.765153 0.419719 94.000000
4.300521 -1.779490 0.419966 103.000000
4.296880 -1.793444 0.420131 73.000000
4.291358 -1.806618 0.420131 60.000000
4.286712 -1.820165 0.420214 76.000000
4.282940 -1.834092 0.420379 87.000000
4.280038 -1.848409 0.420626 82.000000
4.269779 -1.859541 0.420214 101.000000
4.273178 -1.876640 0.421038 60.000000
4.269223 -1.890548 0.421203 53.000000
4.266132 -1.904856 0.421451 50.000000
4.495488 -1.097056 0.362702 12.000000
4.523089 -1.118497 0.364962 75.000000
4.518669 -1.132127 0.364892 60.000000
4.517108 -1.146475 0.365033 66.000000
4.514536 -1.160576 0.365104 83.000000
4.511919 -1.174672 0.365174 85.000000
4.510224 -1.189017 0.365315 86.000000
4.507518 -1.203105 0.365386 98.000000
4.502843 -1.216668 0.365315 77.000000
4.496202 -1.229689 0.365104 74.000000
4.489524 -1.242679 0.364892 79.000000
4.483770 -1.255910 0.364750 91.000000
4.477976 -1.269116 0.364609 97.000000
4.475020 -1.283123 0.364680 78.000000
4.472979 -1.297402 0.364821 112.000000
4.469934 -1.311399 0.364892 125.000000
4.459196 -1.323122 0.364397 104.000000
4.454160 -1.336510 0.364327 118.000000
4.449084 -1.349879 0.364256 110.000000
4.447783 -1.364399 0.364468 126.000000
4.445481 -1.378629 0.364609 98.000000
4.440279 -1.391963 0.364539 126.000000
4.435037 -1.405278 0.364468 111.000000
4.428804 -1.418270 0.364327 104.000000
4.423483 -1.431544 0.364256 102.000000
4.419070 -1.445108 0.364256 97.000000
4.414616 -1.458658 0.364256 125.000000
4.411067 -1.472511 0.364327 118.000000
4.406528 -1.486037 0.364327 138.000000
4.398171 -1.498264 0.364044 110.000000
4.391667 -1.511101 0.363903 134.000000
4.383242 -1.523259 0.363620 135.000000
4.375723 -1.535709 0.363409 128.000000
4.373813 -1.550125 0.363620 105.000000
4.372793 -1.564880 0.363903 98.000000
4.372663 -1.579982 0.364256 121.000000
4.370606 -1.594415 0.364468 77.000000
4.365694 -1.607816 0.364468 101.000000
4.359806 -1.620855 0.364397 108.000000
4.352945 -1.633522 0.364256 111.000000
4.347912 -1.646869 0.364256 91.000000
4.342839 -1.660201 0.364256 120.000000
4.339587 -1.674234 0.364397 110.000000
4.332571 -1.686817 0.364256 114.000000
4.326447 -1.699736 0.364185 117.000000
4.319357 -1.712267 0.364044 92.000000
4.314084 -1.725510 0.364044 83.000000
4.311545 -1.739857 0.364256 106.000000
4.308035 -1.753828 0.364397 100.000000
4.306325 -1.768552 0.364680 93.000000
4.301801 -1.782136 0.364750 88.000000
4.295393 -1.794941 0.364680 105.000000
4.289865 -1.808111 0.364680 79.000000
4.284298 -1.821264 0.364680 79.000000
4.282358 -1.835971 0.364962 86.000000
4.279452 -1.850287 0.365174 94.000000
4.275584 -1.864204 0.365315 78.000000
4.274411 -1.879319 0.365669 61.000000
4.271361 -1.893636 0.365880 76.000000
4.271907 -1.909579 0.366375 50.000000
4.262390 -1.921038 0.366092 53.000000
4.259201 -1.935343 0.366304 48.000000
4.529951 -1.089565 0.306353 17.000000
4.563442 -1.112445 0.308560 71.000000
4.559039 -1.126201 0.308502 59.000000
4.554594 -1.139940 0.308444 60.000000
4.548172 -1.153172 0.308270 71.000000
4.540745 -1.166126 0.308037 55.000000
4.533281 -1.179046 0.307805 53.000000
4.525781 -1.191931 0.307573 89.000000
4.513422 -1.203495 0.307050 93.000000
4.507781 -1.216816 0.306934 57.000000
4.503063 -1.230377 0.306875 72.000000
4.499268 -1.244186 0.306875 66.000000
4.494468 -1.257715 0.306817 78.000000
4.487707 -1.270681 0.306643 92.000000
4.480908 -1.283618 0.306469 77.000000
4.475031 -1.296804 0.306353 92.000000
4.470074 -1.310246 0.306295 93.000000
4.466033 -1.323954 0.306295 86.000000
4.462906 -1.337936 0.306353 90.000000
4.459736 -1.351911 0.306411 93.000000
4.457476 -1.366172 0.306527 102.000000
4.456125 -1.380728 0.306701 101.000000
4.454725 -1.395288 0.306875 126.000000
4.453279 -1.409853 0.307050 125.000000
4.448933 -1.423508 0.307050 124.000000
4.445494 -1.437458 0.307108 148.000000
4.439165 -1.450470 0.306992 154.000000
4.432799 -1.463456 0.306875 161.000000
4.428288 -1.477049 0.306875 119.000000
4.420897 -1.489671 0.306701 127.000000
4.413472 -1.502262 0.306527 153.000000
4.406010 -1.514821 0.306353 168.000000
4.395683 -1.526366 0.306004 131.000000
4.394748 -1.541166 0.306237 126.000000
4.390940 -1.554975 0.306295 101.000000
4.393669 -1.571129 0.306759 113.000000
4.392583 -1.585958 0.306992 106.000000
4.388635 -1.599768 0.307050 94.000000
4.383707 -1.613225 0.307050 104.000000
4.375929 -1.625623 0.306875 87.000000
4.363444 -1.636236 0.306411 91.000000
4.355602 -1.648555 0.306237 89.000000
4.347726 -1.660841 0.306062 105.000000
4.339816 -1.673094 0.305888 86.000000
4.334663 -1.686401 0.305888 120.000000
4.324822 -1.697867 0.305598 64.000000
4.320521 -1.711495 0.305656 72.000000
4.318958 -1.726224 0.305888 93.000000
4.315493 -1.740213 0.306004 90.000000
4.317532 -1.756455 0.306469 78.000000
4.313970 -1.770451 0.306585 90.000000
4.310362 -1.784442 0.306701 98.000000
4.304868 -1.797657 0.306701 78.000000
4.295652 -1.809306 0.306469 102.000000
4.288243 -1.821695 0.306353 104.000000
4.282634 -1.834843 0.306353 79.000000
4.276985 -1.847973 0.306353 84.000000
4.274041 -1.862283 0.306527 81.000000
4.271049 -1.876591 0.306701 75.000000
4.267097 -1.890495 0.306817 100.000000
4.264011 -1.904799 0.306992 84.000000
4.260879 -1.919102 0.307166 70.000000
4.256788 -1.932991 0.307282 62.000000
4.265361 -1.952691 0.308212 29.000000
4.535166 -1.122318 0.251689 62.000000
4.526856 -1.135013 0.251458 48.000000
4.524321 -1.149141 0.251504 52.000000
4.520774 -1.163016 0.251504 71.000000
4.514285 -1.176125 0.251365 73.000000
4.507758 -1.189206 0.251227 75.000000
4.501193 -1.202257 0.251088 97.000000
4.494590 -1.215279 0.250949 82.000000
4.490840 -1.229063 0.250949 86.000000
4.488011 -1.243101 0.250996 72.000000
4.484176 -1.256864 0.250996 101.000000
4.482222 -1.271160 0.251088 79.000000
4.481181 -1.285731 0.251227 106.000000
4.477215 -1.299473 0.251227 99.000000
4.476083 -1.314047 0.251365 118.000000
4.472031 -1.327773 0.251365 117.000000
4.466980 -1.341200 0.251319 141.000000
4.460932 -1.354318 0.251227 142.000000
4.454846 -1.367412 0.251134 161.000000
4.452538 -1.381664 0.251227 138.000000
4.450185 -1.395915 0.251319 146.000000
4.446833 -1.409864 0.251365 130.000000
4.442486 -1.423500 0.251365 127.000000
4.438098 -1.437122 0.251365 171.000000
4.432719 -1.450421 0.251319 170.000000
4.424455 -1.462760 0.251134 183.000000
4.411418 -1.473481 0.250718 233.000000
4.404984 -1.486370 0.250626 281.000000
4.401348 -1.500199 0.250672 271.000000
4.394835 -1.513046 0.250579 297.000000
4.389229 -1.526194 0.250533 319.000000
4.384526 -1.539652 0.250533 304.000000
4.379782 -1.553097 0.250533 308.000000
4.374056 -1.566190 0.250487 255.000000
4.372989 -1.580960 0.250672 246.000000
4.376564 -1.597449 0.251088 195.000000
4.374454 -1.611904 0.251227 190.000000
4.369489 -1.625317 0.251227 201.000000
4.364482 -1.638715 0.251227 194.000000
4.351960 -1.649267 0.250857 113.000000
4.347813 -1.662967 0.250903 129.000000
4.338030 -1.674501 0.250672 91.000000
4.331942 -1.687440 0.250626 113.000000
4.326745 -1.700722 0.250626 80.000000
4.321507 -1.713988 0.250626 82.000000
4.317155 -1.727609 0.250672 95.000000
4.311835 -1.740846 0.250672 105.000000
4.306474 -1.754066 0.250672 86.000000
4.301072 -1.767270 0.250672 77.000000
4.295630 -1.780457 0.250672 88.000000
4.291990 -1.794398 0.250764 62.000000
4.287386 -1.807945 0.250811 73.000000
4.282739 -1.821481 0.250857 71.000000
4.278966 -1.835398 0.250949 86.000000
4.276066 -1.849707 0.251088 90.000000
4.275865 -1.865212 0.251365 65.000000
4.269208 -1.877919 0.251319 67.000000
4.269820 -1.893842 0.251643 56.000000
4.266725 -1.908155 0.251782 51.000000
4.249922 -1.916312 0.251227 18.000000
4.530932 -1.120092 0.193738 30.000000
4.541046 -1.137388 0.194212 48.000000
4.535598 -1.150822 0.194144 49.000000
4.532046 -1.164732 0.194144 56.000000
4.524583 -1.177623 0.194009 63.000000
4.516117 -1.190225 0.193840 69.000000
4.512444 -1.204075 0.193840 60.000000
4.502939 -1.216349 0.193636 74.000000
4.499187 -1.230158 0.193636 70.000000
4.499244 -1.245022 0.193772 76.000000
4.497328 -1.259359 0.193840 75.000000
4.495366 -1.273696 0.193907 72.000000
4.492398 -1.287757 0.193941 89.000000
4.488426 -1.301533 0.193941 100.000000
4.481535 -1.314453 0.193840 94.000000
4.474607 -1.327343 0.193738 103.000000
4.470514 -1.341065 0.193738 91.000000
4.463509 -1.353903 0.193636 99.000000
4.456468 -1.366711 0.193535 126.000000
4.452254 -1.380377 0.193535 119.000000
4.452766 -1.395525 0.193704 154.000000
4.457991 -1.412198 0.194043 191.000000
4.456493 -1.426783 0.194144 248.000000
4.454947 -1.441372 0.194246 206.000000
4.439106 -1.451305 0.193840 291.000000
4.427040 -1.462408 0.193569 333.000000
4.418741 -1.474717 0.193433 364.000000
4.414196 -1.488267 0.193433 356.000000
4.409609 -1.501803 0.193433 411.000000
4.404981 -1.515324 0.193433 362.000000
4.398423 -1.528175 0.193366 351.000000
4.392771 -1.541331 0.193332 323.000000
4.390848 -1.555802 0.193433 376.000000
4.386995 -1.569603 0.193467 353.000000
4.391558 -1.586451 0.193806 270.000000
4.388548 -1.600602 0.193873 244.000000
4.382679 -1.613712 0.193840 243.000000
4.379581 -1.627847 0.193907 207.000000
4.371759 -1.640223 0.193806 220.000000
4.369511 -1.654689 0.193907 194.000000
4.362546 -1.667373 0.193840 165.000000
4.348086 -1.677152 0.193501 137.000000
4.335469 -1.687583 0.193230 108.000000
4.333062 -1.701972 0.193332 80.000000
4.327820 -1.715258 0.193332 72.000000
4.325322 -1.729641 0.193433 90.000000
4.319995 -1.742903 0.193433 99.000000
4.315553 -1.756525 0.193467 85.000000
4.308294 -1.768997 0.193400 64.000000
4.301924 -1.781824 0.193366 93.000000
4.295515 -1.794628 0.193332 105.000000
4.289068 -1.807410 0.193298 94.000000
4.284422 -1.820951 0.193332 110.000000
4.279734 -1.834481 0.193366 84.000000
4.275921 -1.848396 0.193433 81.000000
4.272978 -1.862704 0.193535 85.000000
4.267243 -1.875804 0.193535 70.000000
4.264209 -1.890102 0.193636 73.000000
4.261127 -1.904400 0.193738 61.000000
4.245242 -1.912946 0.193366 30.000000
4.536424 -1.120954 0.136985 34.000000
4.534903 -1.135351 0.137028 62.000000
4.533337 -1.149750 0.137072 56.000000
4.524946 -1.162410 0.136964 62.000000
4.518456 -1.175532 0.136899 78.000000
4.510961 -1.188372 0.136812 82.000000
4.505362 -1.201691 0.136769 66.000000
4.502619 -1.215768 0.136790 72.000000
4.500796 -1.230102 0.136834 85.000000
4.498929 -1.244437 0.136877 105.000000
4.494127 -1.257965 0.136855 88.000000
4.488322 -1.271202 0.136812 101.000000
4.481518 -1.284141 0.136747 103.000000
4.473716 -1.296772 0.136661 135.000000
4.467797 -1.309929 0.136617 121.000000
4.462799 -1.323345 0.136596 115.000000
4.457760 -1.336744 0.136574 121.000000
4.453638 -1.350414 0.136574 129.000000
4.449474 -1.364071 0.136574 151.000000
4.449089 -1.378898 0.136661 165.000000
4.441975 -1.391645 0.136596 230.000000
4.436731 -1.404965 0.136574 282.000000
4.433352 -1.418875 0.136596 329.000000
4.429929 -1.432777 0.136617 382.000000
4.425513 -1.446361 0.136617 327.000000
4.422004 -1.460245 0.136639 326.000000
4.416555 -1.473488 0.136617 295.000000
4.411066 -1.486712 0.136596 285.000000
4.408377 -1.500882 0.136639 288.000000
4.403752 -1.514400 0.136639 372.000000
4.408530 -1.531181 0.136855 595.000000
4.399094 -1.543045 0.136747 882.000000
4.401879 -1.559203 0.136920 661.000000
4.410255 -1.577411 0.137223 1304.000000
4.407276 -1.591612 0.137266 1525.000000
4.389221 -1.600335 0.136964 711.000000
4.374907 -1.610342 0.136747 326.000000
4.368072 -1.623061 0.136704 266.000000
4.363072 -1.636454 0.136704 185.000000
4.356161 -1.649125 0.136661 223.000000
4.352949 -1.663195 0.136704 214.000000
4.350624 -1.677620 0.136769 205.000000
4.346389 -1.691322 0.136790 165.000000
4.341180 -1.704648 0.136790 167.000000
4.335929 -1.717959 0.136790 133.000000
4.325996 -1.729399 0.136682 81.000000
4.321597 -1.743037 0.136704 97.000000
4.318082 -1.757040 0.136747 89.000000
4.310821 -1.769521 0.136704 68.000000
4.306295 -1.783120 0.136725 78.000000
4.299882 -1.795938 0.136704 74.000000
4.291588 -1.807958 0.136639 66.000000
4.284181 -1.820334 0.136596 75.000000
4.277657 -1.833076 0.136574 82.000000
4.272012 -1.846191 0.136574 80.000000
4.268161 -1.860087 0.136617 88.000000
4.263350 -1.873574 0.136639 98.000000
4.265810 -1.890289 0.136834 42.000000
4.255425 -1.901329 0.136725 62.000000
4.251395 -1.915196 0.136769 23.000000
4.547130 -1.139753 0.079398 44.000000
4.529074 -1.150005 0.079260 57.000000
4.527461 -1.164393 0.079278 59.000000
4.521933 -1.177773 0.079260 76.000000
4.518298 -1.191641 0.079260 55.000000
4.510756 -1.204465 0.079223 73.000000
4.509935 -1.219081 0.079250 68.000000
4.504245 -1.232384 0.079232 69.000000
4.497552 -1.245396 0.079204 84.000000
4.490821 -1.258379 0.079176 85.000000
4.485978 -1.271878 0.079167 102.000000
4.482055 -1.285634 0.079167 85.000000
4.477129 -1.299100 0.079158 98.000000
4.474082 -1.313112 0.079167 77.000000
4.471949 -1.327401 0.079186 89.000000
4.469771 -1.341689 0.079204 121.000000
4.466591 -1.355687 0.079213 115.000000
4.461455 -1.369090 0.079204 145.000000
4.460098 -1.383661 0.079232 192.000000
4.450108 -1.395542 0.079176 235.000000
4.446759 -1.409490 0.079186 316.000000
4.441461 -1.422821 0.079176 319.000000
4.437075 -1.436440 0.079176 282.000000
4.431697 -1.449735 0.079167 302.000000
4.425330 -1.462697 0.079149 246.000000
4.422718 -1.476900 0.079167 300.000000
4.422903 -1.492061 0.079213 331.000000
4.420198 -1.506268 0.079232 886.000000
4.415556 -1.519822 0.079232 827.000000
4.417484 -1.535661 0.079297 1083.000000
4.429734 -1.555170 0.079463 1368.000000
4.406093 -1.562068 0.079278 957.000000
4.393749 -1.572882 0.079204 681.000000
4.386082 -1.585334 0.079176 628.000000
4.378379 -1.597755 0.079149 603.000000
4.381901 -1.614292 0.079232 330.000000
4.374116 -1.626682 0.079204 276.000000
4.367233 -1.639390 0.079186 227.000000
4.361248 -1.652427 0.079176 203.000000
4.361761 -1.667943 0.079232 191.000000
4.359422 -1.682397 0.079260 201.000000
4.355172 -1.696126 0.079269 160.000000
4.352740 -1.710577 0.079297 164.000000
4.343753 -1.722449 0.079260 137.000000
4.328236 -1.731680 0.079158 103.000000
4.320121 -1.743828 0.079130 78.000000
4.313825 -1.756696 0.079121 98.000000
4.306566 -1.769163 0.079102 102.000000
4.301117 -1.782367 0.079102 86.000000
4.295629 -1.795554 0.079102 100.000000
4.292864 -1.809890 0.079130 89.000000
4.290052 -1.824226 0.079158 83.000000
4.289030 -1.839350 0.079204 106.000000
4.286120 -1.853691 0.079232 101.000000
4.280413 -1.866832 0.079232 98.000000
4.274665 -1.879955 0.079232 85.000000
4.266135 -1.891844 0.079204 80.000000
4.258485 -1.904107 0.079186 90.000000
4.245331 -1.913875 0.079112 41.000000
4.544668 -1.137794 0.020696 64.000000
4.538248 -1.150994 0.020706 63.000000
4.535664 -1.165161 0.020703 49.000000
4.526261 -1.177561 0.020723 64.000000
4.521660 -1.191187 0.020726 55.000000
4.517018 -1.204796 0.020730 51.000000
4.512334 -1.218388 0.020733 60.000000
4.509540 -1.232490 0.020730 51.000000
4.506701 -1.246585 0.020726 48.000000
4.500930 -1.259867 0.020733 56.000000
4.493195 -1.272581 0.020746 64.000000
4.486385 -1.285534 0.020756 78.000000
4.479538 -1.298458 0.020766 63.000000
4.475533 -1.312195 0.020766 52.000000
4.469569 -1.325351 0.020773 72.000000
4.464524 -1.338770 0.020776 49.000000
4.463267 -1.353331 0.020766 63.000000
4.456225 -1.366139 0.020776 60.000000
4.448193 -1.378621 0.020789 61.000000
4.443942 -1.392261 0.020789 80.000000
4.438696 -1.405587 0.020793 72.000000
4.439125 -1.420721 0.020776 83.000000
4.440455 -1.436178 0.020756 58.000000
4.438880 -1.450726 0.020746 75.000000
4.437257 -1.465277 0.020736 56.000000
4.432741 -1.478884 0.020736 75.000000
4.420601 -1.489923 0.020763 57.000000
4.415062 -1.503156 0.020766 71.000000
4.408539 -1.516044 0.020773 63.000000
4.398199 -1.527595 0.020793 57.000000
4.395379 -1.541743 0.020786 59.000000
4.397227 -1.557556 0.020763 83.000000
4.393369 -1.571376 0.020759 76.000000
4.381765 -1.597619 0.020766 70.000000
4.374028 -1.610019 0.020776 77.000000
4.368130 -1.623083 0.020779 62.000000
4.361258 -1.635774 0.020786 57.000000
4.357154 -1.649500 0.020783 65.000000
4.353007 -1.663217 0.020779 67.000000
4.346951 -1.676204 0.020783 62.000000
4.342720 -1.689895 0.020779 64.000000
4.340308 -1.704306 0.020769 61.000000
4.335988 -1.717982 0.020766 57.000000
4.333483 -1.732390 0.020756 69.000000
4.329075 -1.746050 0.020753 72.000000
4.322772 -1.758947 0.020756 63.000000
4.316430 -1.771821 0.020759 70.000000
4.310049 -1.784673 0.020763 64.000000
4.303631 -1.797503 0.020766 60.000000
4.298096 -1.810697 0.020766 59.000000
4.290680 -1.823094 0.020773 61.000000
4.286905 -1.837036 0.020766 59.000000
4.284003 -1.851369 0.020756 60.000000
4.281053 -1.865701 0.020746 69.000000
4.280803 -1.881239 0.020726 45.000000
4.275012 -1.894363 0.020726 64.000000
4.272832 -1.909101 0.020713 55.000000
4.266954 -1.922201 0.020713 30.000000
4.735718 -1.499295 -0.041606 22.000000
4.664435 -1.492482 -0.040506 76.000000
4.670300 -1.510170 -0.040679 78.000000
4.659942 -1.522627 -0.040585 93.000000
4.658097 -1.537857 -0.040632 86.000000
4.657151 -1.553407 -0.040695 103.000000
4.637203 -1.562577 -0.040443 85.000000
4.632388 -1.576797 -0.040443 107.000000
4.619964 -1.588400 -0.040318 97.000000
4.610346 -1.600926 -0.040239 100.000000
4.610131 -1.616718 -0.040318 105.000000
4.591012 -1.625846 -0.040082 84.000000
4.596358 -1.643628 -0.040255 97.000000
4.591294 -1.657721 -0.040255 83.000000
4.596519 -1.675567 -0.040428 95.000000
4.595110 -1.691043 -0.040490 92.000000
4.589901 -1.705132 -0.040490 79.000000
4.586520 -1.719908 -0.040522 71.000000
4.604600 -1.742822 -0.040915 84.000000
4.616978 -1.763721 -0.041213 82.000000
4.597551 -1.772481 -0.040977 80.000000
4.617250 -1.796368 -0.041401 64.000000
4.649876 -1.825510 -0.042045 40.000000
4.722728 -1.479527 -0.100758 39.000000
4.718167 -1.494009 -0.100758 59.000000
4.704040 -1.505432 -0.100480 64.000000
4.691790 -1.517398 -0.100258 66.000000
4.679511 -1.529303 -0.100036 75.000000
4.664355 -1.540207 -0.099731 81.000000
4.652021 -1.551980 -0.099509 82.000000
4.641553 -1.564331 -0.099343 62.000000
4.631054 -1.576632 -0.099176 72.000000
4.623359 -1.589858 -0.099093 80.000000
4.616571 -1.603380 -0.099037 94.000000
4.607857 -1.616213 -0.098926 75.000000
4.602877 -1.630342 -0.098926 77.000000
4.600677 -1.645465 -0.099010 81.000000
4.597488 -1.660251 -0.099065 76.000000
4.595191 -1.675374 -0.099148 72.000000
4.594719 -1.691190 -0.099287 73.000000
4.594195 -1.707018 -0.099426 70.000000
4.597361 -1.724262 -0.099676 64.000000
4.601398 -1.741895 -0.099953 46.000000
4.609107 -1.760995 -0.100341 71.000000
4.613010 -1.778722 -0.100619 87.000000
4.626165 -1.800111 -0.101174 57.000000
4.661564 -1.830361 -0.102395 34.000000
4.727701 -1.496756 -0.163223 43.000000
4.703102 -1.504857 -0.162376 65.000000
4.687055 -1.515589 -0.161892 70.000000
4.670986 -1.526237 -0.161409 84.000000
4.654896 -1.536800 -0.160925 81.000000
4.639733 -1.547595 -0.160482 69.000000
4.628336 -1.559589 -0.160200 76.000000
4.616908 -1.571526 -0.159917 72.000000
4.607340 -1.584059 -0.159716 58.000000
4.600572 -1.597531 -0.159635 73.000000
4.592820 -1.610646 -0.159514 78.000000
4.589740 -1.625396 -0.159595 81.000000
4.587555 -1.640479 -0.159716 88.000000
4.585320 -1.655564 -0.159837 88.000000
4.585851 -1.671677 -0.160079 81.000000
4.586327 -1.687809 -0.160320 90.000000
4.586747 -1.703960 -0.160562 87.000000
4.594595 -1.722937 -0.161127 88.000000
4.599567 -1.740916 -0.161570 90.000000
4.603538 -1.758586 -0.161973 83.000000
4.610240 -1.777374 -0.162497 85.000000
4.618734 -1.796946 -0.163102 45.000000
4.700420 -1.474340 -0.221166 28.000000
4.687307 -1.486040 -0.220695 60.000000
4.679873 -1.499499 -0.220538 63.000000
4.669549 -1.512006 -0.220224 67.000000
4.662990 -1.525704 -0.220119 87.000000
4.654494 -1.538750 -0.219910 68.000000
4.644068 -1.551125 -0.219596 61.000000
4.636449 -1.564409 -0.219439 73.000000
4.622174 -1.575406 -0.218916 67.000000
4.621097 -1.590879 -0.219125 124.000000
4.604874 -1.601116 -0.218497 83.000000
4.596171 -1.613913 -0.218288 65.000000
4.594022 -1.629007 -0.218445 74.000000
4.589002 -1.643094 -0.218445 57.000000
4.586757 -1.658183 -0.218602 76.000000
4.585401 -1.673616 -0.218811 93.000000
4.583056 -1.688711 -0.218968 60.000000
4.581599 -1.704155 -0.219177 64.000000
4.586634 -1.722062 -0.219753 47.000000
4.587866 -1.738601 -0.220119 77.000000
4.594637 -1.757303 -0.220800 63.000000
4.604132 -1.777141 -0.221637 54.000000
4.605172 -1.793793 -0.222003 53.000000
4.615449 -1.814120 -0.222893 16.000000
4.729070 -1.481242 -0.284130 27.000000
4.681693 -1.482187 -0.281218 45.000000
4.667620 -1.493501 -0.280571 68.000000
4.661117 -1.507200 -0.280441 56.000000
4.647934 -1.518703 -0.279859 79.000000
4.639463 -1.531703 -0.279600 92.000000
4.627169 -1.543403 -0.279083 79.000000
4.618629 -1.556317 -0.278824 88.000000
4.608165 -1.568550 -0.278435 80.000000
4.598613 -1.581057 -0.278112 84.000000
4.590912 -1.594176 -0.277918 77.000000
4.580350 -1.606271 -0.277530 97.000000
4.578223 -1.621316 -0.277724 93.000000
4.576046 -1.636362 -0.277918 95.000000
4.579451 -1.653444 -0.278500 84.000000
4.577169 -1.668512 -0.278694 88.000000
4.597314 -1.691853 -0.280441 155.000000
4.575264 -1.699693 -0.279277 102.000000
4.572831 -1.714774 -0.279471 89.000000
4.576881 -1.732328 -0.280118 63.000000
4.575274 -1.747786 -0.280377 70.000000
4.570821 -1.762174 -0.280441 92.000000
4.575623 -1.780169 -0.281153 68.000000
4.581286 -1.798576 -0.281930 47.000000
4.687376 -1.470252 -0.339747 35.000000
4.679041 -1.483421 -0.339441 40.000000
4.664022 -1.494425 -0.338599 50.000000
4.656570 -1.507806 -0.338370 57.000000
4.642445 -1.518987 -0.337604 69.000000
4.635870 -1.532597 -0.337451 68.000000
4.628308 -1.545866 -0.337221 62.000000
4.623544 -1.560058 -0.337221 62.000000
4.616848 -1.573592 -0.337068 52.000000
4.611056 -1.587425 -0.336992 61.000000
4.608990 -1.602546 -0.337221 67.000000
4.619104 -1.621960 -0.338446 113.000000
4.600949 -1.631462 -0.337374 45.000000
4.602494 -1.647921 -0.337910 69.000000
4.601168 -1.663388 -0.338216 92.000000
4.609157 -1.682279 -0.339288 155.000000
4.587132 -1.690211 -0.337910 64.000000
4.575383 -1.701845 -0.337374 85.000000
4.567339 -1.714823 -0.337145 82.000000
4.564854 -1.729887 -0.337374 73.000000
4.571633 -1.748511 -0.338370 48.000000
4.568108 -1.763246 -0.338523 60.000000
4.569181 -1.779784 -0.339058 67.000000
4.572052 -1.797074 -0.339747 47.000000
4.729331 -1.483131 -0.403891 20.000000
4.678234 -1.482882 -0.399543 51.000000
4.656589 -1.491757 -0.397946 77.000000
4.649148 -1.505115 -0.397680 81.000000
4.647348 -1.520301 -0.397946 76.000000
4.639824 -1.533614 -0.397680 83.000000
4.635098 -1.547841 -0.397680 79.000000
4.633159 -1.563010 -0.397946 88.000000
4.628342 -1.577217 -0.397946 84.000000
4.629132 -1.593354 -0.398479 76.000000
4.627044 -1.608530 -0.398745 55.000000
4.630546 -1.625688 -0.399543 84.000000
4.636801 -1.643882 -0.400608 113.000000
4.654242 -1.666159 -0.402737 150.000000
4.616324 -1.668577 -0.399632 65.000000
4.608376 -1.681707 -0.399366 63.000000
4.592914 -1.692049 -0.398390 78.000000
4.576499 -1.701964 -0.397325 115.000000
4.566593 -1.714246 -0.396882 99.000000
4.564106 -1.729307 -0.397148 82.000000
4.561571 -1.744369 -0.397414 108.000000
4.565490 -1.761943 -0.398301 91.000000
4.578625 -1.783172 -0.400076 72.000000
4.593527 -1.805227 -0.402028 49.000000
4.769529 -1.511172 -0.471305 11.000000
4.674854 -1.496996 -0.461688 34.000000
4.657934 -1.507352 -0.460372 38.000000
4.646668 -1.519473 -0.459664 73.000000
4.641039 -1.533409 -0.459563 71.000000
4.637257 -1.547956 -0.459664 70.000000
4.637200 -1.563764 -0.460170 74.000000
4.638973 -1.580227 -0.460879 83.000000
4.643512 -1.597686 -0.461891 65.000000
4.644227 -1.613883 -0.462498 65.000000
4.648642 -1.631416 -0.463511 73.000000
4.669873 -1.654969 -0.466345 142.000000
4.665710 -1.669623 -0.466446 145.000000
4.635302 -1.674807 -0.463713 66.000000
4.617990 -1.684591 -0.462397 67.000000
4.610933 -1.698064 -0.462195 79.000000
4.600106 -1.710123 -0.461587 52.000000
4.590180 -1.722481 -0.461081 87.000000
4.586735 -1.737260 -0.461284 80.000000
4.578595 -1.750259 -0.460980 77.000000
4.575989 -1.765371 -0.461284 77.000000
4.590022 -1.786977 -0.463409 41.000000
4.670641 -1.834861 -0.472824 12.000000
4.698352 -1.504238 -0.523226 33.000000
4.686152 -1.516198 -0.522322 55.000000
4.664480 -1.525009 -0.520288 78.000000
4.655062 -1.537753 -0.519723 110.000000
4.659747 -1.555174 -0.520853 91.000000
4.655895 -1.569780 -0.520966 104.000000
4.656701 -1.585979 -0.521644 109.000000
4.658390 -1.602521 -0.522435 79.000000
4.658144 -1.618436 -0.523000 83.000000
4.663469 -1.636339 -0.524244 71.000000
4.682776 -1.659268 -0.527182 132.000000
4.671115 -1.671284 -0.526391 116.000000
4.664097 -1.684931 -0.526165 51.000000
4.653305 -1.697189 -0.525487 78.000000
4.639685 -1.708367 -0.524470 93.000000
4.627903 -1.720170 -0.523679 79.000000
4.611441 -1.730170 -0.522322 90.000000
4.603323 -1.743254 -0.521983 100.000000
4.595170 -1.756304 -0.521644 117.000000
4.595321 -1.772540 -0.522322 99.000000
4.598195 -1.789874 -0.523339 79.000000
4.727234 -1.529760 -0.589508 29.000000
4.699885 -1.536861 -0.586500 51.000000
4.674422 -1.544430 -0.583742 86.000000
4.672485 -1.559706 -0.584118 91.000000
4.669558 -1.574667 -0.584369 72.000000
4.666584 -1.589625 -0.584620 86.000000
4.667315 -1.605870 -0.585372 99.000000
4.669864 -1.622784 -0.586374 81.000000
4.673288 -1.640059 -0.587502 65.000000
4.700967 -1.665980 -0.591889 166.000000
4.675282 -1.673045 -0.589132 93.000000
4.667327 -1.686370 -0.588756 81.000000
4.650946 -1.696604 -0.587252 92.000000
4.635478 -1.707096 -0.585873 114.000000
4.625568 -1.719582 -0.585246 107.000000
4.618413 -1.733068 -0.584996 100.000000
4.613075 -1.747229 -0.584996 112.000000
4.614180 -1.763852 -0.585873 82.000000
4.610598 -1.778713 -0.586124 78.000000
4.624537 -1.800404 -0.588756 31.000000
4.758864 -1.554042 -0.656292 31.000000
4.736203 -1.562737 -0.653681 51.000000
4.680645 -1.560340 -0.646259 97.000000
4.681468 -1.576590 -0.647084 94.000000
4.685049 -1.593817 -0.648320 92.000000
4.685758 -1.610115 -0.649145 99.000000
4.691089 -1.628056 -0.650657 88.000000
4.695419 -1.645718 -0.652031 96.000000
4.701553 -1.664082 -0.653681 59.000000
4.702954 -1.680832 -0.654643 54.000000
4.691254 -1.692899 -0.653681 103.000000
4.683246 -1.706266 -0.653269 84.000000
4.673341 -1.718916 -0.652581 61.000000
4.655046 -1.728418 -0.650657 71.000000
4.643229 -1.740257 -0.649695 93.000000
4.633236 -1.752741 -0.649008 95.000000
4.667626 -1.782143 -0.654918 50.000000
4.760134 -1.557463 -0.717110 31.000000
4.722471 -1.561204 -0.711889 66.000000
4.713907 -1.574433 -0.711292 64.000000
4.707181 -1.588256 -0.710993 120.000000
4.704158 -1.603328 -0.711292 94.000000
4.704827 -1.619682 -0.712187 85.000000
4.709177 -1.637354 -0.713679 79.000000
4.709730 -1.653758 -0.714574 114.000000
4.718614 -1.673153 -0.716812 51.000000
4.720907 -1.690287 -0.718005 33.000000
4.698959 -1.698715 -0.715320 85.000000
4.688151 -1.711090 -0.714425 96.000000
4.666178 -1.719316 -0.711739 114.000000
4.657174 -1.732245 -0.711143 134.000000
4.651837 -1.746525 -0.711143 142.000000
4.650156 -1.762189 -0.711739 125.000000
4.664124 -1.783861 -0.714872 99.000000
4.663242 -1.799941 -0.715618 64.000000
4.760263 -1.555416 -0.778630 66.000000
4.748909 -1.567846 -0.777502 81.000000
4.738460 -1.580534 -0.776536 76.000000
4.727977 -1.593173 -0.775569 108.000000
4.721198 -1.607034 -0.775247 102.000000
4.719045 -1.622474 -0.775730 108.000000
4.719639 -1.638887 -0.776697 101.000000
4.717382 -1.654339 -0.777180 80.000000
4.719728 -1.671440 -0.778469 93.000000
4.736880 -1.693890 -0.782335 160.000000
4.712168 -1.701374 -0.778952 108.000000
4.705071 -1.715147 -0.778630 106.000000
4.697009 -1.728551 -0.778146 104.000000
4.687058 -1.741234 -0.777341 106.000000
4.678921 -1.754566 -0.776858 118.000000
4.672593 -1.768563 -0.776697 107.000000
4.667146 -1.782890 -0.776697 91.000000
4.664416 -1.798266 -0.777180 64.000000
