ply
format ascii 1.0
element vertex 878
property float x
property float y
property float z
property float intensity
end_header
4.381298 -1.566202 0.706043 30.000000
4.364368 -1.575271 0.704184 76.000000
4.367886 -1.591701 0.705471 104.000000
4.364840 -1.605777 0.705757 70.000000
4.355253 -1.617439 0.705042 86.000000
4.348417 -1.630099 0.704756 84.000000
4.344321 -1.643782 0.704899 80.000000
4.337408 -1.656397 0.704613 65.000000
4.344313 -1.674320 0.706472 24.000000
4.428943 -1.522708 0.653167 28.000000
4.387727 -1.523603 0.648056 64.000000
4.385839 -1.538041 0.648449 45.000000
4.378296 -1.550497 0.648056 40.000000
4.372585 -1.563588 0.647925 72.000000
4.366835 -1.576659 0.647794 70.000000
4.361046 -1.589709 0.647663 86.000000
4.359870 -1.604451 0.648187 71.000000
4.354927 -1.617819 0.648187 64.000000
4.349015 -1.630824 0.648056 68.000000
4.344918 -1.644510 0.648187 71.000000
4.330592 -1.654294 0.646877 98.000000
4.336596 -1.671852 0.648449 54.000000
4.329598 -1.684430 0.648187 65.000000
4.322565 -1.696980 0.647925 66.000000
4.321025 -1.711694 0.648449 43.000000
4.490132 -1.465733 0.600021 17.000000
4.415831 -1.456504 0.591221 79.000000
4.406631 -1.468477 0.590626 61.000000
4.402105 -1.481989 0.590626 76.000000
4.395658 -1.494849 0.590388 65.000000
4.388234 -1.507360 0.590032 72.000000
4.383588 -1.520816 0.590032 87.000000
4.378902 -1.534258 0.590032 90.000000
4.374174 -1.547685 0.590032 87.000000
4.372211 -1.562099 0.590388 106.000000
4.366464 -1.575168 0.590269 103.000000
4.361611 -1.588557 0.590269 100.000000
4.363240 -1.604328 0.591102 117.000000
4.357367 -1.617361 0.590983 108.000000
4.351454 -1.630374 0.590864 88.000000
4.345503 -1.643365 0.590745 100.000000
4.337658 -1.655628 0.590388 94.000000
4.330705 -1.668214 0.590150 88.000000
4.321864 -1.680055 0.589675 102.000000
4.314841 -1.692582 0.589437 85.000000
4.308704 -1.705446 0.589318 86.000000
4.302530 -1.718289 0.589199 77.000000
4.296317 -1.731110 0.589080 86.000000
4.294665 -1.745778 0.589556 79.000000
4.296639 -1.761957 0.590507 35.000000
4.290296 -1.774751 0.590388 48.000000
4.456975 -1.395141 0.536060 38.000000
4.441298 -1.405209 0.534778 43.000000
4.437912 -1.419131 0.534885 53.000000
4.435430 -1.433351 0.535099 67.000000
4.429122 -1.446334 0.534885 58.000000
4.425608 -1.460227 0.534992 60.000000
4.420164 -1.473484 0.534885 88.000000
4.411853 -1.485768 0.534458 55.000000
4.405392 -1.498656 0.534244 61.000000
4.397012 -1.510872 0.533817 75.000000
4.389538 -1.523376 0.533497 75.000000
4.382029 -1.535849 0.533177 65.000000
4.372610 -1.547627 0.532643 80.000000
4.366905 -1.560699 0.532536 62.000000
4.362096 -1.574090 0.532536 75.000000
4.360049 -1.588486 0.532856 57.000000
4.358888 -1.603228 0.533283 73.000000
4.357677 -1.617978 0.533711 62.000000
4.356417 -1.632736 0.534138 85.000000
4.355107 -1.647501 0.534565 80.000000
4.349103 -1.660500 0.534458 80.000000
4.343060 -1.673477 0.534351 85.000000
4.336052 -1.686073 0.534138 77.000000
4.328083 -1.698278 0.533817 87.000000
4.321928 -1.711182 0.533711 78.000000
4.309502 -1.736926 0.533497 82.000000
4.305995 -1.750888 0.533711 84.000000
4.298764 -1.763335 0.533497 72.000000
4.295171 -1.777276 0.533711 87.000000
4.289698 -1.790445 0.533711 72.000000
4.282352 -1.802826 0.533497 65.000000
4.282292 -1.818287 0.534138 53.000000
4.271210 -1.829068 0.533497 61.000000
4.248236 -1.834671 0.531468 17.000000
4.388595 -1.300532 0.471383 16.000000
4.444664 -1.331978 0.477367 63.000000
4.440557 -1.345608 0.477367 72.000000
4.433552 -1.358351 0.477082 67.000000
4.430315 -1.372241 0.477177 55.000000
4.427035 -1.386123 0.477272 51.000000
4.422761 -1.399699 0.477272 68.000000
4.420342 -1.413867 0.477462 92.000000
4.416932 -1.427728 0.477557 69.000000
4.413477 -1.441581 0.477652 70.000000
4.410924 -1.455738 0.477842 77.000000
4.404548 -1.468634 0.477652 71.000000
4.397192 -1.481188 0.477367 98.000000
4.390742 -1.494030 0.477177 86.000000
4.382371 -1.506201 0.476797 101.000000
4.377729 -1.519638 0.476797 79.000000
4.372107 -1.532733 0.476702 83.000000
4.367384 -1.546139 0.476702 86.000000
4.366370 -1.560870 0.477082 103.000000
4.362497 -1.574597 0.477177 101.000000
4.359517 -1.588654 0.477367 124.000000
4.357426 -1.603052 0.477652 99.000000
4.341287 -1.612257 0.476512 128.000000
4.346575 -1.629409 0.477557 109.000000
4.341556 -1.642737 0.477557 102.000000
4.336495 -1.656049 0.477557 108.000000
4.332324 -1.669703 0.477652 100.000000
4.330892 -1.684429 0.478032 98.000000
4.325704 -1.697708 0.478032 96.000000
4.322326 -1.711703 0.478222 107.000000
4.317054 -1.724956 0.478222 104.000000
4.308972 -1.737077 0.477937 78.000000
4.302700 -1.749913 0.477842 95.000000
4.294548 -1.761973 0.477557 98.000000
4.289122 -1.775140 0.477557 88.000000
4.286412 -1.789440 0.477842 70.000000
4.281819 -1.802968 0.477937 95.000000
4.279017 -1.817263 0.478222 87.000000
4.276167 -1.831558 0.478507 76.000000
4.270528 -1.844668 0.478507 78.000000
4.253895 -1.852993 0.477367 39.000000
4.495577 -1.272066 0.421451 20.000000
4.468659 -1.279268 0.419472 56.000000
4.464714 -1.292971 0.419472 68.000000
4.459769 -1.306382 0.419389 50.000000
4.454784 -1.319775 0.419307 55.000000
4.448806 -1.332864 0.419142 57.000000
4.443742 -1.346218 0.419059 58.000000
4.440544 -1.360136 0.419142 80.000000
4.434446 -1.373164 0.418977 66.000000
4.432115 -1.387357 0.419142 57.000000
4.426887 -1.400648 0.419059 70.000000
4.421619 -1.413919 0.418977 79.000000
4.418209 -1.427784 0.419059 72.000000
4.412861 -1.441023 0.418977 82.000000
4.408419 -1.454555 0.418977 71.000000
4.401100 -1.467127 0.418730 69.000000
4.394689 -1.479986 0.418565 65.000000
4.390128 -1.493462 0.418565 66.000000
4.384583 -1.506600 0.418482 82.000000
4.380881 -1.520371 0.418565 81.000000
4.380898 -1.535453 0.418977 87.000000
4.378047 -1.549551 0.419142 68.000000
4.377026 -1.564317 0.419472 69.000000
4.376893 -1.579430 0.419884 78.000000
4.372962 -1.593192 0.419966 63.000000
4.367118 -1.606257 0.419884 69.000000
4.362171 -1.619647 0.419884 67.000000
4.353448 -1.631623 0.419554 88.000000
4.343761 -1.643208 0.419142 88.000000
4.334044 -1.654749 0.418730 88.000000
4.327087 -1.667321 0.418565 72.000000
4.324739 -1.681673 0.418812 68.000000
4.319559 -1.694933 0.418812 83.000000
4.316192 -1.708911 0.418977 76.000000
4.311171 -1.737598 0.419472 76.000000
4.307666 -1.751567 0.419637 61.000000
4.302272 -1.764775 0.419637 87.000000
4.299600 -1.779109 0.419884 89.000000
4.295041 -1.792676 0.419966 82.000000
4.294113 -1.807778 0.420379 79.000000
4.289464 -1.821333 0.420461 86.000000
4.283856 -1.834485 0.420461 84.000000
4.276379 -1.846828 0.420296 82.000000
4.268865 -1.859143 0.420131 68.000000
4.258579 -1.870227 0.419719 85.000000
4.251910 -1.882880 0.419637 61.000000
4.242473 -1.894290 0.419307 59.000000
4.595227 -1.226492 0.371813 7.000000
4.485508 -1.211989 0.364044 58.000000
4.480806 -1.225482 0.363974 70.000000
4.474142 -1.238426 0.363762 71.000000
4.468400 -1.251609 0.363620 54.000000
4.460700 -1.264225 0.363338 81.000000
4.454882 -1.277354 0.363197 88.000000
4.448875 -1.305226 0.363338 76.000000
4.442937 -1.318302 0.363197 106.000000
4.439828 -1.332213 0.363267 92.000000
4.439538 -1.346985 0.363550 83.000000
4.440153 -1.362061 0.363903 88.000000
4.439764 -1.376858 0.364185 94.000000
4.435520 -1.390472 0.364185 78.000000
4.431233 -1.404074 0.364185 64.000000
4.425004 -1.417054 0.364044 75.000000
4.417789 -1.429702 0.363832 89.000000
4.412433 -1.442939 0.363762 67.000000
4.407986 -1.456470 0.363762 68.000000
4.402550 -1.469671 0.363691 71.000000
4.395185 -1.482215 0.363479 74.000000
4.388728 -1.495049 0.363338 69.000000
4.379404 -1.506885 0.362985 100.000000
4.373818 -1.519987 0.362914 77.000000
4.368193 -1.533068 0.362844 96.000000
4.366290 -1.547461 0.363055 85.000000
4.363400 -1.561521 0.363197 92.000000
4.362342 -1.576256 0.363479 93.000000
4.356549 -1.589290 0.363409 115.000000
4.355397 -1.604027 0.363691 93.000000
4.352325 -1.618076 0.363832 82.000000
4.349209 -1.632121 0.363974 87.000000
4.344181 -1.645457 0.363974 84.000000
4.339112 -1.658777 0.363974 92.000000
4.334933 -1.672440 0.364044 84.000000
4.330712 -1.686093 0.364115 62.000000
4.322733 -1.698278 0.363903 88.000000
4.316575 -1.711165 0.363832 86.000000
4.309453 -1.723659 0.363691 88.000000
4.303219 -1.736500 0.363620 99.000000
4.300643 -1.750821 0.363832 65.000000
4.293406 -1.763250 0.363691 88.000000
4.290741 -1.777558 0.363903 87.000000
4.288029 -1.791866 0.364115 91.000000
4.282511 -1.805013 0.364115 84.000000
4.276953 -1.818144 0.364115 98.000000
4.271355 -1.831257 0.364115 96.000000
4.264801 -1.843957 0.364044 67.000000
4.263696 -1.859024 0.364397 84.000000
4.258886 -1.872498 0.364468 85.000000
4.250385 -1.884343 0.364256 69.000000
4.247316 -1.898594 0.364468 80.000000
4.236924 -1.909568 0.364115 50.000000
4.231045 -1.922558 0.364115 49.000000
4.227848 -1.936775 0.364327 58.000000
4.220075 -1.948901 0.364185 40.000000
4.515271 -1.144827 0.306295 16.000000
4.524307 -1.161904 0.307050 48.000000
4.521688 -1.176030 0.307108 56.000000
4.517093 -1.189642 0.307050 49.000000
4.511493 -1.202980 0.306934 59.000000
4.509708 -1.217336 0.307050 111.000000
4.498249 -1.229061 0.306585 73.000000
4.494457 -1.242855 0.306585 81.000000
4.486777 -1.255562 0.306353 70.000000
4.480983 -1.268777 0.306237 57.000000
4.473230 -1.281418 0.306004 57.000000
4.460649 -1.292635 0.305481 51.000000
4.456662 -1.306314 0.305481 61.000000
4.447847 -1.318561 0.305191 62.000000
4.441869 -1.331627 0.305075 59.000000
4.438718 -1.345538 0.305133 73.000000
4.437432 -1.360027 0.305307 64.000000
4.436100 -1.374521 0.305481 80.000000
4.429956 -1.387528 0.305365 82.000000
4.424727 -1.400811 0.305307 76.000000
4.419458 -1.414075 0.305249 80.000000
4.415099 -1.427627 0.305249 84.000000
4.413545 -1.442096 0.305423 59.000000
4.410048 -1.455943 0.305481 74.000000
4.408401 -1.470414 0.305656 85.000000
4.401977 -1.483294 0.305540 77.000000
4.396461 -1.496470 0.305481 74.000000
4.389017 -1.508977 0.305307 100.000000
4.378708 -1.520470 0.304959 73.000000
4.374023 -1.533897 0.304959 83.000000
4.366474 -1.546309 0.304784 70.000000
4.362649 -1.560034 0.304842 81.000000
4.359720 -1.574089 0.304959 73.000000
4.357684 -1.588483 0.305133 70.000000
4.355601 -1.602879 0.305307 87.000000
4.356277 -1.618321 0.305656 74.000000
4.355031 -1.633081 0.305888 55.000000
4.350934 -1.646788 0.305946 67.000000
4.350524 -1.661910 0.306237 80.000000
4.341679 -1.673813 0.306004 87.000000
4.338384 -1.687849 0.306120 90.000000
4.334115 -1.701516 0.306178 72.000000
4.323306 -1.712598 0.305830 85.000000
4.309938 -1.737973 0.305656 86.000000
4.303661 -1.750811 0.305598 67.000000
4.299193 -1.764385 0.305656 72.000000
4.296526 -1.778713 0.305830 92.000000
4.291050 -1.791886 0.305830 85.000000
4.287372 -1.805817 0.305946 86.000000
4.283649 -1.819743 0.306062 79.000000
4.279881 -1.833663 0.306178 76.000000
4.276985 -1.847973 0.306353 79.000000
4.275871 -1.863080 0.306643 97.000000
4.270135 -1.876190 0.306643 92.000000
4.264359 -1.889281 0.306643 79.000000
4.261277 -1.903577 0.306817 85.000000
4.249956 -1.914181 0.306469 76.000000
4.236315 -1.939391 0.306353 59.000000
4.229438 -1.951961 0.306295 54.000000
4.221620 -1.964085 0.306178 43.000000
4.213767 -1.976179 0.306062 38.000000
4.198659 -1.984830 0.305481 23.000000
4.523514 -1.090028 0.250811 45.000000
4.523060 -1.104611 0.250949 62.000000
4.521590 -1.118961 0.251042 46.000000
4.516198 -1.132343 0.250949 51.000000
4.511734 -1.145947 0.250903 57.000000
4.507229 -1.159535 0.250857 74.000000
4.504618 -1.173609 0.250903 61.000000
4.500996 -1.187424 0.250903 50.000000
4.495401 -1.200712 0.250811 70.000000
4.490732 -1.214237 0.250764 83.000000
4.486986 -1.228009 0.250764 68.000000
4.483197 -1.241769 0.250764 85.000000
4.478405 -1.255248 0.250718 66.000000
4.473571 -1.268710 0.250672 76.000000
4.466777 -1.281603 0.250533 73.000000
4.456912 -1.308424 0.250441 89.000000
4.451919 -1.321807 0.250395 77.000000
4.444973 -1.334598 0.250256 96.000000
4.438945 -1.347649 0.250163 93.000000
4.433835 -1.360968 0.250117 98.000000
4.426776 -1.373677 0.249978 108.000000
4.420635 -1.386654 0.249886 100.000000
4.417312 -1.400512 0.249932 99.000000
4.411091 -1.413448 0.249840 93.000000
4.408636 -1.427590 0.249932 68.000000
4.404235 -1.441108 0.249932 80.000000
4.400742 -1.454927 0.249978 85.000000
4.399099 -1.469370 0.250117 95.000000
4.391731 -1.481902 0.249978 80.000000
4.387164 -1.495369 0.249978 106.000000
4.382556 -1.508821 0.249978 77.000000
4.378850 -1.522588 0.250025 92.000000
4.374158 -1.536014 0.250025 90.000000
4.368484 -1.549093 0.249978 99.000000
4.364651 -1.562825 0.250025 100.000000
4.360775 -1.576548 0.250071 104.000000
4.356856 -1.590261 0.250117 77.000000
4.353832 -1.604311 0.250210 73.000000
4.349825 -1.618008 0.250256 77.000000
4.345777 -1.631697 0.250302 86.000000
4.342618 -1.645729 0.250395 91.000000
4.333817 -1.657618 0.250210 81.000000
4.326847 -1.670187 0.250117 83.000000
4.318909 -1.682367 0.249978 90.000000
4.313728 -1.695609 0.249978 84.000000
4.308506 -1.708835 0.249978 80.000000
4.303243 -1.722046 0.249978 76.000000
4.297939 -1.735240 0.249978 76.000000
4.292595 -1.748418 0.249978 69.000000
4.288135 -1.761958 0.250025 78.000000
4.281786 -1.774723 0.249978 82.000000
4.276321 -1.787851 0.249978 81.000000
4.271737 -1.801351 0.250025 80.000000
4.268949 -1.815620 0.250163 52.000000
4.264276 -1.829102 0.250210 63.000000
4.262312 -1.843761 0.250395 55.000000
4.256635 -1.856829 0.250395 66.000000
4.245432 -1.867468 0.250117 53.000000
4.245162 -1.882912 0.250395 61.000000
4.242101 -1.897150 0.250533 54.000000
4.236261 -1.910156 0.250533 44.000000
4.226743 -1.921491 0.250348 49.000000
4.253523 -1.949424 0.252013 11.000000
4.547858 -1.035836 0.193636 39.000000
4.547580 -1.050459 0.193738 45.000000
4.542390 -1.063950 0.193670 43.000000
4.538132 -1.077650 0.193636 43.000000
4.531889 -1.090865 0.193535 38.000000
4.540172 -1.107607 0.193941 52.000000
4.539663 -1.122251 0.194043 54.000000
4.534260 -1.135687 0.193975 64.000000
4.524942 -1.148118 0.193772 51.000000
4.517527 -1.160999 0.193636 59.000000
4.514911 -1.175105 0.193670 64.000000
4.508385 -1.188187 0.193569 58.000000
4.501822 -1.201240 0.193467 57.000000
4.495221 -1.214263 0.193366 64.000000
4.490510 -1.227785 0.193332 72.000000
4.484796 -1.241023 0.193264 86.000000
4.480005 -1.254506 0.193230 71.000000
4.476135 -1.268245 0.193230 67.000000
4.473184 -1.282247 0.193264 84.000000
4.471149 -1.296521 0.193332 63.000000
4.465232 -1.309670 0.193264 66.000000
4.457361 -1.322226 0.193129 63.000000
4.449454 -1.334745 0.192993 87.000000
4.441512 -1.347229 0.192858 71.000000
4.433537 -1.359677 0.192722 71.000000
4.420753 -1.370608 0.192418 58.000000
4.421296 -1.385659 0.192587 101.000000
4.417976 -1.399519 0.192621 71.000000
4.417469 -1.414286 0.192756 111.000000
4.412158 -1.427524 0.192722 102.000000
4.408708 -1.441364 0.192756 95.000000
4.405214 -1.455196 0.192790 97.000000
4.398833 -1.468072 0.192722 93.000000
4.394308 -1.481560 0.192722 113.000000
4.387850 -1.494390 0.192655 102.000000
4.382300 -1.507520 0.192621 130.000000
4.377654 -1.520957 0.192621 131.000000
4.373910 -1.534711 0.192655 104.000000
4.372007 -1.549125 0.192756 117.000000
4.370057 -1.563541 0.192858 138.000000
4.366180 -1.577280 0.192892 119.000000
4.362259 -1.591011 0.192926 119.000000
4.358295 -1.604732 0.192959 101.000000
4.352415 -1.617747 0.192926 112.000000
4.347431 -1.631093 0.192926 103.000000
4.340537 -1.643715 0.192858 103.000000
4.334540 -1.656666 0.192824 99.000000
4.330370 -1.670317 0.192858 84.000000
4.327087 -1.684319 0.192926 79.000000
4.323761 -1.698318 0.192993 83.000000
4.318530 -1.711575 0.192993 88.000000
4.303312 -1.736171 0.192824 86.000000
4.295188 -1.748234 0.192722 83.000000
4.288880 -1.761024 0.192689 62.000000
4.280687 -1.773026 0.192587 93.000000
4.276150 -1.786536 0.192621 90.000000
4.273411 -1.800811 0.192722 74.000000
4.270626 -1.815086 0.192824 58.000000
4.265037 -1.828180 0.192824 77.000000
4.262160 -1.842446 0.192926 60.000000
4.256488 -1.855514 0.192926 68.000000
4.252604 -1.869368 0.192993 49.000000
4.519310 -1.072696 0.136379 26.000000
4.527663 -1.089360 0.136639 61.000000
4.525270 -1.103482 0.136661 56.000000
4.519923 -1.116881 0.136617 52.000000
4.516475 -1.130743 0.136617 62.000000
4.512985 -1.144594 0.136617 59.000000
4.507515 -1.157937 0.136574 60.000000
4.505877 -1.172263 0.136617 62.000000
4.501292 -1.185827 0.136596 68.000000
4.494735 -1.198859 0.136531 80.000000
4.488140 -1.211862 0.136466 75.000000
4.480543 -1.224572 0.136379 63.000000
4.470983 -1.236715 0.136249 70.000000
4.465242 -1.249887 0.136206 79.000000
4.457539 -1.262492 0.136120 74.000000
4.451722 -1.275611 0.136076 86.000000
4.443811 -1.302902 0.136076 103.000000
4.441710 -1.317098 0.136120 133.000000
4.440521 -1.331579 0.136184 121.000000
4.436415 -1.345196 0.136184 114.000000
4.432268 -1.358801 0.136184 120.000000
4.428078 -1.372392 0.136184 116.000000
4.420984 -1.385075 0.136120 103.000000
4.419574 -1.399537 0.136184 113.000000
4.415259 -1.413089 0.136184 136.000000
4.410903 -1.426628 0.136184 142.000000
4.408406 -1.440775 0.136228 113.000000
4.406813 -1.455233 0.136293 126.000000
4.403276 -1.469062 0.136314 135.000000
4.399696 -1.482883 0.136336 123.000000
4.394180 -1.496052 0.136314 117.000000
4.386733 -1.508552 0.136249 132.000000
4.379251 -1.521019 0.136184 140.000000
4.374563 -1.534448 0.136184 119.000000
4.371720 -1.548529 0.136228 117.000000
4.363183 -1.560588 0.136141 97.000000
4.366838 -1.577021 0.136336 144.000000
4.363858 -1.591095 0.136379 139.000000
4.359895 -1.604821 0.136401 144.000000
4.354013 -1.617841 0.136379 125.000000
4.349030 -1.631191 0.136379 129.000000
4.341199 -1.643465 0.136314 116.000000
4.337070 -1.657133 0.136336 135.000000
4.331033 -1.670071 0.136314 153.000000
4.320299 -1.681177 0.136184 110.000000
4.316982 -1.695154 0.136228 110.000000
4.312690 -1.708758 0.136249 89.000000
4.312070 -1.723836 0.136358 74.000000
4.307688 -1.737431 0.136379 78.000000
4.305116 -1.751768 0.136444 72.000000
4.301571 -1.765726 0.136487 73.000000
4.292439 -1.777386 0.136401 61.000000
4.288810 -1.791317 0.136444 55.000000
4.273159 -1.800199 0.136206 38.000000
4.257493 -1.809003 0.135968 22.000000
4.502513 -1.128565 0.078973 35.000000
4.505814 -1.144097 0.079038 50.000000
4.502282 -1.157915 0.079038 59.000000
4.498709 -1.171722 0.079038 53.000000
4.495092 -1.185519 0.079038 57.000000
4.491435 -1.199304 0.079038 57.000000
4.487734 -1.213078 0.079038 78.000000
4.483991 -1.226840 0.079038 88.000000
4.478279 -1.240057 0.079019 84.000000
4.473490 -1.253521 0.079010 65.000000
4.467700 -1.266693 0.078991 77.000000
4.465714 -1.280946 0.079010 78.000000
4.458883 -1.293804 0.078982 80.000000
4.454893 -1.307478 0.078982 103.000000
4.449902 -1.320855 0.078973 90.000000
4.445828 -1.334500 0.078973 107.000000
4.439799 -1.347553 0.078954 90.000000
4.435645 -1.361168 0.078954 111.000000
4.428583 -1.373881 0.078927 104.000000
4.424347 -1.387461 0.078927 104.000000
4.418163 -1.400423 0.078908 119.000000
4.413846 -1.413972 0.078908 116.000000
4.411389 -1.428122 0.078927 137.000000
4.418392 -1.445381 0.079038 186.000000
4.412987 -1.458616 0.079028 146.000000
4.408492 -1.472148 0.079028 173.000000
4.403007 -1.485347 0.079019 193.000000
4.399375 -1.499170 0.079028 229.000000
4.396646 -1.513312 0.079047 241.000000
4.397650 -1.528764 0.079102 255.000000
4.392939 -1.542248 0.079102 296.000000
4.387244 -1.555384 0.079093 305.000000
4.375862 -1.566477 0.079028 267.000000
4.363513 -1.577175 0.078954 226.000000
4.358653 -1.590554 0.078954 200.000000
4.356568 -1.604956 0.078982 158.000000
4.350686 -1.617966 0.078973 153.000000
4.343830 -1.630603 0.078954 148.000000
4.338806 -1.643922 0.078954 124.000000
4.334676 -1.657583 0.078964 115.000000
4.328638 -1.670513 0.078954 81.000000
4.325356 -1.684512 0.078973 82.000000
4.320167 -1.697774 0.078973 79.000000
4.317727 -1.712126 0.079001 60.000000
4.297156 -1.749906 0.078954 56.000000
4.228872 -1.737238 0.078325 14.000000
4.492386 -1.168757 0.020839 32.000000
4.495549 -1.184316 0.020816 46.000000
4.491894 -1.198102 0.020816 58.000000
4.487232 -1.211617 0.020819 60.000000
4.483494 -1.225378 0.020819 62.000000
4.479713 -1.239128 0.020819 50.000000
4.473001 -1.252057 0.020829 60.000000
4.467215 -1.265230 0.020836 89.000000
4.460428 -1.278103 0.020846 81.000000
4.449623 -1.304605 0.020856 129.000000
4.443682 -1.317682 0.020862 135.000000
4.438660 -1.331022 0.020866 128.000000
4.434556 -1.344633 0.020866 114.000000
4.428497 -1.357646 0.020872 93.000000
4.426222 -1.371818 0.020866 88.000000
4.432489 -1.388676 0.020829 139.000000
4.429162 -1.402570 0.020826 248.000000
4.424838 -1.416152 0.020826 247.000000
4.417618 -1.428798 0.020836 295.000000
4.413214 -1.442345 0.020836 255.000000
4.408768 -1.455877 0.020836 336.000000
4.400486 -1.468131 0.020849 288.000000
4.395013 -1.481306 0.020852 328.000000
4.390448 -1.494783 0.020852 317.000000
4.386787 -1.508570 0.020849 315.000000
4.381193 -1.521694 0.020852 272.000000
4.377448 -1.535459 0.020849 269.000000
4.373660 -1.549215 0.020846 265.000000
4.369828 -1.562962 0.020842 313.000000
4.365012 -1.576362 0.020842 286.000000
4.359216 -1.589403 0.020846 267.000000
4.354319 -1.602770 0.020846 203.000000
4.346569 -1.615077 0.020856 84.000000
4.344402 -1.629457 0.020846 58.000000
4.339383 -1.642778 0.020846 67.000000
4.349270 -1.661790 0.020793 53.000000
4.346017 -1.675845 0.020786 66.000000
4.365088 -1.698593 0.020700 58.000000
4.479942 -1.759096 0.020272 38.000000
4.517294 -1.789766 0.020119 53.000000
4.538712 -1.814374 0.020023 38.000000
4.506948 -1.201768 -0.036846 49.000000
4.503241 -1.215590 -0.036846 69.000000
4.496596 -1.228609 -0.036799 56.000000
4.490878 -1.241865 -0.036768 66.000000
4.485121 -1.255098 -0.036736 72.000000
4.478364 -1.268035 -0.036689 60.000000
4.471569 -1.280942 -0.036642 65.000000
4.466658 -1.294376 -0.036626 80.000000
4.459787 -1.307230 -0.036579 91.000000
4.450963 -1.319485 -0.036501 103.000000
4.442104 -1.331698 -0.036422 114.000000
4.437998 -1.345320 -0.036422 122.000000
4.437674 -1.360101 -0.036485 147.000000
4.437300 -1.374894 -0.036548 165.000000
4.433062 -1.388501 -0.036548 265.000000
4.427827 -1.401793 -0.036532 288.000000
4.424458 -1.415675 -0.036548 342.000000
4.418191 -1.428627 -0.036517 225.000000
4.416639 -1.443107 -0.036564 206.000000
4.414089 -1.457277 -0.036595 225.000000
4.404856 -1.469231 -0.036517 316.000000
4.396537 -1.481460 -0.036454 370.000000
4.403330 -1.498809 -0.036642 503.000000
4.386419 -1.508084 -0.036438 698.000000
4.392161 -1.525143 -0.036611 569.000000
4.397840 -1.542251 -0.036784 427.000000
4.374238 -1.549059 -0.036469 225.000000
4.383586 -1.567523 -0.036705 103.000000
4.366532 -1.576549 -0.036501 84.000000
4.364492 -1.590966 -0.036548 94.000000
4.363344 -1.605730 -0.036611 84.000000
4.369645 -1.623288 -0.036799 67.000000
4.384304 -1.644060 -0.037129 75.000000
4.539142 -1.718040 -0.039815 74.000000
4.580551 -1.749802 -0.040600 109.000000
4.571429 -1.762408 -0.040538 76.000000
4.576251 -1.780414 -0.040710 70.000000
4.580074 -1.798100 -0.040867 56.000000
4.580113 -1.814353 -0.040962 73.000000
4.575454 -1.828767 -0.040977 38.000000
4.538294 -1.830079 -0.040443 21.000000
4.460662 -1.278171 -0.092184 49.000000
4.446793 -1.318604 -0.092128 54.000000
4.442727 -1.332240 -0.092128 66.000000
4.438618 -1.345864 -0.092128 68.000000
4.434468 -1.359475 -0.092128 91.000000
4.430277 -1.373073 -0.092128 138.000000
4.433675 -1.389048 -0.092350 197.000000
4.429392 -1.402643 -0.092350 196.000000
4.424116 -1.415921 -0.092323 209.000000
4.418800 -1.429180 -0.092295 232.000000
4.415345 -1.443041 -0.092323 220.000000
4.398557 -1.452508 -0.091962 347.000000
4.398821 -1.467577 -0.092101 518.000000
4.414192 -1.487765 -0.092683 1076.000000
4.397305 -1.497115 -0.092323 1362.000000
4.386073 -1.508325 -0.092128 257.000000
4.375759 -1.519808 -0.091962 73.000000
4.395603 -1.541822 -0.092683 49.000000
4.400275 -1.558635 -0.092961 64.000000
4.415240 -1.579192 -0.093543 48.000000
4.475253 -1.616142 -0.095458 55.000000
4.533202 -1.652790 -0.097317 73.000000
4.562822 -1.679458 -0.098344 83.000000
4.568893 -1.697623 -0.098677 81.000000
4.572088 -1.714790 -0.098926 74.000000
4.567740 -1.729162 -0.098954 57.000000
4.572686 -1.747090 -0.099259 67.000000
4.569170 -1.761829 -0.099315 56.000000
4.573992 -1.779824 -0.099620 62.000000
4.575954 -1.796770 -0.099842 63.000000
4.587150 -1.817424 -0.100341 46.000000
4.589907 -1.834826 -0.100591 54.000000
4.589819 -1.851141 -0.100758 30.000000
4.451736 -1.319714 -0.150486 41.000000
4.445752 -1.332792 -0.150405 46.000000
4.442599 -1.346715 -0.150445 64.000000
4.437491 -1.360045 -0.150405 50.000000
4.422799 -1.370399 -0.149962 102.000000
4.432876 -1.388443 -0.150566 204.000000
4.415260 -1.397813 -0.150002 101.000000
4.411902 -1.411657 -0.150042 116.000000
4.411353 -1.426415 -0.150204 149.000000
4.401258 -1.438080 -0.149962 85.000000
4.399672 -1.452516 -0.150083 61.000000
4.403725 -1.468853 -0.150445 58.000000
4.428550 -1.492250 -0.151695 53.000000
4.415438 -1.502931 -0.151332 59.000000
4.446712 -1.528819 -0.152864 44.000000
4.538276 -1.575893 -0.156975 68.000000
4.554163 -1.597085 -0.157862 68.000000
4.566194 -1.617055 -0.158587 83.000000
4.564975 -1.632403 -0.158749 66.000000
4.566524 -1.648776 -0.159031 63.000000
4.570831 -1.666201 -0.159434 65.000000
4.569449 -1.681597 -0.159595 74.000000
4.569888 -1.697696 -0.159837 73.000000
4.570271 -1.713813 -0.160079 80.000000
4.567796 -1.728888 -0.160200 70.000000
4.566203 -1.744320 -0.160361 83.000000
4.563627 -1.759399 -0.160482 48.000000
4.568451 -1.777378 -0.160925 81.000000
4.572277 -1.795038 -0.161328 80.000000
4.572321 -1.811265 -0.161570 59.000000
4.427354 -1.373857 -0.205936 46.000000
4.425977 -1.388329 -0.206093 53.000000
4.423601 -1.402504 -0.206198 54.000000
4.422131 -1.416983 -0.206355 68.000000
4.429164 -1.434232 -0.206983 57.000000
4.438981 -1.452468 -0.207768 50.000000
4.477175 -1.480175 -0.210123 50.000000
4.568287 -1.525834 -0.215409 58.000000
4.588188 -1.548137 -0.216770 67.000000
4.596651 -1.566714 -0.217503 85.000000
4.596544 -1.582433 -0.217764 57.000000
4.597327 -1.598494 -0.218078 71.000000
4.594286 -1.613252 -0.218183 71.000000
4.589315 -1.627339 -0.218183 75.000000
4.585241 -1.641748 -0.218235 56.000000
4.575487 -1.654111 -0.217974 69.000000
4.570390 -1.668141 -0.217974 67.000000
4.563377 -1.681465 -0.217869 74.000000
4.560069 -1.696153 -0.217974 76.000000
4.558584 -1.711538 -0.218183 80.000000
4.562651 -1.729052 -0.218706 64.000000
4.567585 -1.746964 -0.219282 61.000000
4.572453 -1.764922 -0.219858 63.000000
4.573532 -1.781477 -0.220224 73.000000
4.576410 -1.798786 -0.220695 66.000000
4.579225 -1.816129 -0.221166 68.000000
4.568995 -1.828316 -0.220904 20.000000
4.657166 -1.490155 -0.279859 36.000000
4.654470 -1.505050 -0.279988 48.000000
4.652677 -1.520253 -0.280183 53.000000
4.653677 -1.536397 -0.280571 56.000000
4.632849 -1.545298 -0.279471 72.000000
4.622412 -1.557592 -0.279083 87.000000
4.611943 -1.569836 -0.278694 90.000000
4.604275 -1.583004 -0.278500 78.000000
4.596569 -1.596141 -0.278306 93.000000
4.591650 -1.610235 -0.278306 72.000000
4.584807 -1.623648 -0.278177 60.000000
4.579804 -1.637706 -0.278177 88.000000
4.573820 -1.651410 -0.278112 83.000000
4.568731 -1.665435 -0.278112 89.000000
4.565474 -1.680133 -0.278241 101.000000
4.563104 -1.695175 -0.278435 97.000000
4.557881 -1.709166 -0.278435 120.000000
4.553549 -1.723495 -0.278500 127.000000
4.556630 -1.740662 -0.279083 89.000000
4.565235 -1.760019 -0.280053 62.000000
4.562603 -1.775103 -0.280247 72.000000
4.559922 -1.790187 -0.280441 97.000000
4.560903 -1.806741 -0.280894 73.000000
4.563678 -1.824059 -0.281477 64.000000
4.619158 -1.464452 -0.334619 13.000000
4.669720 -1.496249 -0.339058 45.000000
4.658467 -1.508420 -0.338523 62.000000
4.649079 -1.521156 -0.338140 68.000000
4.637763 -1.533223 -0.337604 71.000000
4.625471 -1.544919 -0.336992 63.000000
4.617875 -1.558147 -0.336762 67.000000
4.609298 -1.571021 -0.336456 67.000000
4.603514 -1.584830 -0.336379 67.000000
4.602396 -1.600255 -0.336686 59.000000
4.599347 -1.615028 -0.336839 51.000000
4.599070 -1.630796 -0.337221 81.000000
4.597800 -1.646241 -0.337528 89.000000
4.585226 -1.657629 -0.336915 48.000000
4.580119 -1.671689 -0.336915 57.000000
4.587132 -1.690211 -0.337910 122.000000
4.576317 -1.702192 -0.337451 91.000000
4.561738 -1.712722 -0.336686 72.000000
4.557395 -1.727062 -0.336762 63.000000
4.548349 -1.739612 -0.336456 76.000000
4.545782 -1.754634 -0.336686 51.000000
4.552456 -1.773274 -0.337681 50.000000
4.560915 -1.792700 -0.338829 42.000000
4.556321 -1.807052 -0.338905 47.000000
4.565568 -1.826945 -0.340130 36.000000
4.668920 -1.495708 -0.399100 29.000000
4.652938 -1.506343 -0.398035 66.000000
4.643561 -1.519062 -0.397592 108.000000
4.625639 -1.528924 -0.396349 93.000000
4.615258 -1.541214 -0.395817 86.000000
4.605789 -1.553774 -0.395373 68.000000
4.602886 -1.568540 -0.395551 92.000000
4.603703 -1.584599 -0.396083 65.000000
4.604465 -1.600679 -0.396616 90.000000
4.605171 -1.616778 -0.397148 73.000000
4.608638 -1.633895 -0.397946 79.000000
4.609230 -1.650041 -0.398479 94.000000
4.638805 -1.676704 -0.401761 181.000000
4.603698 -1.679999 -0.398922 88.000000
4.597587 -1.693771 -0.398834 63.000000
4.585834 -1.705437 -0.398213 60.000000
4.571256 -1.715997 -0.397325 88.000000
4.557587 -1.726836 -0.396527 97.000000
4.550406 -1.740099 -0.396349 98.000000
4.549693 -1.755845 -0.396793 98.000000
4.546141 -1.770518 -0.396970 96.000000
4.548103 -1.787372 -0.397680 74.000000
4.562042 -1.809029 -0.399543 58.000000
4.585138 -1.834489 -0.402294 31.000000
4.674973 -1.512862 -0.462195 43.000000
4.659907 -1.523799 -0.461081 48.000000
4.642929 -1.534033 -0.459765 55.000000
4.635370 -1.547326 -0.459461 89.000000
4.630600 -1.561540 -0.459461 64.000000
4.628613 -1.576701 -0.459765 69.000000
4.626577 -1.591864 -0.460069 78.000000
4.628250 -1.608335 -0.460777 77.000000
4.627988 -1.624173 -0.461284 84.000000
4.633299 -1.642017 -0.462397 66.000000
4.634797 -1.658569 -0.463106 86.000000
4.649338 -1.679875 -0.465231 229.000000
4.622664 -1.686295 -0.462903 76.000000
4.611866 -1.698407 -0.462296 67.000000
4.601971 -1.710816 -0.461790 57.000000
4.585522 -1.720735 -0.460575 77.000000
4.573709 -1.732330 -0.459866 84.000000
4.570231 -1.747064 -0.460069 66.000000
4.564850 -1.761077 -0.460069 60.000000
4.569624 -1.779041 -0.461182 72.000000
4.570627 -1.795597 -0.461891 62.000000
4.572496 -1.812542 -0.462701 38.000000
4.692811 -1.534274 -0.523679 40.000000
4.653175 -1.537130 -0.519496 84.000000
4.642782 -1.549510 -0.518818 85.000000
4.638948 -1.564064 -0.518931 126.000000
4.636009 -1.578930 -0.519157 90.000000
4.634902 -1.594439 -0.519609 97.000000
4.638434 -1.611586 -0.520627 78.000000
4.639093 -1.627784 -0.521305 72.000000
4.645316 -1.645992 -0.522661 71.000000
4.657083 -1.666262 -0.524696 79.000000
4.674376 -1.688645 -0.527409 164.000000
4.644905 -1.694125 -0.524470 67.000000
4.633159 -1.705963 -0.523679 72.000000
4.619521 -1.717053 -0.522661 85.000000
4.605859 -1.728076 -0.521644 104.000000
4.589386 -1.737975 -0.520288 101.000000
4.584033 -1.752047 -0.520288 106.000000
4.581417 -1.767175 -0.520627 108.000000
4.583381 -1.784106 -0.521531 82.000000
4.583434 -1.800339 -0.522209 111.000000
4.598210 -1.822448 -0.524696 49.000000
4.672538 -1.543808 -0.583492 54.000000
4.660250 -1.555625 -0.582489 69.000000
4.654515 -1.569598 -0.582364 73.000000
4.650617 -1.584190 -0.582489 91.000000
4.652303 -1.600709 -0.583366 82.000000
4.656743 -1.618228 -0.584620 96.000000
4.662054 -1.636119 -0.585998 80.000000
4.660753 -1.651739 -0.586500 67.000000
4.683690 -1.676052 -0.590260 120.000000
4.677592 -1.690076 -0.590134 116.000000
4.654675 -1.697963 -0.587753 77.000000
4.645720 -1.710865 -0.587252 81.000000
4.629289 -1.720964 -0.585748 102.000000
4.616556 -1.732372 -0.584745 92.000000
4.605652 -1.744420 -0.583993 101.000000
4.597497 -1.757479 -0.583617 121.000000
4.607821 -1.777643 -0.585748 74.000000
4.613441 -1.796088 -0.587252 58.000000
4.617144 -1.813859 -0.588505 53.000000
4.744668 -1.565531 -0.654918 25.000000
4.694740 -1.565040 -0.648320 51.000000
4.674898 -1.574377 -0.646121 77.000000
4.679423 -1.591903 -0.647496 77.000000
4.677327 -1.607217 -0.647908 89.000000
4.683603 -1.625457 -0.649558 80.000000
4.689811 -1.643751 -0.651207 94.000000
4.695951 -1.662099 -0.652856 89.000000
4.701089 -1.680165 -0.654368 55.000000
4.703365 -1.697271 -0.655468 52.000000
4.682315 -1.705927 -0.653131 85.000000
4.661256 -1.714470 -0.650795 111.000000
4.655046 -1.728418 -0.650657 68.000000
4.634881 -1.737128 -0.648458 71.000000
4.625825 -1.749937 -0.647908 92.000000
4.616733 -1.762707 -0.647358 103.000000
4.609455 -1.776150 -0.647084 88.000000
4.646449 -1.806800 -0.653406 39.000000
4.727166 -1.562755 -0.712635 53.000000
4.719535 -1.576311 -0.712187 60.000000
4.709055 -1.588888 -0.711292 67.000000
4.697606 -1.601096 -0.710247 97.000000
4.695477 -1.616466 -0.710695 107.000000
4.697034 -1.633135 -0.711739 117.000000
4.698533 -1.649830 -0.712784 81.000000
4.703701 -1.667869 -0.714425 122.000000
4.715321 -1.688288 -0.717110 50.000000
4.736159 -1.712153 -0.721288 31.000000
4.680720 -1.708380 -0.713231 96.000000
4.678240 -1.723757 -0.713679 85.000000
4.659954 -1.733279 -0.711590 111.000000
4.649985 -1.745830 -0.710844 127.000000
4.644608 -1.760088 -0.710844 145.000000
4.645651 -1.776800 -0.711889 109.000000
4.648481 -1.794247 -0.713231 97.000000
4.645719 -1.809576 -0.713679 77.000000
4.747035 -1.567227 -0.777180 41.000000
4.722544 -1.575224 -0.773797 71.000000
4.714883 -1.588760 -0.773314 93.000000
4.709986 -1.603217 -0.773314 100.000000
4.707846 -1.618623 -0.773797 108.000000
4.708451 -1.635001 -0.774764 106.000000
4.712726 -1.652706 -0.776374 94.000000
4.716006 -1.670122 -0.777824 108.000000
4.717365 -1.686910 -0.778952 88.000000
4.716809 -1.703051 -0.779757 111.000000
4.705071 -1.715147 -0.778630 111.000000
4.697009 -1.728551 -0.778146 83.000000
4.686133 -1.740891 -0.777180 109.000000
4.676149 -1.753526 -0.776374 114.000000
4.671670 -1.768214 -0.776536 119.000000
4.667146 -1.782890 -0.776697 112.000000
4.664416 -1.798266 -0.777180 118.000000
4.650600 -1.809346 -0.775730 67.000000
