ply
format ascii 1.0
element vertex 973
property float x
property float y
property float z
property float intensity
end_header
4.244733 -1.329095 0.676447 4.000000
4.255040 -1.580251 0.689601 4.000000
4.265001 -1.598853 0.691888 6.000000
4.254521 -1.609830 0.691031 10.000000
4.247713 -1.622170 0.690745 7.000000
4.246411 -1.636616 0.691317 10.000000
4.247828 -1.652146 0.692317 9.000000
4.252874 -1.669145 0.693890 22.000000
4.259697 -1.686920 0.695749 15.000000
4.237957 -1.693374 0.693175 27.000000
4.251102 -1.713764 0.696035 19.000000
4.234821 -1.722327 0.694319 38.000000
4.234097 -1.737188 0.695034 40.000000
4.231491 -1.751305 0.695463 35.000000
4.226097 -1.764279 0.695463 35.000000
4.225226 -1.779155 0.696178 44.000000
4.220659 -1.792496 0.696321 43.000000
4.213320 -1.804658 0.696035 56.000000
4.213216 -1.819929 0.696893 54.000000
4.208520 -1.833242 0.697035 58.000000
4.204689 -1.846940 0.697321 60.000000
4.200812 -1.860632 0.697607 59.000000
4.195988 -1.873915 0.697750 41.000000
4.191122 -1.887185 0.697893 44.000000
4.186213 -1.900443 0.698036 41.000000
4.207365 -1.925627 0.702326 20.000000
4.392270 -1.099299 0.632593 16.000000
4.397526 -1.114963 0.633772 37.000000
4.387363 -1.126722 0.632855 29.000000
4.402115 -1.144920 0.635345 51.000000
4.392829 -1.156905 0.634558 37.000000
4.400754 -1.173442 0.636131 46.000000
4.393305 -1.185904 0.635607 33.000000
4.397296 -1.201468 0.636655 43.000000
4.392634 -1.214689 0.636524 42.000000
4.388887 -1.228160 0.636524 45.000000
4.387959 -1.242429 0.636917 45.000000
4.385080 -1.256159 0.637048 53.000000
4.382158 -1.269882 0.637179 37.000000
4.378242 -1.283320 0.637179 52.000000
4.376185 -1.297310 0.637441 53.000000
4.375983 -1.311869 0.637965 42.000000
4.370988 -1.325001 0.637834 38.000000
4.365007 -1.337823 0.637572 42.000000
4.359935 -1.350915 0.637441 45.000000
4.353878 -1.363692 0.637179 54.000000
4.353455 -1.378240 0.637703 38.000000
4.344485 -1.390079 0.637048 44.000000
4.339256 -1.403096 0.636917 55.000000
4.335874 -1.416710 0.637048 40.000000
4.332448 -1.430317 0.637179 60.000000
4.328039 -1.443602 0.637179 56.000000
4.320772 -1.455923 0.636786 55.000000
4.316285 -1.469172 0.636786 50.000000
4.312695 -1.482730 0.636917 63.000000
4.309062 -1.496279 0.637048 53.000000
4.307257 -1.510477 0.637441 47.000000
4.302603 -1.523684 0.637441 58.000000
4.298842 -1.537211 0.637572 54.000000
4.295970 -1.551066 0.637834 44.000000
4.290260 -1.563899 0.637703 49.000000
4.289164 -1.578424 0.638228 70.000000
4.285230 -1.591921 0.638359 64.000000
4.281254 -1.605408 0.638490 58.000000
4.277236 -1.618886 0.638621 58.000000
4.272249 -1.632001 0.638621 70.000000
4.267222 -1.645101 0.638621 64.000000
4.261231 -1.657825 0.638490 80.000000
4.257047 -1.671253 0.638621 83.000000
4.253744 -1.685036 0.638883 60.000000
4.251315 -1.699182 0.639276 66.000000
4.249760 -1.713700 0.639800 53.000000
4.245401 -1.727104 0.639931 57.000000
4.240999 -1.740497 0.640062 76.000000
4.236556 -1.753879 0.640193 75.000000
4.233899 -1.768015 0.640586 81.000000
4.231195 -1.782151 0.640979 62.000000
4.230270 -1.797062 0.641635 66.000000
4.226560 -1.810813 0.641897 70.000000
4.223714 -1.824951 0.642290 74.000000
4.219913 -1.838693 0.642552 63.000000
4.215160 -1.852029 0.642683 79.000000
4.212177 -1.866158 0.643076 69.000000
4.205527 -1.878667 0.642945 67.000000
4.198839 -1.891153 0.642814 56.000000
4.193017 -1.904026 0.642814 41.000000
4.185354 -1.916056 0.642552 45.000000
4.394451 -1.098601 0.576831 12.000000
4.423788 -1.120358 0.580874 60.000000
4.422253 -1.134417 0.581112 74.000000
4.418753 -1.147979 0.581112 64.000000
4.415209 -1.161530 0.581112 76.000000
4.412585 -1.175326 0.581231 82.000000
4.408000 -1.188600 0.581112 78.000000
4.404332 -1.202118 0.581112 93.000000
4.398709 -1.215096 0.580874 80.000000
4.394004 -1.228318 0.580755 83.000000
4.389260 -1.241523 0.580637 64.000000
4.387339 -1.255529 0.580874 77.000000
4.385375 -1.269535 0.581112 90.000000
4.381459 -1.282983 0.581112 77.000000
4.379406 -1.296983 0.581350 60.000000
4.374455 -1.310128 0.581231 75.000000
4.371366 -1.323830 0.581350 69.000000
4.369183 -1.337816 0.581588 75.000000
4.365058 -1.351214 0.581588 59.000000
4.362787 -1.365192 0.581826 63.000000
4.358578 -1.378570 0.581826 61.000000
4.356220 -1.392540 0.582064 61.000000
4.352872 -1.406203 0.582183 58.000000
4.348537 -1.419551 0.582183 51.000000
4.344162 -1.432885 0.582183 60.000000
4.339745 -1.446206 0.582183 61.000000
4.334347 -1.459197 0.582064 66.000000
4.329850 -1.472488 0.582064 79.000000
4.326251 -1.486087 0.582183 79.000000
4.322609 -1.499678 0.582301 80.000000
4.318925 -1.513261 0.582420 93.000000
4.315198 -1.526835 0.582539 98.000000
4.311429 -1.540400 0.582658 91.000000
4.305748 -1.553283 0.582539 100.000000
4.307495 -1.568863 0.583372 73.000000
4.297069 -1.580016 0.582658 107.000000
4.296856 -1.594918 0.583253 98.000000
4.293802 -1.608790 0.583491 84.000000
4.286989 -1.621253 0.583253 84.000000
4.280139 -1.633690 0.583015 88.000000
4.276034 -1.647171 0.583134 77.000000
4.269109 -1.659563 0.582896 79.000000
4.266771 -1.673739 0.583253 89.000000
4.263463 -1.687552 0.583491 93.000000
4.259187 -1.700992 0.583610 74.000000
4.256712 -1.715164 0.583966 80.000000
4.254189 -1.729336 0.584323 97.000000
4.253458 -1.744262 0.584918 88.000000
4.251757 -1.758821 0.585393 92.000000
4.250006 -1.773385 0.585869 79.000000
4.248207 -1.787955 0.586345 92.000000
4.243616 -1.801368 0.586464 93.000000
4.238982 -1.814769 0.586583 98.000000
4.234306 -1.828159 0.586702 87.000000
4.228677 -1.841141 0.586702 80.000000
4.224827 -1.854904 0.586939 83.000000
4.221840 -1.869062 0.587296 68.000000
4.217900 -1.882814 0.587534 65.000000
4.215726 -1.897375 0.588010 53.000000
4.211694 -1.911120 0.588248 60.000000
4.208519 -1.925270 0.588604 44.000000
4.438515 -1.124537 0.526236 46.000000
4.433118 -1.137655 0.526022 39.000000
4.434418 -1.152501 0.526556 55.000000
4.432785 -1.166607 0.526770 75.000000
4.426302 -1.179432 0.526449 55.000000
4.422663 -1.193007 0.526449 52.000000
4.416104 -1.205784 0.526129 64.000000
4.409510 -1.218532 0.525809 54.000000
4.405750 -1.232054 0.525809 55.000000
4.400036 -1.245023 0.525595 60.000000
4.395240 -1.258243 0.525488 53.000000
4.392314 -1.271998 0.525595 64.000000
4.391254 -1.286306 0.525915 68.000000
4.387287 -1.299772 0.525915 66.000000
4.385183 -1.313797 0.526129 51.000000
4.382083 -1.327533 0.526236 49.000000
4.381793 -1.342136 0.526663 62.000000
4.380504 -1.356455 0.526983 54.000000
4.379168 -1.370779 0.527304 67.000000
4.372098 -1.383308 0.526983 48.000000
4.368781 -1.397018 0.527090 60.000000
4.363528 -1.410108 0.526983 67.000000
4.356346 -1.422563 0.526663 53.000000
4.354794 -1.436856 0.526983 77.000000
4.357911 -1.452726 0.527837 96.000000
4.349664 -1.464819 0.527410 57.000000
4.347974 -1.479118 0.527731 55.000000
4.344356 -1.492773 0.527837 70.000000
4.339756 -1.506094 0.527837 74.000000
4.334176 -1.519073 0.527731 57.000000
4.331370 -1.533026 0.527944 55.000000
4.327582 -1.546642 0.528051 65.000000
4.327493 -1.561600 0.528585 74.000000
4.320813 -1.574188 0.528371 63.000000
4.318763 -1.588467 0.528692 81.000000
4.313869 -1.601709 0.528692 58.000000
4.308935 -1.614936 0.528692 91.000000
4.303030 -1.627796 0.528585 64.000000
4.300803 -1.642054 0.528905 81.000000
4.295745 -1.655241 0.528905 72.000000
4.293426 -1.669494 0.529226 80.000000
4.289210 -1.683021 0.529332 76.000000
4.284026 -1.696172 0.529332 64.000000
4.281572 -1.710414 0.529653 76.000000
4.278149 -1.724286 0.529866 91.000000
4.273759 -1.737777 0.529973 81.000000
4.272088 -1.752390 0.530400 73.000000
4.270366 -1.767010 0.530827 105.000000
4.266760 -1.780869 0.531041 79.000000
4.263109 -1.794722 0.531255 73.000000
4.257583 -1.807793 0.531255 81.000000
4.253844 -1.821630 0.531468 66.000000
4.249148 -1.835066 0.531575 86.000000
4.249879 -1.850873 0.532322 101.000000
4.246001 -1.864702 0.532536 90.000000
4.245715 -1.880136 0.533177 54.000000
4.242651 -1.894369 0.533497 69.000000
4.241352 -1.909418 0.534031 53.000000
4.236379 -1.922832 0.534138 48.000000
4.225036 -1.933338 0.533497 33.000000
4.248877 -1.960037 0.537021 10.000000
4.459157 -1.130131 0.473568 53.000000
4.453741 -1.143311 0.473378 59.000000
4.449248 -1.156720 0.473283 67.000000
4.443753 -1.169858 0.473093 55.000000
4.437257 -1.182717 0.472808 68.000000
4.432646 -1.196066 0.472713 83.000000
4.428956 -1.209659 0.472713 82.000000
4.425224 -1.223242 0.472713 92.000000
4.424326 -1.237616 0.472998 71.000000
4.421467 -1.251455 0.473093 84.000000
4.415693 -1.264466 0.472903 90.000000
4.412748 -1.278284 0.472998 85.000000
4.402118 -1.289858 0.472333 90.000000
4.396232 -1.302793 0.472143 99.000000
4.387445 -1.314846 0.471668 92.000000
4.381485 -1.327724 0.471478 99.000000
4.379295 -1.341742 0.471668 75.000000
4.376109 -1.355466 0.471763 67.000000
4.373830 -1.369480 0.471953 71.000000
4.373405 -1.384092 0.472333 59.000000
4.368189 -1.397200 0.472238 65.000000
4.363883 -1.410595 0.472238 67.000000
4.359534 -1.423977 0.472238 61.000000
4.352309 -1.436409 0.471953 87.000000
4.348826 -1.450070 0.472048 92.000000
4.347187 -1.464358 0.472333 81.000000
4.344559 -1.478329 0.472523 91.000000
4.345653 -1.493591 0.473093 90.000000
4.344811 -1.508221 0.473473 80.000000
4.343922 -1.522860 0.473853 81.000000
4.342045 -1.537176 0.474138 92.000000
4.343871 -1.552834 0.474803 108.000000
4.333468 -1.564127 0.474233 88.000000
4.331455 -1.578436 0.474518 94.000000
4.326592 -1.591717 0.474518 108.000000
4.320755 -1.604637 0.474423 95.000000
4.314879 -1.617536 0.474328 91.000000
4.312690 -1.631823 0.474613 90.000000
4.309524 -1.645756 0.474803 90.000000
4.303525 -1.658612 0.474708 69.000000
4.300272 -1.672529 0.474898 90.000000
4.296048 -1.686077 0.474992 79.000000
4.291780 -1.699616 0.475087 84.000000
4.289319 -1.713882 0.475372 100.000000
4.284041 -1.727033 0.475372 87.000000
4.280566 -1.740918 0.475562 81.000000
4.277047 -1.754798 0.475752 89.000000
4.273483 -1.768672 0.475942 79.000000
4.269875 -1.782541 0.476132 78.000000
4.267138 -1.796791 0.476417 98.000000
4.262522 -1.810263 0.476512 65.000000
4.258779 -1.824115 0.476702 86.000000
4.254990 -1.837961 0.476892 73.000000
4.252069 -1.852199 0.477177 89.000000
4.248190 -1.866035 0.477367 93.000000
4.246087 -1.880671 0.477747 71.000000
4.242115 -1.894501 0.477937 82.000000
4.245361 -1.911591 0.478887 58.000000
4.236757 -1.923373 0.478602 73.000000
4.238078 -1.939675 0.479361 41.000000
4.423234 -1.106234 0.412133 15.000000
4.470054 -1.132531 0.416421 59.000000
4.466558 -1.146240 0.416421 56.000000
4.462056 -1.159687 0.416338 57.000000
4.457513 -1.173117 0.416256 53.000000
4.452930 -1.186530 0.416173 74.000000
4.447345 -1.199667 0.416008 54.000000
4.443643 -1.213305 0.416008 63.000000
4.439900 -1.226932 0.416008 59.000000
4.436115 -1.240548 0.416008 53.000000
4.432288 -1.254152 0.416008 74.000000
4.430336 -1.268293 0.416173 48.000000
4.425467 -1.281602 0.416091 73.000000
4.421514 -1.295173 0.416091 68.000000
4.416564 -1.308449 0.416008 58.000000
4.409665 -1.321134 0.415761 66.000000
4.405591 -1.334656 0.415761 64.000000
4.401476 -1.348166 0.415761 65.000000
4.396367 -1.361369 0.415678 56.000000
4.393121 -1.375148 0.415761 72.000000
4.389831 -1.388920 0.415843 56.000000
4.386498 -1.402685 0.415926 72.000000
4.383122 -1.416442 0.416008 72.000000
4.377810 -1.429574 0.415926 73.000000
4.374349 -1.443310 0.416008 56.000000
4.372737 -1.457669 0.416256 63.000000
4.370133 -1.471714 0.416421 67.000000
4.366541 -1.485436 0.416503 74.000000
4.362906 -1.499149 0.416586 62.000000
4.357344 -1.512200 0.416503 69.000000
4.352684 -1.525561 0.416503 61.000000
4.348923 -1.539241 0.416586 72.000000
4.341365 -1.551569 0.416338 63.000000
4.336585 -1.564881 0.416338 74.000000
4.332699 -1.578519 0.416421 63.000000
4.328771 -1.592149 0.416503 45.000000
4.326669 -1.606463 0.416750 51.000000
4.325453 -1.621128 0.417080 64.000000
4.325119 -1.636154 0.417493 67.000000
4.327528 -1.652260 0.418152 90.000000
4.322438 -1.665529 0.418152 73.000000
4.318237 -1.679144 0.418235 90.000000
4.313065 -1.692384 0.418235 80.000000
4.306000 -1.704875 0.418070 90.000000
4.302599 -1.718817 0.418235 80.000000
4.300079 -1.733127 0.418482 73.000000
4.297511 -1.747437 0.418730 89.000000
4.296740 -1.762505 0.419142 75.000000
4.294075 -1.776822 0.419389 74.000000
4.289523 -1.790372 0.419472 63.000000
4.287684 -1.805071 0.419801 68.000000
4.283960 -1.818996 0.419966 85.000000
4.277443 -1.831738 0.419884 77.000000
4.269974 -1.844062 0.419719 75.000000
4.261556 -1.855959 0.419472 82.000000
4.255842 -1.869025 0.419472 73.000000
4.252821 -1.883283 0.419719 85.000000
4.249753 -1.897541 0.419966 72.000000
4.249363 -1.913026 0.420461 66.000000
4.246197 -1.927289 0.420709 70.000000
4.242982 -1.941552 0.420956 73.000000
4.239721 -1.955812 0.421203 61.000000
4.226472 -1.965448 0.420544 53.000000
4.203278 -1.970367 0.418977 24.000000
4.430612 -1.110088 0.358465 20.000000
4.461995 -1.132501 0.361007 54.000000
4.457533 -1.145937 0.360937 50.000000
4.453031 -1.159356 0.360866 63.000000
4.449453 -1.173012 0.360866 73.000000
4.447761 -1.187171 0.361007 72.000000
4.445061 -1.201071 0.361078 76.000000
4.444242 -1.215492 0.361290 72.000000
4.443376 -1.229918 0.361502 80.000000
4.442464 -1.244351 0.361713 71.000000
4.441504 -1.258790 0.361925 76.000000
4.437622 -1.272410 0.361925 74.000000
4.434655 -1.286296 0.361996 88.000000
4.426859 -1.298773 0.361713 77.000000
4.421897 -1.312065 0.361643 82.000000
4.415940 -1.325052 0.361502 78.000000
4.409945 -1.338015 0.361360 105.000000
4.410588 -1.353000 0.361713 83.000000
4.407369 -1.366820 0.361784 51.000000
4.405059 -1.380931 0.361925 68.000000
4.400802 -1.394440 0.361925 61.000000
4.396502 -1.407934 0.361925 67.000000
4.394061 -1.422030 0.362067 75.000000
4.388729 -1.435194 0.361996 71.000000
4.387147 -1.449590 0.362208 69.000000
4.386464 -1.464305 0.362490 72.000000
4.384787 -1.478711 0.362702 68.000000
4.382118 -1.492800 0.362844 69.000000
4.377518 -1.506237 0.362844 67.000000
4.371934 -1.519332 0.362773 75.000000
4.367252 -1.532738 0.362773 73.000000
4.359708 -1.545131 0.362561 77.000000
4.352129 -1.557491 0.362349 81.000000
4.348269 -1.571175 0.362420 99.000000
4.341554 -1.583824 0.362279 81.000000
4.335738 -1.596792 0.362208 77.000000
4.334559 -1.611476 0.362490 105.000000
4.330529 -1.625117 0.362561 82.000000
4.331120 -1.640514 0.362985 78.000000
4.331657 -1.655929 0.363409 92.000000
4.329349 -1.670287 0.363620 76.000000
4.327923 -1.685008 0.363903 82.000000
4.323662 -1.698643 0.363974 76.000000
4.318430 -1.711900 0.363974 85.000000
4.312232 -1.724770 0.363903 103.000000
4.309695 -1.739111 0.364115 77.000000
4.303415 -1.751949 0.364044 78.000000
4.300788 -1.766279 0.364256 89.000000
4.294427 -1.779084 0.364185 72.000000
4.285267 -1.790713 0.363903 55.000000
4.287107 -1.806949 0.364468 94.000000
4.282462 -1.820484 0.364539 94.000000
4.276856 -1.833614 0.364539 68.000000
4.271211 -1.846726 0.364539 89.000000
4.264610 -1.859423 0.364468 79.000000
4.258886 -1.872498 0.364468 70.000000
4.254945 -1.886363 0.364609 78.000000
4.253692 -1.901442 0.364962 75.000000
4.252386 -1.916532 0.365315 68.000000
4.255568 -1.933693 0.366022 47.000000
4.253243 -1.948401 0.366304 49.000000
4.474028 -1.148987 0.304029 37.000000
4.472414 -1.163210 0.304145 54.000000
4.472686 -1.177943 0.304378 52.000000
4.467122 -1.191145 0.304262 45.000000
4.467302 -1.205885 0.304494 60.000000
4.465507 -1.220112 0.304610 50.000000
4.461742 -1.233806 0.304610 39.000000
4.460821 -1.248296 0.304784 60.000000
4.456970 -1.261975 0.304784 54.000000
4.450198 -1.274818 0.304610 56.000000
4.447225 -1.288743 0.304668 52.000000
4.442292 -1.302100 0.304610 67.000000
4.440190 -1.316290 0.304726 56.000000
4.436131 -1.329907 0.304726 71.000000
4.431075 -1.343220 0.304668 66.000000
4.430751 -1.357979 0.304901 75.000000
4.428471 -1.372157 0.305017 63.000000
4.426146 -1.386334 0.305133 50.000000
4.423775 -1.400509 0.305249 79.000000
4.417556 -1.413466 0.305133 49.000000
4.416998 -1.428241 0.305365 71.000000
4.416391 -1.443026 0.305598 62.000000
4.411943 -1.456569 0.305598 66.000000
4.403666 -1.468834 0.305365 54.000000
4.401031 -1.482975 0.305481 72.000000
4.393626 -1.495505 0.305307 94.000000
4.385241 -1.507679 0.305075 60.000000
4.380594 -1.521125 0.305075 70.000000
4.376849 -1.534888 0.305133 74.000000
4.374002 -1.548975 0.305249 78.000000
4.370169 -1.562724 0.305307 73.000000
4.369110 -1.577480 0.305540 62.000000
4.368001 -1.592245 0.305772 60.000000
4.364033 -1.605983 0.305830 70.000000
4.361892 -1.620407 0.306004 70.000000
4.359705 -1.634834 0.306178 75.000000
4.354669 -1.648201 0.306178 74.000000
4.352389 -1.662622 0.306353 73.000000
4.345405 -1.675249 0.306237 75.000000
4.341176 -1.688935 0.306295 80.000000
4.336902 -1.702610 0.306353 82.000000
4.334443 -1.717011 0.306527 69.000000
4.329154 -1.730301 0.306527 84.000000
4.325677 -1.744321 0.306643 90.000000
4.321230 -1.757960 0.306701 86.000000
4.319510 -1.772726 0.306934 88.000000
4.313129 -1.785587 0.306875 96.000000
4.307631 -1.798812 0.306875 91.000000
4.301172 -1.811631 0.306817 81.000000
4.295594 -1.824818 0.306817 72.000000
4.289057 -1.837595 0.306759 89.000000
4.283400 -1.850745 0.306759 78.000000
4.280447 -1.865075 0.306934 73.000000
4.277447 -1.879403 0.307108 93.000000
4.276224 -1.894539 0.307398 83.000000
4.278595 -1.911315 0.307921 86.000000
4.277262 -1.926483 0.308212 70.000000
4.277694 -1.942486 0.308618 63.000000
4.274437 -1.956848 0.308792 52.000000
4.235783 -1.954889 0.306701 18.000000
4.478205 -1.152076 0.249470 30.000000
4.483350 -1.168074 0.249886 46.000000
4.478779 -1.181569 0.249840 56.000000
4.475133 -1.195304 0.249840 52.000000
4.474338 -1.209809 0.249978 50.000000
4.469642 -1.223267 0.249932 61.000000
4.465868 -1.236974 0.249932 62.000000
4.461090 -1.250400 0.249886 67.000000
4.459155 -1.264625 0.249978 85.000000
4.457175 -1.278850 0.250071 57.000000
4.453230 -1.292518 0.250071 85.000000
4.451161 -1.306737 0.250163 82.000000
4.450004 -1.321239 0.250302 87.000000
4.447843 -1.335459 0.250395 76.000000
4.446593 -1.349969 0.250533 91.000000
4.445295 -1.364483 0.250672 87.000000
4.441088 -1.378114 0.250672 69.000000
4.439699 -1.392629 0.250811 99.000000
4.435406 -1.406244 0.250811 89.000000
4.431070 -1.419845 0.250811 79.000000
4.426693 -1.433432 0.250811 60.000000
4.422275 -1.447006 0.250811 115.000000
4.414969 -1.459627 0.250672 49.000000
4.409523 -1.472849 0.250626 80.000000
4.402143 -1.485413 0.250487 64.000000
4.398511 -1.499233 0.250533 64.000000
4.393891 -1.512721 0.250533 74.000000
4.389229 -1.526194 0.250533 82.000000
4.387354 -1.540645 0.250672 80.000000
4.384490 -1.554765 0.250764 58.000000
4.379700 -1.568209 0.250764 74.000000
4.376747 -1.582317 0.250857 81.000000
4.370933 -1.595395 0.250811 91.000000
4.368830 -1.609833 0.250949 83.000000
4.366680 -1.624273 0.251088 83.000000
4.361676 -1.637662 0.251088 82.000000
4.360368 -1.652451 0.251273 87.000000
4.359010 -1.667247 0.251458 74.000000
4.353875 -1.680612 0.251458 75.000000
4.354283 -1.696136 0.251735 59.000000
4.347200 -1.708756 0.251643 81.000000
4.341937 -1.722085 0.251643 99.000000
4.336633 -1.735398 0.251643 81.000000
4.329436 -1.747947 0.251550 77.000000
4.325903 -1.761975 0.251643 89.000000
4.324173 -1.776756 0.251828 70.000000
4.319625 -1.790396 0.251874 73.000000
4.316877 -1.804795 0.252013 73.000000
4.312241 -1.818419 0.252059 63.000000
4.308480 -1.832421 0.252151 70.000000
4.304674 -1.846418 0.252244 81.000000
4.299906 -1.860012 0.252290 78.000000
4.291432 -1.871998 0.252151 66.000000
4.287498 -1.885959 0.252244 73.000000
4.283518 -1.899914 0.252336 50.000000
4.280405 -1.914269 0.252475 76.000000
4.278155 -1.929034 0.252660 66.000000
4.274036 -1.942976 0.252752 48.000000
4.272596 -1.958159 0.252984 42.000000
4.223943 -1.951577 0.250811 11.000000
4.549469 -1.169211 0.194754 20.000000
4.507174 -1.173091 0.193400 46.000000
4.500654 -1.186149 0.193298 44.000000
4.495062 -1.199435 0.193230 58.000000
4.488467 -1.212438 0.193129 68.000000
4.484726 -1.226203 0.193129 51.000000
4.481906 -1.240223 0.193163 63.000000
4.477118 -1.253698 0.193129 56.000000
4.479020 -1.269063 0.193332 59.000000
4.477026 -1.283349 0.193400 68.000000
4.476908 -1.298192 0.193535 55.000000
4.475781 -1.312765 0.193636 57.000000
4.474607 -1.327343 0.193738 55.000000
4.473385 -1.341926 0.193840 65.000000
4.468291 -1.355354 0.193806 62.000000
4.462201 -1.368470 0.193738 63.000000
4.455118 -1.381265 0.193636 66.000000
4.443230 -1.392535 0.193366 68.000000
4.437984 -1.405858 0.193332 70.000000
4.433650 -1.419467 0.193332 52.000000
4.429274 -1.433063 0.193332 75.000000
4.427707 -1.447577 0.193433 75.000000
4.423244 -1.461154 0.193433 77.000000
4.419689 -1.475034 0.193467 84.000000
4.417037 -1.489225 0.193535 74.000000
4.413393 -1.503092 0.193569 68.000000
4.410651 -1.517275 0.193636 65.000000
4.407864 -1.531456 0.193704 63.000000
4.401258 -1.544310 0.193636 70.000000
4.398384 -1.558473 0.193704 84.000000
4.391700 -1.571286 0.193636 89.000000
4.385919 -1.584413 0.193603 70.000000
4.381976 -1.598204 0.193636 67.000000
4.378928 -1.612331 0.193704 79.000000
4.381455 -1.628544 0.193975 61.000000
4.381116 -1.643734 0.194144 66.000000
4.374184 -1.656459 0.194077 73.000000
4.372815 -1.671299 0.194212 76.000000
4.366735 -1.684347 0.194178 68.000000
4.363409 -1.698461 0.194246 67.000000
4.362829 -1.713667 0.194415 71.000000
4.359409 -1.727781 0.194483 64.000000
4.360583 -1.743745 0.194720 60.000000
4.353360 -1.756367 0.194652 81.000000
4.355356 -1.772730 0.194923 63.000000
4.342501 -1.783046 0.194652 80.000000
4.337010 -1.796360 0.194652 98.000000
4.331479 -1.809657 0.194652 107.000000
4.329590 -1.824490 0.194787 89.000000
4.327651 -1.839329 0.194923 76.000000
4.324744 -1.853779 0.195024 85.000000
4.322705 -1.868625 0.195160 64.000000
4.316952 -1.881878 0.195160 93.000000
4.312073 -1.895515 0.195194 92.000000
4.306238 -1.908736 0.195194 74.000000
4.300361 -1.921938 0.195194 83.000000
4.295356 -1.935533 0.195228 82.000000
4.287578 -1.947875 0.195160 55.000000
4.281581 -1.961020 0.195160 60.000000
4.272823 -1.972889 0.195058 24.000000
4.459095 -1.145511 0.135492 10.000000
4.519423 -1.175784 0.136920 51.000000
4.514828 -1.189389 0.136899 52.000000
4.509226 -1.202720 0.136855 59.000000
4.500688 -1.215247 0.136747 72.000000
4.495009 -1.228522 0.136704 70.000000
4.489292 -1.241775 0.136661 70.000000
4.483536 -1.255003 0.136617 61.000000
4.480627 -1.269025 0.136639 57.000000
4.476712 -1.282765 0.136639 80.000000
4.475636 -1.297328 0.136704 64.000000
4.476432 -1.312458 0.136812 71.000000
4.476219 -1.327321 0.136899 90.000000
4.474041 -1.341622 0.136942 79.000000
4.469904 -1.355342 0.136942 98.000000
4.463813 -1.368463 0.136899 65.000000
4.455774 -1.380968 0.136812 63.000000
4.446745 -1.393139 0.136704 72.000000
4.443404 -1.407076 0.136725 66.000000
4.439066 -1.420702 0.136725 78.000000
4.441345 -1.436466 0.136877 72.000000
4.440719 -1.451326 0.136964 70.000000
4.439094 -1.465883 0.137028 58.000000
4.436472 -1.480128 0.137072 74.000000
4.431911 -1.493731 0.137072 66.000000
4.425414 -1.506678 0.137028 51.000000
4.420771 -1.520247 0.137028 71.000000
4.415142 -1.533475 0.137007 50.000000
4.408529 -1.546352 0.136964 56.000000
4.407534 -1.561204 0.137050 72.000000
4.401783 -1.574383 0.137028 58.000000
4.397872 -1.588219 0.137050 56.000000
4.397676 -1.603415 0.137158 72.000000
4.389921 -1.615864 0.137093 59.000000
4.391503 -1.631760 0.137245 60.000000
4.388349 -1.645928 0.137288 61.000000
4.384213 -1.659737 0.137310 87.000000
4.380035 -1.673536 0.137331 60.000000
4.373014 -1.686247 0.137288 44.000000
4.371548 -1.701105 0.137375 64.000000
4.367239 -1.714874 0.137396 61.000000
4.362887 -1.728632 0.137418 59.000000
4.361277 -1.743492 0.137505 60.000000
4.357761 -1.757612 0.137548 59.000000
4.354201 -1.771726 0.137591 63.000000
4.347820 -1.784697 0.137569 72.000000
4.345095 -1.799174 0.137634 67.000000
4.342323 -1.813652 0.137699 66.000000
4.342267 -1.829293 0.137829 63.000000
4.335714 -1.842215 0.137807 69.000000
4.329123 -1.855115 0.137786 71.000000
4.326165 -1.869577 0.137851 79.000000
4.319492 -1.882441 0.137829 56.000000
4.313696 -1.895684 0.137829 69.000000
4.308774 -1.909315 0.137851 61.000000
4.302896 -1.922525 0.137851 60.000000
4.297889 -1.936127 0.137872 56.000000
4.296481 -1.951370 0.137981 49.000000
4.285929 -1.962462 0.137872 53.000000
4.302584 -1.986072 0.138413 17.000000
4.512256 -1.175252 0.079167 14.000000
4.516364 -1.191131 0.079241 42.000000
4.514621 -1.205497 0.079260 50.000000
4.508005 -1.218559 0.079232 49.000000
4.500387 -1.231328 0.079195 47.000000
4.493698 -1.244328 0.079167 36.000000
4.483119 -1.256220 0.079102 46.000000
4.484054 -1.271332 0.079149 39.000000
4.494550 -1.289220 0.079287 28.000000
4.788002 -1.517685 0.082497 15.000000
4.672861 -1.496971 0.081424 39.000000
4.653976 -1.506679 0.081285 72.000000
4.665488 -1.526237 0.081443 84.000000
4.661733 -1.540857 0.081452 93.000000
4.675004 -1.561171 0.081628 106.000000
4.639874 -1.565276 0.081332 77.000000
4.644515 -1.582729 0.081424 87.000000
4.652874 -1.601528 0.081554 107.000000
4.647939 -1.615796 0.081554 106.000000
4.640129 -1.629054 0.081526 96.000000
4.636994 -1.643950 0.081544 101.000000
4.638519 -1.660528 0.081609 109.000000
4.622118 -1.670671 0.081498 93.000000
4.605699 -1.680730 0.081387 70.000000
4.608965 -1.697964 0.081470 83.000000
4.609357 -1.714187 0.081526 75.000000
4.623736 -1.735702 0.081720 95.000000
4.633349 -1.755549 0.081868 122.000000
4.626074 -1.769042 0.081850 93.000000
4.602901 -1.776384 0.081674 87.000000
4.588111 -1.786867 0.081581 75.000000
4.574232 -1.797643 0.081498 68.000000
4.649563 -1.843742 0.082303 14.000000
4.734254 -1.499099 0.019765 39.000000
4.709630 -1.507220 0.019834 51.000000
4.702129 -1.520739 0.019844 49.000000
4.686985 -1.531743 0.019881 75.000000
4.678465 -1.544862 0.019894 78.000000
4.669909 -1.557943 0.019907 70.000000
4.657526 -1.569710 0.019934 115.000000
4.650795 -1.583348 0.019940 85.000000
4.644969 -1.597284 0.019944 82.000000
4.639102 -1.611199 0.019947 83.000000
4.632250 -1.624762 0.019954 91.000000
4.625358 -1.638299 0.019960 67.000000
4.622193 -1.653155 0.019954 93.000000
4.619922 -1.668346 0.019944 77.000000
4.618540 -1.683881 0.019930 90.000000
4.616168 -1.699078 0.019920 66.000000
4.621245 -1.717061 0.019884 81.000000
4.620637 -1.732986 0.019867 107.000000
4.619976 -1.748922 0.019851 109.000000
4.620193 -1.765228 0.019831 83.000000
4.619422 -1.781192 0.019814 81.000000
4.622324 -1.798618 0.019784 69.000000
4.619577 -1.813886 0.019775 66.000000
4.597254 -1.821424 0.019834 16.000000
4.748109 -1.503219 -0.041810 42.000000
4.723477 -1.511379 -0.041480 48.000000
4.708354 -1.522478 -0.041307 75.000000
4.695107 -1.534120 -0.041166 74.000000
4.676136 -1.543814 -0.040930 79.000000
4.661893 -1.554989 -0.040773 71.000000
4.645730 -1.565452 -0.040585 100.000000
4.634281 -1.577441 -0.040475 80.000000
4.624691 -1.590026 -0.040396 109.000000
4.619791 -1.604207 -0.040396 101.000000
4.615792 -1.618703 -0.040412 102.000000
4.612689 -1.633525 -0.040443 94.000000
4.609538 -1.648342 -0.040475 89.000000
4.606340 -1.663155 -0.040506 97.000000
4.605913 -1.678992 -0.040585 100.000000
4.600740 -1.693115 -0.040585 81.000000
4.601148 -1.709311 -0.040679 95.000000
4.600563 -1.725175 -0.040757 97.000000
4.598989 -1.740698 -0.040820 116.000000
4.607637 -1.760152 -0.041056 70.000000
4.619008 -1.780755 -0.041339 58.000000
4.616318 -1.796006 -0.041386 75.000000
4.616371 -1.812353 -0.041480 49.000000
4.622873 -1.831295 -0.041684 39.000000
4.704824 -1.489787 -0.100369 48.000000
4.693566 -1.502083 -0.100175 57.000000
4.683229 -1.514632 -0.100009 63.000000
4.670008 -1.526200 -0.099759 54.000000
4.655811 -1.537388 -0.099481 60.000000
4.643486 -1.549135 -0.099259 72.000000
4.633028 -1.561460 -0.099093 71.000000
4.626323 -1.575023 -0.099037 65.000000
4.621469 -1.589209 -0.099037 58.000000
4.609961 -1.601086 -0.098843 65.000000
4.604084 -1.614891 -0.098815 77.000000
4.597223 -1.628341 -0.098760 75.000000
4.591264 -1.642101 -0.098732 78.000000
4.589966 -1.657536 -0.098843 73.000000
4.587677 -1.672637 -0.098926 74.000000
4.587214 -1.688429 -0.099065 77.000000
4.590446 -1.705626 -0.099315 71.000000
4.591744 -1.722157 -0.099509 66.000000
4.598594 -1.740834 -0.099870 57.000000
4.609107 -1.760995 -0.100341 44.000000
4.614876 -1.779440 -0.100674 48.000000
4.616848 -1.796489 -0.100896 61.000000
4.620620 -1.814296 -0.101174 51.000000
4.624326 -1.832143 -0.101451 57.000000
4.716425 -1.509121 -0.162940 32.000000
4.678499 -1.512822 -0.161530 65.000000
4.668137 -1.525306 -0.161288 51.000000
4.652998 -1.536173 -0.160844 83.000000
4.641629 -1.548228 -0.160562 81.000000
4.628336 -1.559589 -0.160200 72.000000
4.617854 -1.571849 -0.159958 79.000000
4.607340 -1.584059 -0.159716 75.000000
4.598684 -1.596875 -0.159555 74.000000
4.591877 -1.610315 -0.159474 72.000000
4.585973 -1.624061 -0.159434 68.000000
4.582851 -1.638796 -0.159514 62.000000
4.582500 -1.654545 -0.159716 68.000000
4.583035 -1.670650 -0.159958 76.000000
4.581639 -1.686084 -0.160119 63.000000
4.583937 -1.702916 -0.160441 81.000000
4.585240 -1.719428 -0.160724 87.000000
4.585550 -1.735610 -0.160965 76.000000
4.588604 -1.752880 -0.161328 72.000000
4.592527 -1.770544 -0.161731 61.000000
4.590799 -1.786075 -0.161892 68.000000
4.599248 -1.805629 -0.162497 51.000000
4.690163 -1.486944 -0.220852 37.000000
4.674166 -1.497673 -0.220224 56.000000
4.666699 -1.511083 -0.220067 75.000000
4.655396 -1.523221 -0.219701 87.000000
4.649753 -1.537183 -0.219648 60.000000
4.638385 -1.549228 -0.219282 62.000000
4.626986 -1.561218 -0.218916 62.000000
4.614612 -1.572831 -0.218497 60.000000
4.603155 -1.584707 -0.218131 56.000000
4.596384 -1.598166 -0.218026 114.000000
4.591459 -1.612260 -0.218026 96.000000
4.586491 -1.626339 -0.218026 72.000000
4.583361 -1.641075 -0.218131 74.000000
4.578304 -1.655129 -0.218131 72.000000
4.576958 -1.670536 -0.218340 95.000000
4.571811 -1.684570 -0.218340 87.000000
4.569430 -1.699632 -0.218497 73.000000
4.572609 -1.716800 -0.218968 56.000000
4.573858 -1.733296 -0.219334 63.000000
4.583444 -1.753025 -0.220172 65.000000
4.582702 -1.768875 -0.220433 73.000000
4.587491 -1.786911 -0.221009 60.000000
4.610801 -1.812294 -0.222631 35.000000
4.609861 -1.828272 -0.222893 25.000000
4.675034 -1.480078 -0.280765 53.000000
4.665719 -1.492893 -0.280441 61.000000
4.656370 -1.505664 -0.280118 77.000000
4.645089 -1.517773 -0.279665 81.000000
4.634725 -1.530139 -0.279277 80.000000
4.624329 -1.542456 -0.278888 88.000000
4.616738 -1.555680 -0.278694 80.000000
4.608165 -1.568550 -0.278435 90.000000
4.601444 -1.582031 -0.278306 78.000000
4.595626 -1.595813 -0.278241 69.000000
4.590708 -1.609905 -0.278241 73.000000
4.586689 -1.624315 -0.278306 85.000000
4.581683 -1.638379 -0.278306 89.000000
4.579451 -1.653444 -0.278500 80.000000
4.578107 -1.668853 -0.278759 91.000000
4.574839 -1.683580 -0.278888 89.000000
4.569652 -1.697608 -0.278888 133.000000
4.566290 -1.712320 -0.279018 125.000000
4.565682 -1.728088 -0.279341 106.000000
4.584596 -1.751348 -0.281024 62.000000
4.579201 -1.765405 -0.281024 79.000000
4.586782 -1.784512 -0.281930 71.000000
4.579428 -1.797846 -0.281800 76.000000
4.604506 -1.824018 -0.283935 40.000000
4.698793 -1.473830 -0.340666 22.000000
4.691398 -1.487335 -0.340436 33.000000
4.675417 -1.498073 -0.339518 40.000000
4.644238 -1.503816 -0.337374 60.000000
4.629177 -1.514649 -0.336533 78.000000
4.623562 -1.528531 -0.336456 68.000000
4.616959 -1.542078 -0.336303 63.000000
4.609372 -1.555280 -0.336073 58.000000
4.608354 -1.570699 -0.336379 54.000000
4.606342 -1.585803 -0.336609 45.000000
4.602396 -1.600255 -0.336686 60.000000
4.605933 -1.617339 -0.337374 66.000000
4.614107 -1.636124 -0.338446 113.000000
4.597800 -1.646241 -0.337528 43.000000
4.594603 -1.661017 -0.337681 65.000000
4.615714 -1.684671 -0.339824 157.000000
4.576840 -1.686422 -0.337068 83.000000
4.569775 -1.699760 -0.336915 69.000000
4.564539 -1.713772 -0.336915 72.000000
4.562989 -1.729180 -0.337221 73.000000
4.570702 -1.748155 -0.338293 55.000000
4.576480 -1.766475 -0.339212 56.000000
4.582189 -1.784847 -0.340130 53.000000
4.582260 -1.801084 -0.340589 50.000000
4.596178 -1.822848 -0.342197 27.000000
4.658295 -1.476560 -0.397680 32.000000
4.651846 -1.490237 -0.397503 60.000000
4.640619 -1.502354 -0.396882 68.000000
4.632202 -1.515345 -0.396527 91.000000
4.625639 -1.528924 -0.396349 70.000000
4.619037 -1.542476 -0.396172 84.000000
4.614283 -1.556640 -0.396172 86.000000
4.612314 -1.571753 -0.396438 79.000000
4.615005 -1.588490 -0.397148 74.000000
4.616695 -1.604931 -0.397769 54.000000
4.619268 -1.621728 -0.398479 84.000000
4.627414 -1.640553 -0.399721 81.000000
4.643927 -1.662465 -0.401761 135.000000
4.621007 -1.670270 -0.400076 79.000000
4.610247 -1.682390 -0.399543 60.000000
4.596653 -1.693426 -0.398745 54.000000
4.577432 -1.702312 -0.397414 82.000000
4.566593 -1.714246 -0.396882 97.000000
4.558518 -1.727189 -0.396616 75.000000
4.555989 -1.742234 -0.396882 85.000000
4.553410 -1.757280 -0.397148 92.000000
4.550781 -1.772325 -0.397414 82.000000
4.559227 -1.791745 -0.398745 61.000000
4.611114 -1.828492 -0.404246 20.000000
4.666327 -1.494268 -0.460777 29.000000
4.664560 -1.509495 -0.461081 49.000000
4.657071 -1.522872 -0.460777 75.000000
4.648597 -1.535905 -0.460372 79.000000
4.638201 -1.548270 -0.459765 65.000000
4.633429 -1.562493 -0.459765 50.000000
4.626730 -1.576060 -0.459563 66.000000
4.626577 -1.591864 -0.460069 63.000000
4.626370 -1.607682 -0.460575 64.000000
4.628927 -1.624502 -0.461385 70.000000
4.633299 -1.642017 -0.462397 78.000000
4.681636 -1.675317 -0.468167 228.000000
4.629687 -1.672780 -0.463106 67.000000
4.621729 -1.685954 -0.462802 71.000000
4.615601 -1.699782 -0.462701 61.000000
4.601039 -1.710470 -0.461688 70.000000
4.591112 -1.722831 -0.461182 79.000000
4.582083 -1.735499 -0.460777 96.000000
4.579525 -1.750614 -0.461081 73.000000
4.575989 -1.765371 -0.461284 70.000000
4.573333 -1.780484 -0.461587 66.000000
4.589148 -1.802868 -0.463916 29.000000
4.686152 -1.516198 -0.522322 51.000000
4.679590 -1.529950 -0.522096 56.000000
4.656005 -1.538065 -0.519836 104.000000
4.655035 -1.553601 -0.520288 95.000000
4.650246 -1.567875 -0.520288 94.000000
4.648236 -1.583095 -0.520627 72.000000
4.648994 -1.599288 -0.521305 86.000000
4.649697 -1.615500 -0.521983 78.000000
4.653156 -1.632719 -0.523000 63.000000
4.656554 -1.649975 -0.524018 60.000000
4.699180 -1.681327 -0.529782 198.000000
4.650080 -1.679866 -0.524470 76.000000
4.642104 -1.693103 -0.524131 92.000000
4.632226 -1.705620 -0.523566 108.000000
4.619521 -1.717053 -0.522661 108.000000
4.608650 -1.729123 -0.521983 97.000000
4.599607 -1.741846 -0.521531 97.000000
4.592385 -1.755240 -0.521305 112.000000
4.591613 -1.771109 -0.521870 79.000000
4.585232 -1.784827 -0.521757 108.000000
4.603779 -1.808333 -0.524696 54.000000
4.687625 -1.532855 -0.584870 31.000000
4.660290 -1.539765 -0.581862 71.000000
4.656486 -1.554369 -0.581988 92.000000
4.654515 -1.569598 -0.582364 83.000000
4.658131 -1.586748 -0.583492 92.000000
4.660747 -1.603612 -0.584494 92.000000
4.665177 -1.621157 -0.585748 75.000000
4.672352 -1.639730 -0.587377 77.000000
4.676652 -1.657369 -0.588630 92.000000
4.708913 -1.685071 -0.593644 149.000000
4.660796 -1.684012 -0.587878 92.000000
4.648150 -1.695585 -0.586876 78.000000
4.635478 -1.707096 -0.585873 91.000000
4.624639 -1.719236 -0.585121 86.000000
4.616556 -1.732372 -0.584745 100.000000
4.607508 -1.745122 -0.584244 115.000000
4.599351 -1.758187 -0.583868 112.000000
4.616152 -1.780855 -0.586876 58.000000
4.605120 -1.792850 -0.586124 66.000000
4.722094 -1.558080 -0.651619 65.000000
4.708835 -1.569740 -0.650382 66.000000
4.692733 -1.580385 -0.648733 83.000000
4.685049 -1.593817 -0.648320 107.000000
4.685758 -1.610115 -0.649145 79.000000
4.685474 -1.626107 -0.649832 95.000000
4.687006 -1.642768 -0.650795 87.000000
4.692215 -1.660776 -0.652306 61.000000
4.690829 -1.676498 -0.652856 57.000000
4.681005 -1.689200 -0.652169 64.000000
4.668355 -1.700840 -0.651069 95.000000
4.662186 -1.714812 -0.650932 69.000000
4.648546 -1.726004 -0.649695 71.000000
4.642302 -1.739909 -0.649558 86.000000
4.636942 -1.754143 -0.649558 106.000000
4.630613 -1.768008 -0.649420 83.000000
4.659364 -1.795386 -0.654505 41.000000
4.757314 -1.556541 -0.716663 24.000000
4.725288 -1.562135 -0.712336 54.000000
4.719535 -1.576311 -0.712187 56.000000
4.711866 -1.589836 -0.711739 75.000000
4.706030 -1.603965 -0.711590 99.000000
4.702022 -1.618717 -0.711739 106.000000
4.711045 -1.638003 -0.713977 65.000000
4.711596 -1.654413 -0.714872 97.000000
4.718614 -1.673153 -0.716812 63.000000
4.703609 -1.700395 -0.716066 64.000000
4.682578 -1.709057 -0.713530 99.000000
4.672673 -1.721707 -0.712784 88.000000
4.663661 -1.734657 -0.712187 100.000000
4.654614 -1.747567 -0.711590 141.000000
4.653855 -1.763590 -0.712336 114.000000
4.655811 -1.780684 -0.713530 91.000000
4.653094 -1.796026 -0.713977 73.000000
4.669677 -1.818902 -0.717558 25.000000
4.817488 -1.574119 -0.788456 29.000000
4.752657 -1.569084 -0.778146 60.000000
4.728161 -1.577098 -0.774764 83.000000
4.720495 -1.590651 -0.774280 76.000000
4.714658 -1.604808 -0.774119 96.000000
4.711579 -1.619907 -0.774441 104.000000
4.710316 -1.635649 -0.775086 88.000000
4.710864 -1.652053 -0.776052 79.000000
4.712285 -1.668804 -0.777180 85.000000
4.721083 -1.688239 -0.779596 131.000000
4.710311 -1.700704 -0.778630 115.000000
4.696726 -1.712104 -0.777180 93.000000
4.688673 -1.725483 -0.776697 110.000000
4.680582 -1.738828 -0.776213 121.000000
4.677073 -1.753873 -0.776536 113.000000
4.674439 -1.769262 -0.777019 116.000000
4.672677 -1.785004 -0.777663 115.000000
4.670862 -1.800751 -0.778308 96.000000
