ply
format ascii 1.0
element vertex 884
property float x
property float y
property float z
property float intensity
end_header
4.589023 -1.207209 0.602637 7.000000
4.589199 -1.237410 0.603589 11.000000
4.601620 -1.271092 0.606086 13.000000
4.591004 -1.283334 0.605254 14.000000
4.587046 -1.297413 0.605254 20.000000
4.586862 -1.312571 0.605729 23.000000
4.576137 -1.324707 0.604897 21.000000
4.574910 -1.339576 0.605254 26.000000
4.569827 -1.353323 0.605135 44.000000
4.561849 -1.366199 0.604659 28.000000
4.560486 -1.381050 0.605016 31.000000
4.566672 -1.398230 0.606324 20.000000
4.566155 -1.413408 0.606800 37.000000
4.564641 -1.428298 0.607157 31.000000
4.561184 -1.442595 0.607275 35.000000
4.556737 -1.456582 0.607275 48.000000
4.554136 -1.471165 0.607513 39.000000
4.546770 -1.484206 0.607157 33.000000
4.539366 -1.497216 0.606800 43.000000
4.530982 -1.509881 0.606324 45.000000
4.525388 -1.523458 0.606205 48.000000
4.519753 -1.537015 0.606086 59.000000
4.511260 -1.549585 0.605611 73.000000
4.506484 -1.563418 0.605611 80.000000
4.505415 -1.578549 0.606086 63.000000
4.501487 -1.592695 0.606205 64.000000
4.499384 -1.607499 0.606562 76.000000
4.496300 -1.621969 0.606800 70.000000
4.493169 -1.636435 0.607038 78.000000
4.491855 -1.651582 0.607513 64.000000
4.486767 -1.665355 0.607513 61.000000
4.483496 -1.679808 0.607751 67.000000
4.473678 -1.691801 0.607157 64.000000
4.468466 -1.705518 0.607157 66.000000
4.463213 -1.719219 0.607157 69.000000
4.459768 -1.733623 0.607394 56.000000
4.459051 -1.749109 0.607989 50.000000
4.458280 -1.764607 0.608584 63.000000
4.457456 -1.780116 0.609178 65.000000
4.459342 -1.796750 0.610130 58.000000
4.452889 -1.810049 0.610011 66.000000
4.448234 -1.824078 0.610130 60.000000
4.444452 -1.838475 0.610367 65.000000
4.441540 -1.853248 0.610724 76.000000
4.437664 -1.867636 0.610962 64.000000
4.435569 -1.882793 0.611438 72.000000
4.429772 -1.896392 0.611438 69.000000
4.425756 -1.910760 0.611676 63.000000
4.425336 -1.926706 0.612389 47.000000
4.412130 -1.937082 0.611438 36.000000
4.405259 -1.950207 0.611319 58.000000
4.400162 -1.964118 0.611438 54.000000
4.385965 -1.973943 0.610367 31.000000
4.615856 -1.169484 0.545884 15.000000
4.583354 -1.176223 0.542681 43.000000
4.593196 -1.193781 0.544175 32.000000
4.576051 -1.204324 0.542681 53.000000
4.573295 -1.218613 0.542787 34.000000
4.569535 -1.232638 0.542787 43.000000
4.568609 -1.247437 0.543108 39.000000
4.566678 -1.261978 0.543321 50.000000
4.568529 -1.277589 0.543962 49.000000
4.565545 -1.291870 0.544069 51.000000
4.564427 -1.306692 0.544389 52.000000
4.561352 -1.320966 0.544496 45.000000
4.556324 -1.334674 0.544389 45.000000
4.547441 -1.347234 0.543855 42.000000
4.542334 -1.360894 0.543748 37.000000
4.537186 -1.374535 0.543642 52.000000
4.532948 -1.388448 0.543642 58.000000
4.535315 -1.404408 0.544389 58.000000
4.535729 -1.419801 0.544923 52.000000
4.535144 -1.434910 0.545350 47.000000
4.534508 -1.450028 0.545777 52.000000
4.530038 -1.463933 0.545777 47.000000
4.530252 -1.479368 0.546311 43.000000
4.521915 -1.492013 0.545884 58.000000
4.512600 -1.504306 0.545350 49.000000
4.510790 -1.519096 0.545670 59.000000
4.506108 -1.532928 0.545670 47.000000
4.503265 -1.547391 0.545884 57.000000
4.497558 -1.560874 0.545777 70.000000
4.497439 -1.576310 0.546311 61.000000
4.498205 -1.592091 0.546952 45.000000
4.492363 -1.605549 0.546845 63.000000
4.488351 -1.619661 0.546952 46.000000
4.486164 -1.634445 0.547272 45.000000
4.480195 -1.647858 0.547165 56.000000
4.476051 -1.661941 0.547272 58.000000
4.472793 -1.676364 0.547486 53.000000
4.464839 -1.689022 0.547165 58.000000
4.457778 -1.702003 0.546952 62.000000
4.452536 -1.715671 0.546952 59.000000
4.447251 -1.729323 0.546952 65.000000
4.442851 -1.743322 0.547059 74.000000
4.442103 -1.758775 0.547593 66.000000
4.442226 -1.774609 0.548233 56.000000
4.437683 -1.788601 0.548340 67.000000
4.434938 -1.803331 0.548660 59.000000
4.429385 -1.816928 0.548660 57.000000
4.420115 -1.828988 0.548233 62.000000
4.420906 -1.845221 0.548981 56.000000
4.412475 -1.857618 0.548660 74.000000
4.411331 -1.873090 0.549194 59.000000
4.408305 -1.887790 0.549515 56.000000
4.402493 -1.901305 0.549515 72.000000
4.399374 -1.915994 0.549835 65.000000
4.393475 -1.929482 0.549835 47.000000
4.389352 -1.943757 0.550049 49.000000
4.382461 -1.956809 0.549942 36.000000
4.379157 -1.971470 0.550262 47.000000
4.373992 -1.985307 0.550369 25.000000
4.552765 -1.153830 0.482781 10.000000
4.551133 -1.168286 0.482971 40.000000
4.542709 -1.180992 0.482496 49.000000
4.541953 -1.195683 0.482781 63.000000
4.537302 -1.209356 0.482686 98.000000
4.535492 -1.223789 0.482876 69.000000
4.532676 -1.237960 0.482971 100.000000
4.529817 -1.252125 0.483066 81.000000
4.523077 -1.265212 0.482781 62.000000
4.527796 -1.281521 0.483635 79.000000
4.532457 -1.297870 0.484490 98.000000
4.528453 -1.311769 0.484490 90.000000
4.521542 -1.324817 0.484205 85.000000
4.514593 -1.337835 0.483920 89.000000
4.508559 -1.351108 0.483730 87.000000
4.504393 -1.364934 0.483730 60.000000
4.497328 -1.377873 0.483445 75.000000
4.496884 -1.392841 0.483825 85.000000
4.490690 -1.406036 0.483635 75.000000
4.489202 -1.420707 0.483920 56.000000
4.487667 -1.435382 0.484205 78.000000
4.483243 -1.449144 0.484205 68.000000
4.482561 -1.464127 0.484585 84.000000
4.482775 -1.479431 0.485060 87.000000
4.478215 -1.493177 0.485060 86.000000
4.467952 -1.505004 0.484490 64.000000
4.466141 -1.519665 0.484775 79.000000
4.464283 -1.534330 0.485060 101.000000
4.460495 -1.548345 0.485155 81.000000
4.457603 -1.562681 0.485345 92.000000
4.450910 -1.575685 0.485155 80.000000
4.443243 -1.588328 0.484870 92.000000
4.437412 -1.601615 0.484775 80.000000
4.420318 -1.610793 0.483540 112.000000
4.424699 -1.627782 0.484490 86.000000
4.419683 -1.641349 0.484490 98.000000
4.418356 -1.656297 0.484870 97.000000
4.415116 -1.670549 0.485060 107.000000
4.417411 -1.686926 0.485820 91.000000
4.415002 -1.701543 0.486105 96.000000
4.411616 -1.715802 0.486295 87.000000
4.405405 -1.728965 0.486200 77.000000
4.398229 -1.741740 0.486010 92.000000
4.392864 -1.755225 0.486010 78.000000
4.386536 -1.768322 0.485915 79.000000
4.380167 -1.781397 0.485820 84.000000
4.377444 -1.795959 0.486105 75.000000
4.375593 -1.810902 0.486485 97.000000
4.375529 -1.826618 0.487055 83.000000
4.376328 -1.842736 0.487719 75.000000
4.374319 -1.857709 0.488099 87.000000
4.377751 -1.875038 0.489049 91.000000
4.374720 -1.889643 0.489334 81.000000
4.368902 -1.903056 0.489334 58.000000
4.368512 -1.918851 0.489904 67.000000
4.363515 -1.932647 0.489999 64.000000
4.360292 -1.947242 0.490284 57.000000
4.357929 -1.962244 0.490664 42.000000
4.360047 -1.979306 0.491518 26.000000
4.334260 -1.999770 0.490094 5.000000
4.497103 -1.139387 0.418730 12.000000
4.509031 -1.157143 0.420049 25.000000
4.518963 -1.174482 0.421203 43.000000
4.517266 -1.188848 0.421368 42.000000
4.519376 -1.204241 0.421863 46.000000
4.516622 -1.218360 0.421945 60.000000
4.511901 -1.231949 0.421863 41.000000
4.508101 -1.245785 0.421863 51.000000
4.501378 -1.258805 0.421616 44.000000
4.495577 -1.272066 0.421451 44.000000
4.492611 -1.286127 0.421533 53.000000
4.492474 -1.301013 0.421863 57.000000
4.492286 -1.315910 0.422193 53.000000
4.491094 -1.330536 0.422440 45.000000
4.486991 -1.344308 0.422440 53.000000
4.484754 -1.358646 0.422605 43.000000
4.478658 -1.371814 0.422440 52.000000
4.474429 -1.385548 0.422440 43.000000
4.468255 -1.398673 0.422275 55.000000
4.460142 -1.411173 0.421945 65.000000
4.454842 -1.424546 0.421863 65.000000
4.455192 -1.439739 0.422275 44.000000
4.444123 -1.451234 0.421698 70.000000
4.439650 -1.464862 0.421698 65.000000
4.437971 -1.479421 0.421945 65.000000
4.433411 -1.493030 0.421945 64.000000
4.431640 -1.507588 0.422193 64.000000
4.430764 -1.522472 0.422523 67.000000
4.429838 -1.537366 0.422853 66.000000
4.426041 -1.551279 0.422935 63.000000
4.424080 -1.565848 0.423182 52.000000
4.422071 -1.580420 0.423430 53.000000
4.420013 -1.594995 0.423677 59.000000
4.419780 -1.610254 0.424089 62.000000
4.410142 -1.622085 0.423677 40.000000
4.407948 -1.636649 0.423925 60.000000
4.403840 -1.650514 0.424007 71.000000
4.395959 -1.662959 0.423760 59.000000
4.389905 -1.676082 0.423677 64.000000
4.384742 -1.689543 0.423677 79.000000
4.382325 -1.704070 0.423925 69.000000
4.382643 -1.719692 0.424419 55.000000
4.379200 -1.733864 0.424584 59.000000
4.376636 -1.748400 0.424832 67.000000
4.371251 -1.761819 0.424832 70.000000
4.363979 -1.774471 0.424667 63.000000
4.358514 -1.787851 0.424667 74.000000
4.353009 -1.801214 0.424667 85.000000
4.349301 -1.815328 0.424832 74.000000
4.347385 -1.830210 0.425161 59.000000
4.344502 -1.844708 0.425409 67.000000
4.344318 -1.860382 0.425904 80.000000
4.342250 -1.875283 0.426233 77.000000
4.340131 -1.890188 0.426563 69.000000
4.342524 -1.907101 0.427305 61.000000
4.338475 -1.921222 0.427470 77.000000
4.334380 -1.935336 0.427635 49.000000
4.320243 -1.944942 0.426893 36.000000
4.322423 -1.961895 0.427635 28.000000
4.336320 -1.984271 0.429449 18.000000
4.512863 -1.130674 0.364468 36.000000
4.512274 -1.145249 0.364680 52.000000
4.504875 -1.158095 0.364397 68.000000
4.498404 -1.171157 0.364185 74.000000
4.492861 -1.184444 0.364044 60.000000
4.485351 -1.197194 0.363762 46.000000
4.478767 -1.210170 0.363550 63.000000
4.471184 -1.222853 0.363267 63.000000
4.463566 -1.235501 0.362985 62.000000
4.460715 -1.249458 0.363055 74.000000
4.457821 -1.263409 0.363126 82.000000
4.455841 -1.277629 0.363267 67.000000
4.456691 -1.292682 0.363620 75.000000
4.453661 -1.306629 0.363691 67.000000
4.450588 -1.320570 0.363762 79.000000
4.441739 -1.332786 0.363409 85.000000
4.443357 -1.348143 0.363832 67.000000
4.437292 -1.361184 0.363691 60.000000
4.433095 -1.374791 0.363691 55.000000
4.430760 -1.388981 0.363832 66.000000
4.427429 -1.402869 0.363903 61.000000
4.425954 -1.417358 0.364115 60.000000
4.423483 -1.431544 0.364256 61.000000
4.421915 -1.446037 0.364468 64.000000
4.417458 -1.459597 0.364468 55.000000
4.412959 -1.473143 0.364468 60.000000
4.408419 -1.486674 0.364468 62.000000
4.402893 -1.499871 0.364397 62.000000
4.401100 -1.514344 0.364609 61.000000
4.397376 -1.528167 0.364680 79.000000
4.393608 -1.541981 0.364750 63.000000
4.389797 -1.555786 0.364821 68.000000
4.385004 -1.569246 0.364821 75.000000
4.380168 -1.582692 0.364821 66.000000
4.374355 -1.595781 0.364750 86.000000
4.368503 -1.608849 0.364680 74.000000
4.366352 -1.623286 0.364892 71.000000
4.361351 -1.636674 0.364892 87.000000
4.356308 -1.650047 0.364892 92.000000
4.351226 -1.663404 0.364892 77.000000
4.346102 -1.676746 0.364892 80.000000
4.340938 -1.690072 0.364892 66.000000
4.339447 -1.704840 0.365174 68.000000
4.333268 -1.717777 0.365104 80.000000
4.332609 -1.732915 0.365457 78.000000
4.324497 -1.745080 0.365245 55.000000
4.320971 -1.759091 0.365386 67.000000
4.317399 -1.773096 0.365527 56.000000
4.308252 -1.784807 0.365245 73.000000
4.305518 -1.799169 0.365457 68.000000
4.299978 -1.812370 0.365457 71.000000
4.301742 -1.828674 0.366022 54.000000
4.297945 -1.842649 0.366163 74.000000
4.297766 -1.858200 0.366587 83.000000
4.300275 -1.874962 0.367222 63.000000
4.304548 -1.892560 0.367999 79.000000
4.299634 -1.906162 0.368070 54.000000
4.291033 -1.918123 0.367858 71.000000
4.283309 -1.930459 0.367717 59.000000
4.274641 -1.942354 0.367505 79.000000
4.261406 -1.952138 0.366940 63.000000
4.253586 -1.964366 0.366799 63.000000
4.242113 -1.974882 0.366375 43.000000
4.381732 -1.110957 0.298279 6.000000
4.432451 -1.138305 0.301532 23.000000
4.471448 -1.162959 0.304087 46.000000
4.467859 -1.176672 0.304087 48.000000
4.465192 -1.190630 0.304145 36.000000
4.461519 -1.204324 0.304145 48.000000
4.457803 -1.218006 0.304145 56.000000
4.450196 -1.230612 0.303913 48.000000
4.443516 -1.243452 0.303739 60.000000
4.435838 -1.255990 0.303506 57.000000
4.431004 -1.269318 0.303448 44.000000
4.423254 -1.281795 0.303216 52.000000
4.422174 -1.296202 0.303390 77.000000
4.421048 -1.310614 0.303565 53.000000
4.419876 -1.325032 0.303739 55.000000
4.418655 -1.339455 0.303913 48.000000
4.414525 -1.353005 0.303913 47.000000
4.415122 -1.368019 0.304204 48.000000
4.411856 -1.381857 0.304262 49.000000
4.404740 -1.394482 0.304087 57.000000
4.402343 -1.408597 0.304204 58.000000
4.400851 -1.423018 0.304378 61.000000
4.400259 -1.437754 0.304610 62.000000
4.396776 -1.451560 0.304668 51.000000
4.391356 -1.464726 0.304610 53.000000
4.388733 -1.478830 0.304726 64.000000
4.383230 -1.491965 0.304668 55.000000
4.379576 -1.505731 0.304726 69.000000
4.374936 -1.519160 0.304726 55.000000
4.368371 -1.531914 0.304610 59.000000
4.363650 -1.545309 0.304610 57.000000
4.359829 -1.559025 0.304668 54.000000
4.354086 -1.572055 0.304610 59.000000
4.350181 -1.585747 0.304668 54.000000
4.344358 -1.598741 0.304610 63.000000
4.343176 -1.613453 0.304842 69.000000
4.341010 -1.627822 0.305017 77.000000
4.335996 -1.641132 0.305017 50.000000
4.331873 -1.654783 0.305075 65.000000
4.326776 -1.668066 0.305075 44.000000
4.319777 -1.680608 0.304959 57.000000
4.314600 -1.693853 0.304959 60.000000
4.310312 -1.707450 0.305017 60.000000
4.305980 -1.721036 0.305075 57.000000
4.303457 -1.735359 0.305249 68.000000
4.301812 -1.750059 0.305481 87.000000
4.299193 -1.764385 0.305656 76.000000
4.294682 -1.777949 0.305714 65.000000
4.291971 -1.792271 0.305888 70.000000
4.287372 -1.805817 0.305946 67.000000
4.283649 -1.819743 0.306062 85.000000
4.279881 -1.833663 0.306178 72.000000
4.274236 -1.846785 0.306178 72.000000
4.271295 -1.861086 0.306353 73.000000
4.265565 -1.874181 0.306353 54.000000
4.262533 -1.888473 0.306527 67.000000
4.259454 -1.902763 0.306701 61.000000
4.256327 -1.917052 0.306875 59.000000
4.248608 -1.929275 0.306759 42.000000
4.247207 -1.944379 0.307050 42.000000
4.239409 -1.956563 0.306934 28.000000
4.438538 -1.141882 0.247574 26.000000
4.437914 -1.156248 0.247713 40.000000
4.428550 -1.168331 0.247435 50.000000
4.426875 -1.182427 0.247528 34.000000
4.420333 -1.195221 0.247389 54.000000
4.415682 -1.208514 0.247343 52.000000
4.411953 -1.222055 0.247343 70.000000
4.408184 -1.235585 0.247343 69.000000
4.406295 -1.249648 0.247435 80.000000
4.402440 -1.263160 0.247435 59.000000
4.393746 -1.275270 0.247204 65.000000
4.386938 -1.287900 0.247066 53.000000
4.378178 -1.299933 0.246834 79.000000
4.377039 -1.314220 0.246973 46.000000
4.372987 -1.327642 0.246973 57.000000
4.373668 -1.342517 0.247204 76.000000
4.376208 -1.357999 0.247528 73.000000
4.377740 -1.373211 0.247805 75.000000
4.376364 -1.387541 0.247944 64.000000
4.374940 -1.401874 0.248083 60.000000
4.371569 -1.415597 0.248129 68.000000
4.366256 -1.428692 0.248083 76.000000
4.356161 -1.440201 0.247805 57.000000
4.350774 -1.453242 0.247759 54.000000
4.344402 -1.465945 0.247667 45.000000
4.337048 -1.478301 0.247528 75.000000
4.338160 -1.493549 0.247805 43.000000
4.335444 -1.507507 0.247898 55.000000
4.330799 -1.520801 0.247898 67.000000
4.329879 -1.535415 0.248083 62.000000
4.325148 -1.548692 0.248083 55.000000
4.317558 -1.560935 0.247944 71.000000
4.311810 -1.573832 0.247898 68.000000
4.305087 -1.586363 0.247805 55.000000
4.300200 -1.599563 0.247805 50.000000
4.298078 -1.613801 0.247944 44.000000
4.294041 -1.627333 0.247990 66.000000
4.289960 -1.640856 0.248037 67.000000
4.286770 -1.654729 0.248129 59.000000
4.281673 -1.667873 0.248129 61.000000
4.277466 -1.681366 0.248175 63.000000
4.277860 -1.696690 0.248453 65.000000
4.276344 -1.711290 0.248638 67.000000
4.272927 -1.725149 0.248730 54.000000
4.270390 -1.739380 0.248869 52.000000
4.269654 -1.754370 0.249100 58.000000
4.264251 -1.767461 0.249100 62.000000
4.256965 -1.779765 0.249007 48.000000
4.252406 -1.793205 0.249054 61.000000
4.246884 -1.806242 0.249054 67.000000
4.244995 -1.820837 0.249239 54.000000
4.240306 -1.834249 0.249285 59.000000
4.234658 -1.847249 0.249285 48.000000
4.228971 -1.860232 0.249285 47.000000
4.226897 -1.874817 0.249470 53.000000
4.225686 -1.889814 0.249701 62.000000
4.226243 -1.905642 0.250025 34.000000
4.222196 -1.919425 0.250117 43.000000
4.219012 -1.933617 0.250256 39.000000
4.216687 -1.948227 0.250441 40.000000
4.180804 -1.947244 0.248915 10.000000
4.383950 -1.126658 0.188965 16.000000
4.394013 -1.143628 0.189439 30.000000
4.392417 -1.157613 0.189506 28.000000
4.388844 -1.171083 0.189506 44.000000
4.391020 -1.186107 0.189710 40.000000
4.386396 -1.199309 0.189676 37.000000
4.387512 -1.214094 0.189845 62.000000
4.384729 -1.227818 0.189879 34.000000
4.376133 -1.239902 0.189710 36.000000
4.368466 -1.252220 0.189574 38.000000
4.367484 -1.266452 0.189676 49.000000
4.358783 -1.278438 0.189506 42.000000
4.351966 -1.290952 0.189405 42.000000
4.352771 -1.305734 0.189574 51.000000
4.349700 -1.319372 0.189608 43.000000
4.353277 -1.335055 0.189879 38.000000
4.353933 -1.349885 0.190048 47.000000
4.348817 -1.362937 0.190014 51.000000
4.346521 -1.376876 0.190082 41.000000
4.342276 -1.390205 0.190082 51.000000
4.335138 -1.402597 0.189980 46.000000
4.330815 -1.415890 0.189980 52.000000
4.326450 -1.429170 0.189980 55.000000
4.322045 -1.442437 0.189980 71.000000
4.318546 -1.456010 0.190014 45.000000
4.315006 -1.469574 0.190048 65.000000
4.314257 -1.484106 0.190183 41.000000
4.308739 -1.497007 0.190150 48.000000
4.306012 -1.510881 0.190217 41.000000
4.301356 -1.524085 0.190217 49.000000
4.299483 -1.538284 0.190319 45.000000
4.297564 -1.552486 0.190420 62.000000
4.293719 -1.566006 0.190454 64.000000
4.293584 -1.580899 0.190624 40.000000
4.288714 -1.594064 0.190624 57.000000
4.284739 -1.607565 0.190657 61.000000
4.284460 -1.622473 0.190827 40.000000
4.274794 -1.633826 0.190657 58.000000
4.269762 -1.646933 0.190657 54.000000
4.265620 -1.660387 0.190691 63.000000
4.261436 -1.673831 0.190725 76.000000
4.257210 -1.687266 0.190759 47.000000
4.253870 -1.701061 0.190827 52.000000
4.244924 -1.712608 0.190691 43.000000
4.243352 -1.727131 0.190827 55.000000
4.235260 -1.739002 0.190725 53.000000
4.228981 -1.751605 0.190691 52.000000
4.224510 -1.764956 0.190725 64.000000
4.221838 -1.779073 0.190827 55.000000
4.220039 -1.793581 0.190962 62.000000
4.220946 -1.809276 0.191199 67.000000
4.217210 -1.823011 0.191267 67.000000
4.212513 -1.836340 0.191301 56.000000
4.210519 -1.850864 0.191436 83.000000
4.204822 -1.863773 0.191436 63.000000
4.199083 -1.876665 0.191436 61.000000
4.197862 -1.891592 0.191605 78.000000
4.189310 -1.903221 0.191504 57.000000
4.181633 -1.915232 0.191436 44.000000
4.178460 -1.929309 0.191538 47.000000
4.170709 -1.941276 0.191470 34.000000
4.383561 -1.126128 0.133804 17.000000
4.377183 -1.138816 0.133739 36.000000
4.371735 -1.151731 0.133696 28.000000
4.365283 -1.164366 0.133631 30.000000
4.360725 -1.177492 0.133609 44.000000
4.351305 -1.189286 0.133479 41.000000
4.345708 -1.202097 0.133436 58.000000
4.339112 -1.214616 0.133371 62.000000
4.334403 -1.227650 0.133350 56.000000
4.332539 -1.241493 0.133393 70.000000
4.331590 -1.255613 0.133458 67.000000
4.331555 -1.270020 0.133544 79.000000
4.328597 -1.283587 0.133566 70.000000
4.324638 -1.296861 0.133566 84.000000
4.323510 -1.310993 0.133631 70.000000
4.318512 -1.323958 0.133609 68.000000
4.320160 -1.338975 0.133739 74.000000
4.310307 -1.350431 0.133609 71.000000
4.309003 -1.364553 0.133674 71.000000
4.304797 -1.377767 0.133674 61.000000
4.301500 -1.391275 0.133696 64.000000
4.298162 -1.404775 0.133717 51.000000
4.294782 -1.418268 0.133739 57.000000
4.290410 -1.431438 0.133739 48.000000
4.288841 -1.445551 0.133804 78.000000
4.280600 -1.457414 0.133717 79.000000
4.271381 -1.468916 0.133609 44.000000
4.267799 -1.482341 0.133631 40.000000
4.262287 -1.495097 0.133609 67.000000
4.258623 -1.508500 0.133631 56.000000
4.258682 -1.523240 0.133739 61.000000
4.258691 -1.537995 0.133847 53.000000
4.258649 -1.552765 0.133955 54.000000
4.260434 -1.568239 0.134107 49.000000
4.259351 -1.582694 0.134194 51.000000
4.253539 -1.595403 0.134172 43.000000
4.249560 -1.608799 0.134194 51.000000
4.242736 -1.621116 0.134150 47.000000
4.235877 -1.633406 0.134107 47.000000
4.229914 -1.646031 0.134085 50.000000
4.224844 -1.659001 0.134085 41.000000
4.224382 -1.673795 0.134194 46.000000
4.226655 -1.689714 0.134367 36.000000
4.222378 -1.703047 0.134388 40.000000
4.218059 -1.716370 0.134410 44.000000
4.214623 -1.730061 0.134453 55.000000
4.211143 -1.743748 0.134497 38.000000
4.201161 -1.754734 0.134388 52.000000
4.192994 -1.766451 0.134323 71.000000
4.188475 -1.779697 0.134345 51.000000
4.184833 -1.793326 0.134388 40.000000
4.177475 -1.805364 0.134345 57.000000
4.175583 -1.819768 0.134432 42.000000
4.174558 -1.834580 0.134540 44.000000
4.172566 -1.848998 0.134626 54.000000
4.170526 -1.863421 0.134713 37.000000
4.163877 -1.875797 0.134691 41.000000
4.161745 -1.890216 0.134778 37.000000
4.158653 -1.904223 0.134843 43.000000
4.158239 -1.919485 0.134973 27.000000
4.146891 -1.929704 0.134843 22.000000
4.362270 -1.136174 0.077733 30.000000
4.354896 -1.148531 0.077696 33.000000
4.347487 -1.160854 0.077659 36.000000
4.333287 -1.171315 0.077558 36.000000
4.330638 -1.184868 0.077567 33.000000
4.325055 -1.197615 0.077548 45.000000
4.322323 -1.211148 0.077558 37.000000
4.326283 -1.226586 0.077632 33.000000
4.326344 -1.240956 0.077669 34.000000
4.332120 -1.257011 0.077761 29.000000
4.328243 -1.270296 0.077761 38.000000
4.329119 -1.284992 0.077807 23.000000
4.321325 -1.297117 0.077770 32.000000
4.313498 -1.309206 0.077733 28.000000
4.305637 -1.321260 0.077696 50.000000
4.308249 -1.336538 0.077761 32.000000
4.300312 -1.348552 0.077724 40.000000
4.342861 -1.376548 0.078177 22.000000
4.330999 -1.387424 0.078103 29.000000
4.356213 -1.410255 0.078390 27.000000
4.497272 -1.471193 0.079805 29.000000
4.525967 -1.495970 0.080129 19.000000
4.472037 -1.493374 0.079648 30.000000
4.502491 -1.518917 0.079990 35.000000
4.492131 -1.530787 0.079935 39.000000
4.624509 -1.591763 0.081276 71.000000
4.496821 -1.563248 0.080074 41.000000
4.629751 -1.625409 0.081424 72.000000
4.632282 -1.642279 0.081498 92.000000
4.634753 -1.659180 0.081572 96.000000
4.630581 -1.673731 0.081581 81.000000
4.611334 -1.682787 0.081443 63.000000
4.620224 -1.702113 0.081581 74.000000
4.632788 -1.722903 0.081757 92.000000
4.634970 -1.739920 0.081831 62.000000
4.639895 -1.758030 0.081933 79.000000
4.641017 -1.774757 0.081998 73.000000
4.649544 -1.794389 0.082136 75.000000
4.648675 -1.810460 0.082183 83.000000
4.645891 -1.825811 0.082210 78.000000
4.615171 -1.830101 0.081961 51.000000
4.745825 -1.518794 0.019708 29.000000
4.693565 -1.517972 0.019874 50.000000
4.679380 -1.529260 0.019907 74.000000
4.672768 -1.542982 0.019914 65.000000
4.665165 -1.556362 0.019924 87.000000
4.660369 -1.570668 0.019924 94.000000
4.655529 -1.584958 0.019924 79.000000
4.651589 -1.599558 0.019920 61.000000
4.643826 -1.612838 0.019930 67.000000
4.636969 -1.626416 0.019937 77.000000
4.631014 -1.640301 0.019940 87.000000
4.625960 -1.654501 0.019940 89.000000
4.620862 -1.668685 0.019940 89.000000
4.616661 -1.683196 0.019937 97.000000
4.614291 -1.698388 0.019927 71.000000
4.609996 -1.712884 0.019924 75.000000
4.609401 -1.728774 0.019907 82.000000
4.609687 -1.745031 0.019887 70.000000
4.614588 -1.763088 0.019851 76.000000
4.616622 -1.780113 0.019824 83.000000
4.618596 -1.797168 0.019798 97.000000
4.627955 -1.817173 0.019745 60.000000
4.632586 -1.835413 0.019708 44.000000
4.731095 -1.513817 -0.041606 41.000000
4.692181 -1.517247 -0.041040 59.000000
4.674198 -1.527287 -0.040820 74.000000
4.660945 -1.538798 -0.040679 77.000000
4.646718 -1.549926 -0.040522 84.000000
4.637203 -1.562577 -0.040443 85.000000
4.635227 -1.577764 -0.040490 99.000000
4.632256 -1.592627 -0.040522 99.000000
4.626403 -1.606503 -0.040506 81.000000
4.622396 -1.621020 -0.040522 97.000000
4.612689 -1.633525 -0.040443 79.000000
4.608597 -1.648005 -0.040459 85.000000
4.601638 -1.661457 -0.040428 114.000000
4.598398 -1.676252 -0.040459 96.000000
4.598864 -1.692424 -0.040553 98.000000
4.595525 -1.707222 -0.040585 96.000000
4.596818 -1.723771 -0.040695 93.000000
4.598989 -1.740698 -0.040820 88.000000
4.601099 -1.757654 -0.040946 91.000000
4.605014 -1.775359 -0.041103 81.000000
4.610727 -1.793830 -0.041292 58.000000
4.605203 -1.807967 -0.041292 72.000000
4.613578 -1.827612 -0.041527 34.000000
4.705777 -1.490089 -0.100397 40.000000
4.684998 -1.499343 -0.099925 55.000000
4.674668 -1.511865 -0.099759 66.000000
4.663356 -1.524028 -0.099565 61.000000
4.649166 -1.535195 -0.099287 74.000000
4.634951 -1.546290 -0.099010 72.000000
4.623554 -1.558270 -0.098815 73.000000
4.611181 -1.569872 -0.098593 63.000000
4.601616 -1.582387 -0.098455 69.000000
4.595796 -1.596170 -0.098427 63.000000
4.589933 -1.609931 -0.098399 56.000000
4.587800 -1.625006 -0.098482 75.000000
4.586558 -1.640419 -0.098593 70.000000
4.587145 -1.656518 -0.098760 62.000000
4.588616 -1.672979 -0.098954 80.000000
4.588152 -1.688774 -0.099093 82.000000
4.587635 -1.704582 -0.099232 76.000000
4.587064 -1.720403 -0.099370 57.000000
4.588309 -1.736943 -0.099565 69.000000
4.594165 -1.755291 -0.099898 45.000000
4.592490 -1.770815 -0.100009 76.000000
4.601942 -1.790692 -0.100452 47.000000
4.610384 -1.810279 -0.100869 45.000000
4.621538 -1.831039 -0.101368 30.000000
4.592692 -1.835938 -0.100674 22.000000
4.723086 -1.511253 -0.163223 33.000000
4.689907 -1.516512 -0.162013 55.000000
4.668137 -1.525306 -0.161288 69.000000
4.654896 -1.536800 -0.160925 82.000000
4.639733 -1.547595 -0.160482 80.000000
4.626442 -1.558950 -0.160119 68.000000
4.613124 -1.570238 -0.159756 75.000000
4.600726 -1.581784 -0.159434 84.000000
4.591133 -1.594252 -0.159232 76.000000
4.584334 -1.607669 -0.159152 73.000000
4.578438 -1.621392 -0.159111 77.000000
4.574384 -1.635768 -0.159152 86.000000
4.573102 -1.651151 -0.159313 76.000000
4.573647 -1.667228 -0.159555 70.000000
4.572262 -1.682632 -0.159716 83.000000
4.572698 -1.698740 -0.159958 76.000000
4.576820 -1.716270 -0.160361 86.000000
4.579944 -1.733487 -0.160724 104.000000
4.586738 -1.752166 -0.161248 100.000000
4.594392 -1.771263 -0.161812 78.000000
4.598248 -1.788974 -0.162215 88.000000
4.597388 -1.804899 -0.162416 51.000000
4.702539 -1.490865 -0.221532 25.000000
4.665606 -1.494932 -0.219753 62.000000
4.658147 -1.508317 -0.219596 71.000000
4.645905 -1.520118 -0.219177 76.000000
4.634582 -1.532172 -0.218811 57.000000
4.626070 -1.545119 -0.218602 90.000000
4.613738 -1.556752 -0.218183 73.000000
4.603268 -1.568967 -0.217869 45.000000
4.597488 -1.582758 -0.217817 59.000000
4.586951 -1.594889 -0.217503 102.000000
4.582978 -1.609284 -0.217555 96.000000
4.582726 -1.625005 -0.217817 61.000000
4.575839 -1.638384 -0.217712 63.000000
4.571730 -1.652754 -0.217764 60.000000
4.568514 -1.667457 -0.217869 70.000000
4.564314 -1.681810 -0.217921 94.000000
4.561942 -1.696849 -0.218078 57.000000
4.564194 -1.713643 -0.218497 59.000000
4.569188 -1.731528 -0.219073 56.000000
4.575981 -1.750172 -0.219753 60.000000
4.583634 -1.769234 -0.220486 68.000000
4.581907 -1.784737 -0.220695 65.000000
4.588493 -1.803532 -0.221375 57.000000
4.637712 -1.839310 -0.224463 24.000000
4.673131 -1.479475 -0.280635 42.000000
4.660967 -1.491372 -0.280118 45.000000
4.644026 -1.501672 -0.279277 62.000000
4.635603 -1.514673 -0.279018 58.000000
4.622406 -1.526071 -0.278435 76.000000
4.615810 -1.539613 -0.278306 92.000000
4.609173 -1.553130 -0.278177 86.000000
4.603442 -1.566942 -0.278112 92.000000
4.597670 -1.580733 -0.278047 71.000000
4.589027 -1.593521 -0.277788 70.000000
4.579408 -1.605941 -0.277465 97.000000
4.573520 -1.619650 -0.277400 91.000000
4.569468 -1.634009 -0.277465 80.000000
4.566311 -1.648699 -0.277594 97.000000
4.563107 -1.663384 -0.277724 84.000000
4.560791 -1.678410 -0.277918 83.000000
4.555621 -1.692394 -0.277918 123.000000
4.556013 -1.708465 -0.278306 98.000000
4.559149 -1.725615 -0.278888 71.000000
4.561291 -1.742443 -0.279406 70.000000
4.559648 -1.757865 -0.279665 88.000000
4.562603 -1.775103 -0.280247 83.000000
4.560851 -1.790551 -0.280506 78.000000
4.598012 -1.821445 -0.283483 37.000000
4.693299 -1.487938 -0.340589 31.000000
4.687762 -1.502025 -0.340513 34.000000
4.653724 -1.506886 -0.338140 66.000000
4.637706 -1.517438 -0.337221 84.000000
4.633029 -1.531659 -0.337221 62.000000
4.625471 -1.544919 -0.336992 59.000000
4.615041 -1.557191 -0.336533 73.000000
4.612129 -1.571985 -0.336686 52.000000
4.603514 -1.584830 -0.336379 47.000000
4.597687 -1.598619 -0.336303 58.000000
4.593702 -1.613047 -0.336379 58.000000
4.589672 -1.627466 -0.336456 106.000000
4.585596 -1.641875 -0.336533 39.000000
4.584288 -1.657291 -0.336839 64.000000
4.585739 -1.673739 -0.337374 98.000000
4.584325 -1.689178 -0.337681 125.000000
4.566037 -1.698371 -0.336609 57.000000
4.557071 -1.710970 -0.336303 65.000000
4.555530 -1.726356 -0.336609 61.000000
4.554869 -1.742103 -0.336992 68.000000
4.557875 -1.759299 -0.337681 52.000000
4.561748 -1.776891 -0.338446 62.000000
4.560915 -1.792700 -0.338829 55.000000
4.549832 -1.804480 -0.338370 28.000000
4.675385 -1.481979 -0.399277 46.000000
4.661331 -1.493276 -0.398390 63.000000
4.645357 -1.503888 -0.397325 77.000000
4.633148 -1.515654 -0.396616 85.000000
4.622802 -1.527985 -0.396083 95.000000
4.615258 -1.541214 -0.395817 74.000000
4.610508 -1.555366 -0.395817 95.000000
4.610428 -1.571111 -0.396261 74.000000
4.612179 -1.587518 -0.396882 82.000000
4.612932 -1.603623 -0.397414 69.000000
4.619268 -1.621728 -0.398479 73.000000
4.622720 -1.638888 -0.399277 68.000000
4.634549 -1.659107 -0.400874 125.000000
4.612577 -1.667222 -0.399277 74.000000
4.604633 -1.680341 -0.399011 58.000000
4.593849 -1.692393 -0.398479 65.000000
4.573698 -1.700923 -0.397059 85.000000
4.560066 -1.711795 -0.396261 89.000000
4.550135 -1.724012 -0.395817 98.000000
4.547616 -1.739031 -0.396083 87.000000
4.545976 -1.754410 -0.396438 83.000000
4.546141 -1.770518 -0.396970 79.000000
4.549958 -1.788101 -0.397858 72.000000
4.611114 -1.828492 -0.404246 25.000000
4.679592 -1.498512 -0.462195 32.000000
4.650361 -1.504904 -0.459563 37.000000
4.642886 -1.518237 -0.459259 58.000000
4.637261 -1.532162 -0.459158 59.000000
4.630651 -1.545752 -0.458955 76.000000
4.626830 -1.560269 -0.459056 71.000000
4.626730 -1.576060 -0.459563 75.000000
4.629400 -1.592834 -0.460372 65.000000
4.628250 -1.608335 -0.460777 81.000000
4.633621 -1.626148 -0.461891 66.000000
4.639863 -1.644341 -0.463106 75.000000
4.671331 -1.671633 -0.467054 237.000000
4.632494 -1.673794 -0.463409 85.000000
4.622664 -1.686295 -0.462903 72.000000
4.609999 -1.697720 -0.462093 54.000000
4.598241 -1.709430 -0.461385 69.000000
4.587386 -1.721434 -0.460777 71.000000
4.578361 -1.734091 -0.460372 70.000000
4.573019 -1.748129 -0.460372 83.000000
4.573204 -1.764297 -0.460980 61.000000
4.570551 -1.779402 -0.461284 62.000000
4.578961 -1.798869 -0.462802 42.000000
4.674809 -1.512526 -0.520966 64.000000
4.667313 -1.525935 -0.520627 61.000000
4.656949 -1.538376 -0.519949 81.000000
4.649380 -1.551713 -0.519609 90.000000
4.647422 -1.566922 -0.519949 78.000000
4.646355 -1.582454 -0.520401 78.000000
4.646176 -1.598318 -0.520966 92.000000
4.646881 -1.614522 -0.521644 84.000000
4.654094 -1.633048 -0.523113 79.000000
4.658427 -1.650638 -0.524244 77.000000
4.682341 -1.675301 -0.527748 195.000000
4.651949 -1.680542 -0.524696 77.000000
4.641171 -1.692762 -0.524018 89.000000
4.625700 -1.703216 -0.522774 96.000000
4.608346 -1.712898 -0.521305 97.000000
4.600278 -1.725981 -0.520966 86.000000
4.594961 -1.740087 -0.520966 105.000000
4.588673 -1.753821 -0.520853 120.000000
4.599029 -1.773970 -0.522774 80.000000
4.586158 -1.785188 -0.521870 102.000000
4.605629 -1.809059 -0.524922 48.000000
4.695170 -1.535320 -0.585873 42.000000
4.659348 -1.539454 -0.581737 84.000000
4.653662 -1.553427 -0.581612 81.000000
4.650755 -1.568331 -0.581862 85.000000
4.649678 -1.583871 -0.582364 77.000000
4.656994 -1.602322 -0.583993 93.000000
4.662366 -1.620181 -0.585372 99.000000
4.668607 -1.638417 -0.586876 79.000000
4.676652 -1.657369 -0.588630 103.000000
4.667809 -1.670373 -0.588129 164.000000
4.661729 -1.684349 -0.588004 84.000000
4.650014 -1.696264 -0.587126 96.000000
4.634546 -1.706753 -0.585748 82.000000
4.620918 -1.717855 -0.584620 102.000000
4.610982 -1.730282 -0.583993 99.000000
4.600084 -1.742313 -0.583241 120.000000
4.604912 -1.760312 -0.584620 90.000000
4.616152 -1.780855 -0.586876 66.000000
4.642104 -1.807239 -0.591137 53.000000
4.710806 -1.554355 -0.649970 50.000000
4.702258 -1.567547 -0.649420 72.000000
4.692733 -1.580385 -0.648733 80.000000
4.679423 -1.591903 -0.647496 99.000000
4.677327 -1.607217 -0.647908 96.000000
4.679860 -1.624158 -0.649008 94.000000
4.675790 -1.638836 -0.649145 114.000000
4.685679 -1.658462 -0.651344 66.000000
4.688963 -1.675831 -0.652581 56.000000
4.684732 -1.690545 -0.652719 64.000000
4.676731 -1.703892 -0.652306 87.000000
4.666834 -1.716522 -0.651619 61.000000
4.648546 -1.726004 -0.649695 68.000000
4.641374 -1.739562 -0.649420 67.000000
4.624898 -1.749586 -0.647771 101.000000
4.620434 -1.764121 -0.647908 91.000000
4.676000 -1.801798 -0.656980 35.000000
4.674607 -1.529502 -0.703534 14.000000
4.724349 -1.561825 -0.712187 38.000000
4.711093 -1.573494 -0.710844 72.000000
4.700622 -1.586045 -0.709949 91.000000
4.698542 -1.601415 -0.710397 84.000000
4.693607 -1.615822 -0.710397 117.000000
4.694232 -1.632162 -0.711292 95.000000
4.697600 -1.649502 -0.712635 117.000000
4.701837 -1.667209 -0.714126 80.000000
4.705469 -1.701067 -0.716364 73.000000
4.688151 -1.711090 -0.714425 96.000000
4.671745 -1.721365 -0.712635 108.000000
4.659954 -1.733279 -0.711590 110.000000
4.647208 -1.744788 -0.710397 141.000000
4.649231 -1.761839 -0.711590 125.000000
4.650270 -1.778565 -0.712635 100.000000
4.647559 -1.793891 -0.713082 86.000000
4.767768 -1.557869 -0.779918 39.000000
4.743286 -1.565989 -0.776536 67.000000
4.729097 -1.577411 -0.774925 88.000000
4.720495 -1.590651 -0.774280 86.000000
4.711855 -1.603853 -0.773636 96.000000
4.709712 -1.619265 -0.774119 95.000000
4.708451 -1.635001 -0.774764 90.000000
4.711795 -1.652379 -0.776213 84.000000
4.715076 -1.669793 -0.777663 99.000000
4.724800 -1.689569 -0.780241 141.000000
4.710311 -1.700704 -0.778630 102.000000
4.699508 -1.713119 -0.777663 113.000000
4.686821 -1.724801 -0.776374 97.000000
4.679657 -1.738484 -0.776052 101.000000
4.673377 -1.752486 -0.775891 136.000000
4.672593 -1.768563 -0.776697 121.000000
4.672677 -1.785004 -0.777663 95.000000
4.669941 -1.800396 -0.778146 72.000000
4.680032 -1.820799 -0.780885 30.000000
