ply
format ascii 1.0
element vertex 946
property float x
property float y
property float z
property float intensity
end_header
4.660742 -0.012118 0.592529 7.000000
4.690217 -0.055358 0.596097 14.000000
4.686055 -0.069689 0.595621 9.000000
4.694753 -0.084223 0.596691 17.000000
4.701422 -0.098770 0.597524 33.000000
4.692163 -0.112980 0.596453 29.000000
4.709660 -0.127856 0.598594 26.000000
4.679472 -0.141412 0.595026 48.000000
4.670085 -0.155473 0.593956 60.000000
4.667601 -0.169728 0.593718 73.000000
4.670035 -0.184164 0.594075 73.000000
4.673416 -0.198658 0.594551 83.000000
4.674768 -0.213085 0.594788 83.000000
4.672109 -0.227330 0.594551 67.000000
4.669406 -0.241560 0.594313 73.000000
4.669635 -0.255939 0.594432 89.000000
4.665854 -0.270093 0.594075 79.000000
4.664012 -0.284346 0.593956 87.000000
4.669064 -0.299033 0.594670 91.000000
4.670105 -0.313488 0.594907 85.000000
4.670112 -0.327884 0.595026 57.000000
4.677997 -0.342861 0.596097 101.000000
4.674942 -0.357060 0.595859 85.000000
4.674815 -0.371480 0.595978 91.000000
4.674643 -0.385902 0.596097 81.000000
4.668490 -0.399819 0.595502 97.000000
4.667242 -0.414140 0.595502 93.000000
4.662983 -0.428185 0.595145 78.000000
4.664612 -0.442770 0.595502 63.000000
4.657303 -0.456499 0.594788 71.000000
4.654893 -0.470685 0.594670 95.000000
4.656390 -0.485272 0.595026 93.000000
4.656854 -0.499767 0.595264 80.000000
4.658259 -0.514378 0.595621 76.000000
4.657646 -0.528778 0.595740 52.000000
4.655015 -0.542951 0.595621 73.000000
4.654313 -0.557347 0.595740 65.000000
4.652582 -0.571624 0.595740 65.000000
4.651791 -0.586019 0.595859 66.000000
4.652926 -0.600668 0.596216 70.000000
4.653029 -0.615200 0.596453 70.000000
4.654072 -0.629871 0.596810 62.000000
4.653101 -0.644283 0.596929 67.000000
4.653069 -0.658833 0.597167 50.000000
4.652992 -0.673389 0.597405 52.000000
4.654833 -0.688241 0.597880 58.000000
4.651718 -0.702371 0.597762 81.000000
4.654448 -0.717394 0.598356 59.000000
4.657129 -0.732440 0.598951 63.000000
4.657801 -0.747196 0.599308 80.000000
4.660387 -0.762282 0.599902 74.000000
4.659985 -0.776903 0.600140 66.000000
4.661495 -0.791860 0.600616 57.000000
4.674698 -0.808862 0.602518 29.000000
4.700953 0.030562 0.539370 72.000000
4.685116 0.016086 0.537662 129.000000
4.686137 0.001712 0.537768 120.000000
4.688109 -0.012670 0.537982 109.000000
4.690037 -0.027064 0.538195 141.000000
4.691920 -0.041471 0.538409 135.000000
4.701713 -0.055984 0.539477 95.000000
4.696548 -0.070334 0.538943 131.000000
4.696310 -0.084742 0.538943 132.000000
4.694040 -0.099108 0.538729 131.000000
4.689738 -0.113412 0.538302 121.000000
4.686387 -0.127718 0.537982 128.000000
4.684978 -0.142065 0.537875 113.000000
4.684521 -0.156438 0.537875 125.000000
4.684019 -0.170809 0.537875 101.000000
4.682479 -0.185139 0.537768 98.000000
4.681889 -0.199504 0.537768 98.000000
4.682248 -0.213912 0.537875 110.000000
4.679584 -0.228179 0.537662 99.000000
4.678861 -0.242535 0.537662 97.000000
4.677103 -0.256833 0.537555 114.000000
4.671329 -0.270893 0.537021 108.000000
4.670476 -0.285223 0.537021 99.000000
4.666603 -0.299360 0.536701 113.000000
4.666654 -0.313742 0.536807 98.000000
4.670629 -0.328407 0.537341 88.000000
4.672575 -0.342953 0.537662 102.000000
4.675466 -0.357590 0.538089 94.000000
4.679302 -0.372327 0.538623 100.000000
4.678138 -0.386682 0.538623 100.000000
4.679902 -0.401287 0.538943 90.000000
4.679639 -0.415731 0.539050 99.000000
4.674381 -0.429722 0.538623 77.000000
4.673040 -0.444060 0.538623 92.000000
4.668688 -0.458103 0.538302 89.000000
4.663304 -0.472024 0.537875 88.000000
4.660844 -0.486225 0.537768 74.000000
4.659331 -0.500522 0.537768 82.000000
4.656785 -0.514705 0.537662 105.000000
4.655184 -0.528989 0.537662 106.000000
4.654527 -0.543384 0.537768 99.000000
4.653825 -0.557780 0.537875 83.000000
4.654066 -0.572298 0.538089 82.000000
4.651301 -0.586449 0.537982 67.000000
4.650466 -0.600844 0.538089 86.000000
4.652544 -0.615631 0.538516 78.000000
4.652604 -0.630169 0.538729 61.000000
4.655573 -0.645122 0.539263 79.000000
4.659478 -0.660240 0.539904 67.000000
4.660383 -0.674960 0.540224 77.000000
4.664191 -0.690128 0.540865 64.000000
4.659103 -0.703988 0.540545 59.000000
4.654956 -0.717976 0.540331 74.000000
4.652731 -0.732253 0.540331 62.000000
4.649481 -0.746367 0.540224 62.000000
4.646188 -0.760467 0.540118 59.000000
4.656583 -0.776846 0.541506 35.000000
4.640454 -0.788795 0.540011 46.000000
4.651728 -0.805403 0.541506 35.000000
4.656785 0.029943 0.478982 61.000000
4.672783 0.015713 0.480501 123.000000
4.673804 0.001378 0.480596 89.000000
4.675777 -0.012966 0.480786 102.000000
4.681688 -0.027345 0.481356 133.000000
4.681582 -0.041708 0.481356 118.000000
4.683424 -0.056094 0.481546 131.000000
4.683229 -0.070462 0.481546 125.000000
4.681995 -0.084812 0.481451 132.000000
4.680717 -0.099155 0.481356 139.000000
4.678401 -0.113467 0.481166 128.000000
4.677036 -0.127792 0.481071 133.000000
4.673637 -0.142051 0.480786 145.000000
4.669199 -0.156257 0.480406 130.000000
4.666708 -0.170508 0.480216 121.000000
4.667158 -0.184864 0.480311 93.000000
4.667564 -0.199224 0.480406 118.000000
4.669914 -0.213679 0.480691 148.000000
4.671225 -0.228101 0.480881 106.000000
4.672492 -0.242534 0.481071 108.000000
4.672719 -0.256922 0.481166 101.000000
4.672903 -0.271314 0.481261 124.000000
4.669067 -0.285468 0.480976 99.000000
4.663202 -0.299473 0.480501 107.000000
4.659282 -0.313579 0.480216 111.000000
4.655319 -0.327663 0.479931 97.000000
4.656278 -0.342089 0.480121 98.000000
4.659176 -0.356675 0.480501 124.000000
4.661037 -0.371204 0.480786 111.000000
4.662853 -0.385748 0.481071 96.000000
4.664623 -0.400306 0.481356 102.000000
4.663373 -0.414615 0.481356 90.000000
4.660097 -0.428738 0.481166 95.000000
4.657768 -0.442939 0.481071 86.000000
4.654406 -0.457033 0.480881 77.000000
4.651991 -0.471210 0.480786 84.000000
4.653494 -0.485789 0.481071 79.000000
4.650002 -0.499851 0.480881 90.000000
4.647457 -0.514006 0.480786 107.000000
4.642891 -0.527925 0.480501 95.000000
4.638283 -0.541821 0.480216 86.000000
4.636599 -0.556049 0.480216 82.000000
4.634871 -0.570271 0.480216 95.000000
4.635075 -0.584736 0.480406 61.000000
4.634247 -0.599081 0.480501 72.000000
4.635347 -0.613687 0.480786 74.000000
4.636403 -0.628306 0.481071 81.000000
4.643328 -0.643755 0.481926 69.000000
4.647245 -0.658835 0.482496 87.000000
4.648157 -0.673517 0.482781 73.000000
4.651978 -0.688647 0.483350 71.000000
4.649843 -0.702916 0.483350 92.000000
4.649633 -0.717481 0.483540 79.000000
4.648393 -0.731897 0.483635 67.000000
4.649075 -0.746628 0.483920 69.000000
4.647745 -0.761048 0.484015 78.000000
4.646369 -0.775467 0.484110 65.000000
4.648876 -0.790551 0.484585 57.000000
4.648390 -0.805150 0.484775 43.000000
4.640017 -0.818371 0.484205 12.000000
4.678961 0.030421 0.422028 34.000000
4.678035 0.016062 0.421945 113.000000
4.678063 0.001710 0.421945 118.000000
4.678046 -0.012642 0.421945 105.000000
4.683965 -0.027029 0.422440 135.000000
4.682863 -0.041390 0.422358 123.000000
4.684707 -0.055781 0.422523 114.000000
4.680528 -0.070093 0.422193 116.000000
4.673316 -0.084326 0.421616 110.000000
4.674032 -0.098684 0.421698 122.000000
4.663744 -0.112781 0.420873 102.000000
4.667361 -0.127198 0.421203 116.000000
4.668941 -0.141577 0.421368 136.000000
4.662508 -0.155701 0.420873 114.000000
4.662008 -0.170004 0.420873 131.000000
4.659473 -0.184227 0.420709 131.000000
4.660878 -0.198607 0.420873 95.000000
4.666220 -0.213178 0.421368 81.000000
4.662557 -0.227347 0.421121 93.000000
4.662834 -0.241702 0.421203 87.000000
4.664060 -0.256116 0.421368 79.000000
4.661263 -0.270309 0.421203 84.000000
4.663396 -0.284790 0.421451 108.000000
4.664489 -0.299224 0.421616 101.000000
4.662555 -0.313466 0.421533 92.000000
4.660576 -0.327699 0.421451 90.000000
4.661538 -0.342142 0.421616 102.000000
4.659472 -0.356366 0.421533 92.000000
4.660344 -0.370817 0.421698 110.000000
4.661170 -0.385278 0.421863 89.000000
4.663939 -0.399917 0.422193 71.000000
4.660705 -0.414047 0.422028 69.000000
4.657427 -0.428162 0.421863 87.000000
4.654108 -0.442260 0.421698 98.000000
4.649753 -0.456244 0.421451 74.000000
4.648332 -0.470507 0.421451 86.000000
4.647858 -0.484869 0.421533 107.000000
4.649320 -0.499446 0.421781 93.000000
4.649748 -0.513927 0.421945 77.000000
4.651120 -0.528527 0.422193 85.000000
4.649477 -0.542794 0.422193 106.000000
4.647789 -0.557056 0.422193 88.000000
4.648037 -0.571556 0.422358 68.000000
4.646261 -0.585813 0.422358 90.000000
4.641477 -0.599682 0.422110 81.000000
4.638627 -0.613788 0.422028 83.000000
4.636722 -0.628016 0.422028 81.000000
4.636748 -0.642512 0.422193 74.000000
4.637715 -0.657154 0.422440 86.000000
4.635677 -0.671379 0.422440 76.000000
4.634582 -0.685744 0.422523 82.000000
4.627529 -0.699215 0.422110 55.000000
4.631272 -0.714321 0.422605 73.000000
4.631027 -0.728836 0.422770 81.000000
4.630737 -0.743356 0.422935 71.000000
4.635319 -0.758687 0.423512 71.000000
4.637885 -0.773725 0.423925 72.000000
4.628612 -0.786780 0.423347 40.000000
4.633050 -0.802168 0.423925 48.000000
4.618790 -0.814301 0.422935 21.000000
4.646279 0.028256 0.364044 15.000000
4.664298 0.014060 0.365315 113.000000
4.665318 -0.000250 0.365386 87.000000
4.666291 -0.014566 0.365457 88.000000
4.668221 -0.028893 0.365598 140.000000
4.671102 -0.043242 0.365810 110.000000
4.669950 -0.057561 0.365739 105.000000
4.668754 -0.071872 0.365669 106.000000
4.663525 -0.086105 0.365315 95.000000
4.658252 -0.100306 0.364962 111.000000
4.660914 -0.114670 0.365174 130.000000
4.656552 -0.128859 0.364892 121.000000
4.656135 -0.143145 0.364892 97.000000
4.658665 -0.157529 0.365104 117.000000
4.656166 -0.171748 0.364962 90.000000
4.657610 -0.186111 0.365104 104.000000
4.658014 -0.200442 0.365174 85.000000
4.656380 -0.214686 0.365104 96.000000
4.656696 -0.229020 0.365174 91.000000
4.659956 -0.243512 0.365457 81.000000
4.659188 -0.257808 0.365457 85.000000
4.659370 -0.272159 0.365527 90.000000
4.654531 -0.286208 0.365245 78.000000
4.652636 -0.300423 0.365174 80.000000
4.651692 -0.314695 0.365174 78.000000
4.648715 -0.328825 0.365033 66.000000
4.651663 -0.343378 0.365315 111.000000
4.647604 -0.357419 0.365104 68.000000
4.646485 -0.371676 0.365104 102.000000
4.647312 -0.386094 0.365245 93.000000
4.650081 -0.400691 0.365527 80.000000
4.645849 -0.414690 0.365315 102.000000
4.644554 -0.428942 0.365315 103.000000
4.642224 -0.443094 0.365245 102.000000
4.641835 -0.457432 0.365315 64.000000
4.642395 -0.471872 0.365457 89.000000
4.641917 -0.486216 0.365527 77.000000
4.641396 -0.500562 0.365598 100.000000
4.640830 -0.514909 0.365669 66.000000
4.638237 -0.529032 0.365598 72.000000
4.635602 -0.543143 0.365527 66.000000
4.637874 -0.557838 0.365810 62.000000
4.633172 -0.571698 0.365598 67.000000
4.633375 -0.586160 0.365739 59.000000
4.633533 -0.600628 0.365880 65.000000
4.626724 -0.614186 0.365527 74.000000
4.626795 -0.628645 0.365669 79.000000
4.628798 -0.643386 0.365951 70.000000
4.628777 -0.657864 0.366092 62.000000
4.628711 -0.672348 0.366234 68.000000
4.625639 -0.686399 0.366163 58.000000
4.622526 -0.700438 0.366092 77.000000
4.621341 -0.714769 0.366163 63.000000
4.619126 -0.728943 0.366163 65.000000
4.617853 -0.743270 0.366234 59.000000
4.623426 -0.758724 0.366799 78.000000
4.628947 -0.774219 0.367364 58.000000
4.633433 -0.789588 0.367858 50.000000
4.642784 -0.805844 0.368706 71.000000
4.617696 -0.816097 0.367081 41.000000
4.604371 -0.828319 0.366304 33.000000
4.535084 -0.830244 0.361502 13.000000
4.630830 0.057723 0.304726 10.000000
4.653945 0.043729 0.306062 82.000000
4.669032 0.029545 0.306934 120.000000
4.672096 0.015230 0.307108 141.000000
4.668127 0.000895 0.306875 143.000000
4.665112 -0.013417 0.306701 107.000000
4.662055 -0.027712 0.306527 133.000000
4.655958 -0.041960 0.306178 114.000000
4.655807 -0.056244 0.306178 122.000000
4.649623 -0.070436 0.305830 108.000000
4.649385 -0.084701 0.305830 111.000000
4.654094 -0.099071 0.306120 112.000000
4.656763 -0.113423 0.306295 96.000000
4.663378 -0.127901 0.306701 108.000000
4.663962 -0.142238 0.306759 108.000000
4.662506 -0.156512 0.306701 112.000000
4.661006 -0.170779 0.306643 113.000000
4.655472 -0.184880 0.306353 80.000000
4.655881 -0.199205 0.306411 88.000000
4.660234 -0.213717 0.306701 108.000000
4.657562 -0.227915 0.306585 97.000000
4.658835 -0.242307 0.306701 97.000000
4.657073 -0.256544 0.306643 100.000000
4.651280 -0.270541 0.306353 89.000000
4.650429 -0.284809 0.306353 107.000000
4.649533 -0.299075 0.306353 82.000000
4.649590 -0.313406 0.306411 81.000000
4.650598 -0.327809 0.306527 63.000000
4.651561 -0.342222 0.306643 93.000000
4.651485 -0.356568 0.306701 91.000000
4.651364 -0.370916 0.306759 80.000000
4.648215 -0.385020 0.306643 80.000000
4.646017 -0.399193 0.306585 97.000000
4.640793 -0.413090 0.306353 65.000000
4.640498 -0.427418 0.306411 79.000000
4.639165 -0.441653 0.306411 78.000000
4.636794 -0.455786 0.306353 71.000000
4.638354 -0.470311 0.306527 93.000000
4.636889 -0.484539 0.306527 99.000000
4.635381 -0.498763 0.306527 87.000000
4.634821 -0.513092 0.306585 98.000000
4.635209 -0.527535 0.306701 93.000000
4.634560 -0.541869 0.306759 97.000000
4.634859 -0.556323 0.306875 87.000000
4.635111 -0.570784 0.306992 60.000000
4.632348 -0.584877 0.306934 86.000000
4.629542 -0.598957 0.306875 88.000000
4.625703 -0.612895 0.306759 85.000000
4.622812 -0.626950 0.306701 93.000000
4.622844 -0.641404 0.306817 111.000000
4.622831 -0.655864 0.306934 85.000000
4.622774 -0.670331 0.307050 87.000000
4.619708 -0.684363 0.306992 81.000000
4.616600 -0.698384 0.306934 65.000000
4.616408 -0.712849 0.307050 63.000000
4.614200 -0.727009 0.307050 68.000000
4.611948 -0.741161 0.307050 73.000000
4.613592 -0.755953 0.307282 71.000000
4.613221 -0.770433 0.307398 55.000000
4.612803 -0.784918 0.307514 53.000000
4.612341 -0.799407 0.307631 58.000000
4.604951 -0.812686 0.307340 45.000000
4.604402 -0.827163 0.307456 29.000000
4.606752 -0.842183 0.307747 9.000000
4.667896 0.027581 0.251504 24.000000
4.659967 0.013235 0.251134 73.000000
4.654991 -0.001062 0.250903 83.000000
4.652968 -0.015337 0.250811 70.000000
4.652899 -0.029612 0.250811 74.000000
4.652786 -0.043887 0.250811 84.000000
4.652630 -0.058161 0.250811 95.000000
4.652429 -0.072435 0.250811 94.000000
4.651186 -0.086689 0.250764 84.000000
4.649899 -0.100937 0.250718 98.000000
4.649569 -0.115202 0.250718 83.000000
4.648194 -0.129439 0.250672 117.000000
4.650771 -0.143791 0.250811 94.000000
4.650308 -0.158058 0.250811 106.000000
4.650799 -0.172361 0.250857 98.000000
4.652244 -0.186709 0.250949 125.000000
4.648656 -0.200852 0.250811 95.000000
4.646022 -0.215021 0.250718 116.000000
4.644343 -0.229225 0.250672 74.000000
4.641623 -0.243368 0.250579 94.000000
4.638859 -0.257497 0.250487 79.000000
4.639045 -0.271786 0.250533 97.000000
4.638189 -0.286017 0.250533 96.000000
4.637290 -0.300246 0.250533 89.000000
4.639337 -0.314673 0.250672 74.000000
4.637353 -0.328835 0.250626 72.000000
4.636322 -0.343060 0.250626 63.000000
4.636244 -0.357359 0.250672 68.000000
4.638113 -0.371820 0.250811 75.000000
4.635955 -0.385965 0.250764 63.000000
4.636740 -0.400358 0.250857 80.000000
4.637480 -0.414759 0.250949 77.000000
4.638175 -0.429168 0.251042 62.000000
4.638825 -0.443585 0.251134 59.000000
4.639431 -0.458011 0.251227 78.000000
4.636015 -0.472040 0.251134 74.000000
4.633553 -0.486157 0.251088 70.000000
4.630053 -0.500156 0.250996 64.000000
4.626511 -0.514138 0.250903 65.000000
4.623919 -0.528217 0.250857 77.000000
4.619300 -0.542052 0.250718 49.000000
4.618608 -0.556340 0.250764 60.000000
4.621836 -0.571119 0.250996 49.000000
4.625017 -0.585922 0.251227 48.000000
4.623198 -0.600109 0.251227 48.000000
4.621335 -0.614290 0.251227 58.000000
4.620419 -0.628599 0.251273 71.000000
4.619457 -0.642909 0.251319 60.000000
4.615486 -0.656797 0.251227 64.000000
4.611472 -0.670667 0.251134 67.000000
4.607416 -0.684519 0.251042 65.000000
4.612208 -0.699698 0.251365 55.000000
4.613001 -0.714303 0.251504 52.000000
4.611775 -0.728607 0.251550 76.000000
4.610504 -0.742911 0.251597 71.000000
4.612146 -0.757699 0.251782 57.000000
4.612756 -0.772340 0.251920 56.000000
4.610364 -0.786488 0.251920 45.000000
4.608914 -0.800799 0.251967 42.000000
4.605452 -0.814762 0.251920 36.000000
4.634325 0.014304 0.192621 68.000000
4.648338 0.000085 0.193095 102.000000
4.649316 -0.014179 0.193129 109.000000
4.641255 -0.028394 0.192858 93.000000
4.646144 -0.042679 0.193027 116.000000
4.639995 -0.056859 0.192824 92.000000
4.643795 -0.071156 0.192959 117.000000
4.642556 -0.085384 0.192926 129.000000
4.632280 -0.099411 0.192587 89.000000
4.636950 -0.113745 0.192756 95.000000
4.638577 -0.128026 0.192824 91.000000
4.640160 -0.142318 0.192892 94.000000
4.642698 -0.156654 0.192993 108.000000
4.640198 -0.170824 0.192926 96.000000
4.638653 -0.185019 0.192892 85.000000
4.633071 -0.199034 0.192722 95.000000
4.630443 -0.213155 0.192655 99.000000
4.630764 -0.227409 0.192689 77.000000
4.630045 -0.241615 0.192689 84.000000
4.631278 -0.255929 0.192756 76.000000
4.631469 -0.270195 0.192790 107.000000
4.631616 -0.284464 0.192824 71.000000
4.630721 -0.298672 0.192824 86.000000
4.633772 -0.313148 0.192959 75.000000
4.631792 -0.327292 0.192926 78.000000
4.633756 -0.341721 0.193027 79.000000
4.635675 -0.356166 0.193129 67.000000
4.637550 -0.370625 0.193230 105.000000
4.633403 -0.384603 0.193129 77.000000
4.632202 -0.398816 0.193129 97.000000
4.628965 -0.412848 0.193061 74.000000
4.627677 -0.427048 0.193061 75.000000
4.629329 -0.441528 0.193163 96.000000
4.632926 -0.456219 0.193332 89.000000
4.632498 -0.470531 0.193366 74.000000
4.635009 -0.485158 0.193501 87.000000
4.630518 -0.499054 0.193400 94.000000
4.623999 -0.512707 0.193230 88.000000
4.619424 -0.526551 0.193129 109.000000
4.614810 -0.540372 0.193027 79.000000
4.613131 -0.554527 0.193027 82.000000
4.612400 -0.568800 0.193061 82.000000
4.612616 -0.583199 0.193129 67.000000
4.609814 -0.597219 0.193095 81.000000
4.607960 -0.611359 0.193095 90.000000
4.604082 -0.625224 0.193027 67.000000
4.601152 -0.639208 0.192993 71.000000
4.598180 -0.653181 0.192959 73.000000
4.596154 -0.667285 0.192959 72.000000
4.598040 -0.681969 0.193095 86.000000
4.596914 -0.696222 0.193129 66.000000
4.598707 -0.710933 0.193264 76.000000
4.610325 -0.727220 0.193738 40.000000
4.608072 -0.741361 0.193738 50.000000
4.611694 -0.756466 0.193941 62.000000
4.616251 -0.771765 0.194178 56.000000
4.617803 -0.786595 0.194314 50.000000
4.612413 -0.800246 0.194212 37.000000
4.610921 -0.814567 0.194246 39.000000
4.551349 -0.818445 0.192282 15.000000
4.642849 0.014797 0.136336 34.000000
4.644872 0.000554 0.136379 73.000000
4.643853 -0.013693 0.136358 70.000000
4.645788 -0.027952 0.136401 64.000000
4.646680 -0.042214 0.136423 67.000000
4.641531 -0.056410 0.136314 102.000000
4.643335 -0.070680 0.136358 88.000000
4.641097 -0.084889 0.136314 84.000000
4.640814 -0.099127 0.136314 79.000000
4.639489 -0.113340 0.136293 104.000000
4.640119 -0.127601 0.136314 87.000000
4.636708 -0.141745 0.136249 106.000000
4.636251 -0.155970 0.136249 105.000000
4.633753 -0.170120 0.136206 92.000000
4.634208 -0.184375 0.136228 88.000000
4.628626 -0.198378 0.136120 95.000000
4.627996 -0.212578 0.136120 90.000000
4.626323 -0.226727 0.136098 79.000000
4.625606 -0.240919 0.136098 93.000000
4.627840 -0.255273 0.136163 82.000000
4.633023 -0.269818 0.136293 67.000000
4.627184 -0.283726 0.136184 80.000000
4.629285 -0.298112 0.136249 66.000000
4.622364 -0.311911 0.136120 78.000000
4.624377 -0.326301 0.136184 66.000000
4.620363 -0.340267 0.136120 83.000000
4.621291 -0.354593 0.136163 68.000000
4.618188 -0.368611 0.136120 80.000000
4.619028 -0.382942 0.136163 79.000000
4.616836 -0.397026 0.136141 64.000000
4.613605 -0.411011 0.136098 67.000000
4.613317 -0.425255 0.136120 68.000000
4.612986 -0.439501 0.136141 69.000000
4.615595 -0.454042 0.136228 69.000000
4.618160 -0.468603 0.136314 79.000000
4.617694 -0.482873 0.136336 76.000000
4.620168 -0.497465 0.136423 65.000000
4.616632 -0.511417 0.136379 71.000000
4.626962 -0.526933 0.136639 40.000000
4.610428 -0.539387 0.136314 68.000000
4.606767 -0.553291 0.136271 77.000000
4.610009 -0.568032 0.136379 64.000000
4.611220 -0.582548 0.136444 59.000000
4.613378 -0.597205 0.136531 64.000000
4.613506 -0.611618 0.136574 80.000000
4.615571 -0.626306 0.136661 56.000000
4.611646 -0.640189 0.136617 63.000000
4.607681 -0.654053 0.136574 61.000000
4.598727 -0.667183 0.136423 80.000000
4.594680 -0.680996 0.136379 72.000000
4.599489 -0.696135 0.136531 52.000000
4.596344 -0.710090 0.136509 54.000000
4.593156 -0.724033 0.136487 49.000000
4.594862 -0.738755 0.136574 65.000000
4.595533 -0.753333 0.136639 67.000000
4.596159 -0.767922 0.136704 64.000000
4.596738 -0.782521 0.136769 48.000000
4.594316 -0.796620 0.136769 43.000000
4.591850 -0.810712 0.136769 39.000000
4.597214 -0.826208 0.136942 22.000000
4.630778 0.013487 0.078871 44.000000
4.639797 -0.000722 0.078954 93.000000
4.636773 -0.014947 0.078927 100.000000
4.635705 -0.029166 0.078917 99.000000
4.635594 -0.043388 0.078917 128.000000
4.634440 -0.057597 0.078908 97.000000
4.636241 -0.071846 0.078927 106.000000
4.635999 -0.086069 0.078927 117.000000
4.635713 -0.100292 0.078927 111.000000
4.632384 -0.114439 0.078899 86.000000
4.632011 -0.128651 0.078899 111.000000
4.630596 -0.142830 0.078890 112.000000
4.629136 -0.157002 0.078880 106.000000
4.629632 -0.171240 0.078890 114.000000
4.627086 -0.185363 0.078871 82.000000
4.626496 -0.199557 0.078871 98.000000
4.628859 -0.213889 0.078899 117.000000
4.630178 -0.228188 0.078917 113.000000
4.628457 -0.242339 0.078908 97.000000
4.629689 -0.256649 0.078927 80.000000
4.627882 -0.270793 0.078917 90.000000
4.628027 -0.285052 0.078927 87.000000
4.624137 -0.299055 0.078899 89.000000
4.622200 -0.313172 0.078890 82.000000
4.620220 -0.327281 0.078880 79.000000
4.621189 -0.341602 0.078899 106.000000
4.617128 -0.355547 0.078871 69.000000
4.618009 -0.369870 0.078890 79.000000
4.619842 -0.384285 0.078917 88.000000
4.622627 -0.398801 0.078954 72.000000
4.622377 -0.413070 0.078964 92.000000
4.623080 -0.427434 0.078982 77.000000
4.621747 -0.441615 0.078982 86.000000
4.620370 -0.455793 0.078982 87.000000
4.618950 -0.469966 0.078982 97.000000
4.617486 -0.484134 0.078982 98.000000
4.615980 -0.498298 0.078982 101.000000
4.613435 -0.512347 0.078973 96.000000
4.608861 -0.526158 0.078945 90.000000
4.605239 -0.540062 0.078927 85.000000
4.603560 -0.554188 0.078927 97.000000
4.603823 -0.568554 0.078945 87.000000
4.603049 -0.582802 0.078954 79.000000
4.604214 -0.597307 0.078982 76.000000
4.605334 -0.611825 0.079010 80.000000
4.605417 -0.626221 0.079028 82.000000
4.604465 -0.640485 0.079038 81.000000
4.605447 -0.655031 0.079065 80.000000
4.603416 -0.669157 0.079065 73.000000
4.604309 -0.683718 0.079093 84.000000
4.604167 -0.698141 0.079112 83.000000
4.600027 -0.711957 0.079093 62.000000
4.594859 -0.725598 0.079065 59.000000
4.590636 -0.739373 0.079047 72.000000
4.584400 -0.752805 0.079010 58.000000
4.579109 -0.766371 0.078982 51.000000
4.573780 -0.779911 0.078954 52.000000
4.567424 -0.793255 0.078917 39.000000
4.568907 -0.807961 0.078954 50.000000
4.566408 -0.821974 0.078954 34.000000
4.660908 0.014860 0.020776 24.000000
4.630931 0.000549 0.020875 71.000000
4.630911 -0.013659 0.020875 65.000000
4.627848 -0.027849 0.020885 92.000000
4.630740 -0.042073 0.020875 80.000000
4.632589 -0.056304 0.020869 63.000000
4.633395 -0.070531 0.020866 65.000000
4.632156 -0.084728 0.020869 80.000000
4.631875 -0.098938 0.020869 78.000000
4.629550 -0.113100 0.020875 85.000000
4.629181 -0.127303 0.020875 83.000000
4.627769 -0.141474 0.020879 64.000000
4.627314 -0.155671 0.020879 82.000000
4.627813 -0.169903 0.020875 61.000000
4.626272 -0.184061 0.020879 41.000000
4.621688 -0.198083 0.020892 65.000000
4.621059 -0.212261 0.020892 72.000000
4.619387 -0.226389 0.020895 65.000000
4.611681 -0.240197 0.020919 90.000000
4.612919 -0.254454 0.020912 81.000000
4.615112 -0.268779 0.020902 60.000000
4.612269 -0.282815 0.020909 59.000000
4.615371 -0.297220 0.020895 71.000000
4.601467 -0.310506 0.020938 46.000000
4.607476 -0.325113 0.020915 53.000000
4.610445 -0.339539 0.020902 79.000000
4.606391 -0.353454 0.020912 53.000000
4.612263 -0.368140 0.020889 75.000000
4.609118 -0.382123 0.020895 63.000000
4.607924 -0.396262 0.020895 68.000000
4.611667 -0.410839 0.020879 49.000000
4.623331 -0.426176 0.020836 72.000000
4.626979 -0.440831 0.020819 69.000000
4.627595 -0.455220 0.020812 55.000000
4.628167 -0.469616 0.020806 54.000000
4.629688 -0.484124 0.020796 51.000000
4.625198 -0.498005 0.020806 53.000000
4.615697 -0.511314 0.020832 40.000000
4.617087 -0.525811 0.020822 54.000000
4.620419 -0.540553 0.020806 56.000000
4.612781 -0.554012 0.020826 49.000000
4.613045 -0.568405 0.020819 42.000000
4.612271 -0.582680 0.020816 36.000000
4.621371 -0.598237 0.020779 19.000000
4.597795 -0.623898 0.020846 22.000000
4.876152 -0.283639 -0.040302 60.000000
4.863283 -0.297863 -0.040113 100.000000
4.859353 -0.312589 -0.040066 105.000000
4.853383 -0.327159 -0.039988 101.000000
4.848367 -0.341766 -0.039925 105.000000
4.842310 -0.356272 -0.039846 94.000000
4.835212 -0.370667 -0.039752 90.000000
4.831062 -0.385261 -0.039705 92.000000
4.825871 -0.399750 -0.039642 88.000000
4.825619 -0.414640 -0.039658 120.000000
4.821336 -0.429176 -0.039611 107.000000
4.819997 -0.443966 -0.039611 83.000000
4.821598 -0.459036 -0.039658 94.000000
4.826138 -0.474413 -0.039752 124.000000
4.827643 -0.489520 -0.039799 104.000000
4.834074 -0.505161 -0.039925 119.000000
4.843437 -0.521167 -0.040098 110.000000
4.849766 -0.536905 -0.040223 71.000000
4.866971 -0.553931 -0.040522 89.000000
4.878160 -0.570371 -0.040726 117.000000
4.875394 -0.585215 -0.040710 109.000000
4.890446 -0.602248 -0.040977 73.000000
4.932223 -0.622764 -0.041669 40.000000
4.912414 -0.255785 -0.099925 21.000000
4.894638 -0.269923 -0.099454 36.000000
4.892788 -0.284880 -0.099426 40.000000
4.846993 -0.297148 -0.098177 82.000000
4.847055 -0.312081 -0.098205 69.000000
4.831115 -0.325944 -0.097789 93.000000
4.824109 -0.340344 -0.097622 87.000000
4.820052 -0.354923 -0.097539 66.000000
4.813957 -0.369328 -0.097400 71.000000
4.808815 -0.383778 -0.097289 74.000000
4.804626 -0.398282 -0.097206 73.000000
4.802386 -0.412935 -0.097178 72.000000
4.802092 -0.427755 -0.097206 63.000000
4.800757 -0.442486 -0.097206 79.000000
4.801367 -0.457402 -0.097262 67.000000
4.800936 -0.472227 -0.097289 68.000000
4.802448 -0.487256 -0.097373 62.000000
4.809879 -0.502921 -0.097622 66.000000
4.817259 -0.518636 -0.097872 64.000000
4.818625 -0.533742 -0.097955 41.000000
4.844776 -0.551683 -0.098732 68.000000
4.855968 -0.568051 -0.099093 57.000000
4.863134 -0.584017 -0.099343 74.000000
4.888108 -0.602228 -0.100092 45.000000
4.901114 -0.619097 -0.100508 28.000000
4.879438 -0.253799 -0.160280 24.000000
4.877639 -0.268713 -0.160240 40.000000
4.856842 -0.282514 -0.159434 63.000000
4.848971 -0.296985 -0.159152 66.000000
4.840060 -0.311347 -0.158829 67.000000
4.824128 -0.325185 -0.158225 77.000000
4.814137 -0.339351 -0.157862 67.000000
4.806098 -0.353605 -0.157580 75.000000
4.798018 -0.367813 -0.157298 70.000000
4.795870 -0.382452 -0.157257 80.000000
4.790691 -0.396833 -0.157096 77.000000
4.789451 -0.411529 -0.157096 76.000000
4.787170 -0.426132 -0.157056 89.000000
4.789821 -0.441184 -0.157217 69.000000
4.787450 -0.455782 -0.157177 77.000000
4.789012 -0.470761 -0.157298 73.000000
4.791522 -0.485855 -0.157459 86.000000
4.793984 -0.500968 -0.157620 90.000000
4.798385 -0.516316 -0.157862 76.000000
4.810682 -0.532575 -0.158426 81.000000
4.818953 -0.548462 -0.158829 82.000000
4.833127 -0.565102 -0.159474 63.000000
4.840298 -0.580999 -0.159837 60.000000
4.857335 -0.598168 -0.160603 50.000000
4.879268 -0.616073 -0.161570 34.000000
4.880571 -0.255837 -0.219125 22.000000
4.850847 -0.269211 -0.217607 63.000000
4.849002 -0.284034 -0.217555 56.000000
4.832159 -0.297930 -0.216717 85.000000
4.827236 -0.312496 -0.216508 85.000000
4.817287 -0.326698 -0.216037 89.000000
4.810286 -0.341054 -0.215723 82.000000
4.799257 -0.355075 -0.215200 67.000000
4.796154 -0.369645 -0.215095 104.000000
4.789024 -0.383880 -0.214781 80.000000
4.794791 -0.399149 -0.215147 45.000000
4.794538 -0.413943 -0.215200 45.000000
4.788273 -0.428207 -0.214938 65.000000
4.788926 -0.443079 -0.215043 66.000000
4.787543 -0.457769 -0.215043 87.000000
4.787111 -0.472552 -0.215095 71.000000
4.788618 -0.487540 -0.215252 120.000000
4.784121 -0.501917 -0.215095 82.000000
4.793480 -0.517769 -0.215671 66.000000
4.803780 -0.533793 -0.216299 60.000000
4.815018 -0.549999 -0.216979 44.000000
4.816283 -0.565117 -0.217136 56.000000
4.824442 -0.581082 -0.217660 50.000000
4.822637 -0.595881 -0.217660 27.000000
4.825739 -0.611300 -0.217921 22.000000
4.834328 -0.251449 -0.276688 53.000000
4.822573 -0.265675 -0.275977 83.000000
4.816754 -0.280179 -0.275653 79.000000
4.810892 -0.294650 -0.275330 67.000000
4.801003 -0.308831 -0.274747 81.000000
4.794058 -0.323156 -0.274359 76.000000
4.788067 -0.337511 -0.274035 99.000000
4.785019 -0.352052 -0.273906 110.000000
4.783916 -0.366731 -0.273906 78.000000
4.782769 -0.381406 -0.273906 103.000000
4.781576 -0.396077 -0.273906 107.000000
4.780339 -0.410745 -0.273906 89.000000
4.779056 -0.425409 -0.273906 90.000000
4.776734 -0.439977 -0.273841 98.000000
4.776356 -0.454725 -0.273906 99.000000
4.775931 -0.469474 -0.273971 94.000000
4.773475 -0.484024 -0.273906 88.000000
4.777923 -0.499289 -0.274294 94.000000
4.779346 -0.514265 -0.274488 120.000000
4.781712 -0.529365 -0.274747 125.000000
4.800887 -0.546404 -0.276106 85.000000
4.810091 -0.562406 -0.276818 98.000000
4.820232 -0.578589 -0.277594 79.000000
4.825367 -0.594229 -0.278047 81.000000
4.831442 -0.610031 -0.278565 50.000000
4.837864 -0.238728 -0.334466 43.000000
4.826156 -0.252997 -0.333624 67.000000
4.831331 -0.268133 -0.334083 53.000000
4.823518 -0.282547 -0.333547 58.000000
4.802724 -0.296122 -0.332016 99.000000
4.801793 -0.310855 -0.332016 88.000000
4.797832 -0.325384 -0.331787 82.000000
4.796812 -0.340102 -0.331787 69.000000
4.795746 -0.354817 -0.331787 68.000000
4.789664 -0.369146 -0.331404 90.000000
4.787515 -0.383759 -0.331327 62.000000
4.787309 -0.398528 -0.331404 74.000000
4.788050 -0.413384 -0.331557 68.000000
4.785767 -0.427983 -0.331481 73.000000
4.783438 -0.442572 -0.331404 61.000000
4.781065 -0.457151 -0.331327 60.000000
4.782617 -0.472110 -0.331557 62.000000
4.788090 -0.487486 -0.332093 77.000000
4.791530 -0.502692 -0.332476 84.000000
4.792939 -0.517711 -0.332705 71.000000
4.794302 -0.532742 -0.332935 98.000000
4.800570 -0.548352 -0.333547 75.000000
4.803816 -0.563657 -0.333930 72.000000
4.816913 -0.580177 -0.335078 57.000000
4.818079 -0.595319 -0.335308 47.000000
4.832057 -0.612099 -0.336533 33.000000
4.683814 -0.607961 -0.325204 10.000000
4.852931 -0.239184 -0.395196 38.000000
4.812386 -0.251985 -0.391647 67.000000
4.806618 -0.266472 -0.391204 81.000000
4.801801 -0.280984 -0.390849 75.000000
4.795945 -0.295408 -0.390405 97.000000
4.793028 -0.309992 -0.390228 103.000000
4.789073 -0.324493 -0.389962 90.000000
4.789049 -0.339255 -0.390050 120.000000
4.787985 -0.353946 -0.390050 95.000000
4.789856 -0.368863 -0.390316 90.000000
4.797638 -0.384273 -0.391115 104.000000
4.806363 -0.399816 -0.392002 84.000000
4.815037 -0.415417 -0.392889 90.000000
4.822669 -0.430986 -0.393688 102.000000
4.830251 -0.446606 -0.394486 115.000000
4.840756 -0.462561 -0.395551 145.000000
4.821472 -0.475648 -0.393954 106.000000
4.806117 -0.489025 -0.392712 81.000000
4.797659 -0.503040 -0.392091 98.000000
4.791142 -0.517222 -0.391647 99.000000
4.786563 -0.531589 -0.391381 116.000000
4.784909 -0.546271 -0.391381 102.000000
4.784200 -0.561064 -0.391470 116.000000
4.796301 -0.577407 -0.392712 73.000000
4.809335 -0.593952 -0.394043 68.000000
4.818360 -0.610081 -0.395019 54.000000
4.891536 -0.634606 -0.401761 25.000000
4.829480 -0.252328 -0.454299 41.000000
4.814776 -0.266378 -0.452881 60.000000
4.807977 -0.280802 -0.452274 60.000000
4.804114 -0.295368 -0.451970 76.000000
4.796236 -0.309659 -0.451262 85.000000
4.793278 -0.324238 -0.451059 89.000000
4.796230 -0.339222 -0.451464 62.000000
4.803104 -0.354519 -0.452274 83.000000
4.813898 -0.370166 -0.453489 74.000000
4.827615 -0.386119 -0.455007 65.000000
4.838305 -0.401913 -0.456222 70.000000
4.846961 -0.417607 -0.457234 50.000000
4.858540 -0.433622 -0.458550 40.000000
4.852233 -0.448069 -0.458044 52.000000
4.843903 -0.462294 -0.457336 47.000000
4.832561 -0.476179 -0.456323 56.000000
4.821180 -0.489999 -0.455311 58.000000
4.809759 -0.503754 -0.454299 42.000000
4.803245 -0.517976 -0.453793 61.000000
4.796689 -0.532162 -0.453286 61.000000
4.794045 -0.546763 -0.453185 66.000000
4.805192 -0.562971 -0.454501 47.000000
4.808381 -0.578303 -0.455007 46.000000
4.810533 -0.593538 -0.455412 36.000000
4.901470 -0.620008 -0.464928 25.000000
4.856125 -0.253432 -0.515201 29.000000
4.835483 -0.267231 -0.512941 101.000000
4.825714 -0.281543 -0.511923 83.000000
4.819869 -0.296042 -0.511358 69.000000
4.820921 -0.310956 -0.511584 124.000000
4.813996 -0.325342 -0.510906 106.000000
4.812975 -0.340110 -0.510906 102.000000
4.815873 -0.355167 -0.511358 103.000000
4.821695 -0.370474 -0.512150 119.000000
4.828459 -0.385899 -0.513054 118.000000
4.836164 -0.401451 -0.514071 79.000000
4.835900 -0.416371 -0.514184 37.000000
4.863514 -0.463883 -0.517801 107.000000
4.854157 -0.478023 -0.516897 105.000000
4.843771 -0.492008 -0.515880 108.000000
4.836310 -0.506245 -0.515201 102.000000
4.823868 -0.519909 -0.513958 125.000000
4.818300 -0.534267 -0.513506 125.000000
4.811702 -0.548484 -0.512941 135.000000
4.811971 -0.563475 -0.513167 103.000000
4.816138 -0.578947 -0.513845 97.000000
4.814339 -0.593720 -0.513845 106.000000
4.833195 -0.611107 -0.516219 49.000000
4.878601 -0.254883 -0.578980 39.000000
4.843124 -0.267939 -0.574593 82.000000
4.856146 -0.283603 -0.576348 60.000000
4.837428 -0.297409 -0.574092 86.000000
4.833523 -0.312057 -0.573716 96.000000
4.830563 -0.326751 -0.573465 107.000000
4.834486 -0.341918 -0.574092 76.000000
4.836382 -0.356967 -0.574468 97.000000
4.844168 -0.372486 -0.575596 73.000000
4.844980 -0.387503 -0.575846 69.000000
4.856622 -0.403430 -0.577476 47.000000
4.875997 -0.465349 -0.580609 22.000000
4.869609 -0.479821 -0.579982 63.000000
4.863179 -0.494258 -0.579356 60.000000
4.858680 -0.508866 -0.578980 78.000000
4.849205 -0.522921 -0.577977 70.000000
4.837716 -0.536704 -0.576724 72.000000
4.837033 -0.551656 -0.576849 69.000000
4.839259 -0.566954 -0.577350 69.000000
4.844392 -0.582625 -0.578228 56.000000
4.854398 -0.598940 -0.579732 50.000000
4.854506 -0.614079 -0.579982 42.000000
4.873043 -0.267609 -0.638837 57.000000
4.869233 -0.282386 -0.638425 76.000000
4.849558 -0.296174 -0.635813 93.000000
4.828858 -0.309781 -0.633064 136.000000
4.833814 -0.324994 -0.633889 126.000000
4.840699 -0.340379 -0.634988 129.000000
4.857413 -0.356535 -0.637462 116.000000
4.858272 -0.371587 -0.637737 92.000000
4.874882 -0.387906 -0.640211 88.000000
4.900432 -0.480862 -0.644884 66.000000
4.899919 -0.495994 -0.645022 103.000000
4.887538 -0.509893 -0.643510 87.000000
4.880041 -0.524250 -0.642685 85.000000
4.870533 -0.538348 -0.641586 102.000000
4.860002 -0.552281 -0.640349 115.000000
4.850414 -0.566269 -0.639249 128.000000
4.851604 -0.581501 -0.639661 112.000000
4.890104 -0.601343 -0.645297 62.000000
4.891975 -0.256432 -0.700550 73.000000
4.897089 -0.271766 -0.701445 138.000000
4.882413 -0.285983 -0.699357 121.000000
4.876577 -0.300658 -0.698611 96.000000
4.882540 -0.316063 -0.699655 76.000000
4.874641 -0.330574 -0.698611 109.000000
4.877549 -0.345807 -0.699207 104.000000
4.882382 -0.361205 -0.700103 89.000000
4.848716 -0.373683 -0.695179 33.000000
4.949248 -0.503855 -0.712038 30.000000
4.951613 -0.519448 -0.712635 51.000000
4.899858 -0.529233 -0.705026 98.000000
4.898211 -0.544263 -0.705026 105.000000
4.899466 -0.559624 -0.705473 87.000000
4.897726 -0.574653 -0.705473 84.000000
4.898884 -0.590030 -0.705921 93.000000
4.902939 -0.605783 -0.706816 89.000000
4.889286 -0.619334 -0.705026 28.000000
4.971391 -0.243299 -0.773636 23.000000
4.916413 -0.255726 -0.764776 92.000000
4.902795 -0.270101 -0.762682 140.000000
4.897016 -0.284854 -0.761877 113.000000
4.883314 -0.299091 -0.759782 143.000000
4.884343 -0.314199 -0.760105 136.000000
4.888279 -0.329514 -0.760910 130.000000
4.902013 -0.345552 -0.763326 126.000000
4.913725 -0.361532 -0.765421 116.000000
4.929322 -0.377889 -0.768159 79.000000
4.953911 -0.502334 -0.773958 49.000000
4.935660 -0.515785 -0.771220 98.000000
4.932092 -0.530714 -0.770898 105.000000
4.930440 -0.545843 -0.770898 139.000000
4.925801 -0.560631 -0.770414 135.000000
4.922097 -0.575511 -0.770092 110.000000
4.917369 -0.590256 -0.769609 129.000000
4.916514 -0.605461 -0.769770 112.000000
4.920508 -0.621284 -0.770736 80.000000
