ply
format ascii 1.0
element vertex 872
property float x
property float y
property float z
property float intensity
end_header
4.649588 -0.356422 0.764779 24.000000
4.714454 -0.375953 0.775156 82.000000
4.692603 -0.388700 0.771903 42.000000
4.712316 -0.288101 0.715908 26.000000
4.690668 -0.301230 0.712906 66.000000
4.692684 -0.315818 0.713335 80.000000
4.696629 -0.330560 0.714049 72.000000
4.694605 -0.344895 0.713906 87.000000
4.697473 -0.359598 0.714478 88.000000
4.700294 -0.374321 0.715050 85.000000
4.701097 -0.388902 0.715336 98.000000
4.705798 -0.403829 0.716194 82.000000
4.707494 -0.418527 0.716623 86.000000
4.709145 -0.433238 0.717052 62.000000
4.693999 -0.446375 0.715050 40.000000
4.680767 -0.229053 0.653560 48.000000
4.687963 -0.243825 0.654608 69.000000
4.686203 -0.258151 0.654477 92.000000
4.693306 -0.272988 0.655526 69.000000
4.692446 -0.287386 0.655526 79.000000
4.694510 -0.301972 0.655919 77.000000
4.690595 -0.316173 0.655526 107.000000
4.690591 -0.330632 0.655657 118.000000
4.692521 -0.345239 0.656050 122.000000
4.695394 -0.359938 0.656574 106.000000
4.697232 -0.374578 0.656967 109.000000
4.698037 -0.389151 0.657229 107.000000
4.696821 -0.403562 0.657229 105.000000
4.697536 -0.418146 0.657491 88.000000
4.692282 -0.432192 0.656967 99.000000
4.691921 -0.446680 0.657098 83.000000
4.690528 -0.461072 0.657098 78.000000
4.695009 -0.476061 0.657884 55.000000
4.690569 -0.490153 0.657491 61.000000
4.676906 -0.126975 0.594670 34.000000
4.653668 -0.140639 0.591934 112.000000
4.656192 -0.155014 0.592291 105.000000
4.657679 -0.169370 0.592529 112.000000
4.657137 -0.183658 0.592529 123.000000
4.656552 -0.197945 0.592529 104.000000
4.655923 -0.212231 0.592529 90.000000
4.654258 -0.226466 0.592410 102.000000
4.658499 -0.240999 0.593005 108.000000
4.664678 -0.255669 0.593837 103.000000
4.672792 -0.270493 0.594907 105.000000
4.677887 -0.285188 0.595621 119.000000
4.680954 -0.299791 0.596097 104.000000
4.682984 -0.314350 0.596453 96.000000
4.682988 -0.328785 0.596572 100.000000
4.684928 -0.343367 0.596929 94.000000
4.681873 -0.357588 0.596691 123.000000
4.684713 -0.372264 0.597167 93.000000
4.686517 -0.386879 0.597524 102.000000
4.691245 -0.401762 0.598237 115.000000
4.696913 -0.416765 0.599070 92.000000
4.699568 -0.431535 0.599545 98.000000
4.700198 -0.446138 0.599783 89.000000
4.697819 -0.460460 0.599664 88.000000
4.694408 -0.474671 0.599427 88.000000
4.695893 -0.489379 0.599783 72.000000
4.698318 -0.504206 0.600259 65.000000
4.700697 -0.519053 0.600735 63.000000
4.701056 -0.533696 0.600972 73.000000
4.729970 -0.551674 0.604659 38.000000
4.630420 -0.097760 0.531895 64.000000
4.636063 -0.112110 0.532536 90.000000
4.636691 -0.126360 0.532643 79.000000
4.639263 -0.140675 0.532963 89.000000
4.640797 -0.154974 0.533177 86.000000
4.642286 -0.169283 0.533390 87.000000
4.642739 -0.183564 0.533497 121.000000
4.643147 -0.197850 0.533604 96.000000
4.647485 -0.212321 0.534138 84.000000
4.649791 -0.226724 0.534458 115.000000
4.654038 -0.241246 0.534992 95.000000
4.662211 -0.256014 0.535953 92.000000
4.667359 -0.270663 0.536594 93.000000
4.672462 -0.285345 0.537234 81.000000
4.674541 -0.299869 0.537555 125.000000
4.673599 -0.314209 0.537555 89.000000
4.672613 -0.328546 0.537555 96.000000
4.672575 -0.342953 0.537662 98.000000
4.674475 -0.357514 0.537982 96.000000
4.678311 -0.372248 0.538516 102.000000
4.683093 -0.387091 0.539157 92.000000
4.687827 -0.401967 0.539797 100.000000
4.693504 -0.416964 0.540545 90.000000
4.697153 -0.431817 0.541079 88.000000
4.699765 -0.446602 0.541506 88.000000
4.701342 -0.461310 0.541826 82.000000
4.702872 -0.476032 0.542147 95.000000
4.704356 -0.490768 0.542467 85.000000
4.704806 -0.505411 0.542681 92.000000
4.704221 -0.519952 0.542787 95.000000
4.702603 -0.534382 0.542787 80.000000
4.698967 -0.548576 0.542574 73.000000
4.693313 -0.562516 0.542147 65.000000
4.699460 -0.577884 0.543001 50.000000
4.689774 -0.591303 0.542147 57.000000
4.706672 -0.608110 0.544175 15.000000
4.626938 -0.027039 0.476132 59.000000
4.618869 -0.041165 0.475372 98.000000
4.621708 -0.055370 0.475657 102.000000
4.626493 -0.069623 0.476132 87.000000
4.628248 -0.083852 0.476322 92.000000
4.630954 -0.098113 0.476607 94.000000
4.632622 -0.112368 0.476797 113.000000
4.628275 -0.126472 0.476417 90.000000
4.628860 -0.140701 0.476512 114.000000
4.625422 -0.154803 0.476227 117.000000
4.624926 -0.168992 0.476227 119.000000
4.627369 -0.183298 0.476512 95.000000
4.630764 -0.197663 0.476892 108.000000
4.635108 -0.212095 0.477367 81.000000
4.637418 -0.226459 0.477652 96.000000
4.642667 -0.240994 0.478222 78.000000
4.645881 -0.255454 0.478602 107.000000
4.649051 -0.269936 0.478982 92.000000
4.652175 -0.284439 0.479361 91.000000
4.655255 -0.298965 0.479741 96.000000
4.659282 -0.313579 0.480216 81.000000
4.661277 -0.328081 0.480501 93.000000
4.664220 -0.342670 0.480881 101.000000
4.668110 -0.357357 0.481356 89.000000
4.669969 -0.371913 0.481641 108.000000
4.670790 -0.386402 0.481831 113.000000
4.673550 -0.401070 0.482211 90.000000
4.672297 -0.415406 0.482211 104.000000
4.671001 -0.429739 0.482211 83.000000
4.669661 -0.444067 0.482211 85.000000
4.665304 -0.458100 0.481926 100.000000
4.665857 -0.472611 0.482116 109.000000
4.667356 -0.487233 0.482401 106.000000
4.669798 -0.501974 0.482781 80.000000
4.674173 -0.516954 0.483350 99.000000
4.672565 -0.531292 0.483350 99.000000
4.676846 -0.546316 0.483920 70.000000
4.678113 -0.561017 0.484205 73.000000
4.676370 -0.575366 0.484205 89.000000
4.680509 -0.590456 0.484775 77.000000
4.681637 -0.605195 0.485060 92.000000
4.688640 -0.620729 0.485915 70.000000
4.694606 -0.636178 0.486675 58.000000
4.702493 -0.651943 0.487624 38.000000
4.608204 0.029966 0.416173 78.000000
4.606281 0.015822 0.416008 98.000000
4.606308 0.001690 0.416008 113.000000
4.607288 -0.012445 0.416091 81.000000
4.611215 -0.026603 0.416421 106.000000
4.615098 -0.040786 0.416750 116.000000
4.619933 -0.055004 0.417163 111.000000
4.622732 -0.069223 0.417410 101.000000
4.623495 -0.083423 0.417493 103.000000
4.625209 -0.097649 0.417658 100.000000
4.622896 -0.111790 0.417493 95.000000
4.623527 -0.126000 0.417575 92.000000
4.627103 -0.140305 0.417905 98.000000
4.627647 -0.154534 0.417987 124.000000
4.624163 -0.168621 0.417740 102.000000
4.623624 -0.182807 0.417740 80.000000
4.624037 -0.197034 0.417822 90.000000
4.625402 -0.211310 0.417987 85.000000
4.630704 -0.225792 0.418482 98.000000
4.634966 -0.240256 0.418894 100.000000
4.633213 -0.254420 0.418812 78.000000
4.636390 -0.268864 0.419142 79.000000
4.639522 -0.283330 0.419472 89.000000
4.642609 -0.297818 0.419801 88.000000
4.645651 -0.312328 0.420131 80.000000
4.651629 -0.327069 0.420709 109.000000
4.656568 -0.341777 0.421203 89.000000
4.661459 -0.356518 0.421698 106.000000
4.667298 -0.371371 0.422275 106.000000
4.669116 -0.385935 0.422523 88.000000
4.669897 -0.400428 0.422688 87.000000
4.667653 -0.414665 0.422605 97.000000
4.668344 -0.429166 0.422770 90.000000
4.666013 -0.443392 0.422688 79.000000
4.663639 -0.457608 0.422605 84.000000
4.668162 -0.472516 0.423100 98.000000
4.668673 -0.487042 0.423265 89.000000
4.669138 -0.501576 0.423430 88.000000
4.671540 -0.516337 0.423760 95.000000
4.672904 -0.531005 0.424007 91.000000
4.673233 -0.545570 0.424172 87.000000
4.675495 -0.560379 0.424502 90.000000
4.675733 -0.574964 0.424667 96.000000
4.677901 -0.589805 0.424996 88.000000
4.682000 -0.604921 0.425491 71.000000
4.685062 -0.619936 0.425904 66.000000
4.692026 -0.635511 0.426646 71.000000
4.699926 -0.651272 0.427470 58.000000
4.700866 -0.666108 0.427718 60.000000
4.701759 -0.680955 0.427965 42.000000
4.705563 -0.696253 0.428460 47.000000
4.706361 -0.711133 0.428707 40.000000
4.582440 0.027852 0.359524 26.000000
4.602453 0.013858 0.360937 93.000000
4.602475 -0.000262 0.360937 79.000000
4.603449 -0.014385 0.361007 91.000000
4.604382 -0.028514 0.361078 76.000000
4.607264 -0.042667 0.361290 69.000000
4.612099 -0.056862 0.361643 83.000000
4.612900 -0.071027 0.361713 100.000000
4.615653 -0.085233 0.361925 85.000000
4.618361 -0.099457 0.362137 92.000000
4.619031 -0.113650 0.362208 86.000000
4.622650 -0.127929 0.362490 106.000000
4.626224 -0.142233 0.362773 106.000000
4.625765 -0.156425 0.362773 124.000000
4.626260 -0.170652 0.362844 86.000000
4.621728 -0.184686 0.362561 104.000000
4.620143 -0.198822 0.362490 82.000000
4.617518 -0.212904 0.362349 88.000000
4.619833 -0.227216 0.362561 76.000000
4.622103 -0.241544 0.362773 80.000000
4.624328 -0.255887 0.362985 85.000000
4.629496 -0.270421 0.363409 83.000000
4.636610 -0.285111 0.363974 66.000000
4.639695 -0.299590 0.364256 74.000000
4.643730 -0.314159 0.364609 73.000000
4.642745 -0.328404 0.364609 80.000000
4.645694 -0.342939 0.364892 81.000000
4.646610 -0.357343 0.365033 74.000000
4.647480 -0.371755 0.365174 85.000000
4.648306 -0.386176 0.365315 70.000000
4.649087 -0.400606 0.365457 88.000000
4.648829 -0.414956 0.365527 66.000000
4.648527 -0.429308 0.365598 93.000000
4.655133 -0.444323 0.366163 61.000000
4.650770 -0.458310 0.365951 91.000000
4.653311 -0.472979 0.366234 76.000000
4.659775 -0.488082 0.366799 65.000000
4.660239 -0.502589 0.366940 77.000000
4.661650 -0.517214 0.367152 70.000000
4.661032 -0.531626 0.367222 87.000000
4.660370 -0.546039 0.367293 68.000000
4.659663 -0.560453 0.367364 87.000000
4.658912 -0.574868 0.367434 68.000000
4.663064 -0.589908 0.367858 64.000000
4.666179 -0.604851 0.368211 77.000000
4.674190 -0.620474 0.368917 62.000000
4.682148 -0.636152 0.369624 58.000000
4.686103 -0.651336 0.370047 64.000000
4.689021 -0.666411 0.370401 71.000000
4.693865 -0.681795 0.370895 68.000000
4.696684 -0.696923 0.371248 58.000000
4.698470 -0.711926 0.371531 49.000000
4.693305 -0.725881 0.371319 48.000000
4.681203 -0.738724 0.370613 59.000000
4.673990 -0.752291 0.370259 55.000000
4.686426 -0.769046 0.371319 29.000000
4.607148 -0.027381 0.303332 57.000000
4.605046 -0.041497 0.303216 82.000000
4.605896 -0.055637 0.303274 90.000000
4.605703 -0.069767 0.303274 74.000000
4.607463 -0.083934 0.303390 82.000000
4.612175 -0.098175 0.303681 99.000000
4.616842 -0.112447 0.303971 128.000000
4.615477 -0.126583 0.303913 119.000000
4.615067 -0.140743 0.303913 105.000000
4.617607 -0.155002 0.304087 122.000000
4.617110 -0.169167 0.304087 96.000000
4.616569 -0.183332 0.304087 77.000000
4.617980 -0.197580 0.304204 92.000000
4.618349 -0.211792 0.304262 74.000000
4.618675 -0.226009 0.304320 78.000000
4.619954 -0.240282 0.304436 82.000000
4.621188 -0.254565 0.304552 75.000000
4.622378 -0.268857 0.304668 81.000000
4.623525 -0.283159 0.304784 87.000000
4.623631 -0.297407 0.304842 81.000000
4.624689 -0.311725 0.304959 78.000000
4.628689 -0.326263 0.305249 76.000000
4.631649 -0.340756 0.305481 93.000000
4.634563 -0.355269 0.305714 94.000000
4.636437 -0.369725 0.305888 71.000000
4.640255 -0.384360 0.306178 72.000000
4.645022 -0.399107 0.306527 70.000000
4.646759 -0.413622 0.306701 77.000000
4.651433 -0.428426 0.307050 84.000000
4.655066 -0.443168 0.307340 77.000000
4.655671 -0.457643 0.307456 87.000000
4.656232 -0.472126 0.307573 97.000000
4.654761 -0.486409 0.307573 94.000000
4.655232 -0.500901 0.307689 93.000000
4.655658 -0.515400 0.307805 85.000000
4.657030 -0.530020 0.307979 90.000000
4.660340 -0.544885 0.308270 82.000000
4.662611 -0.559657 0.308502 75.000000
4.662854 -0.574203 0.308618 91.000000
4.664042 -0.588881 0.308792 93.000000
4.663204 -0.603315 0.308850 71.000000
4.663310 -0.617881 0.308967 76.000000
4.667328 -0.632991 0.309315 81.000000
4.668330 -0.647719 0.309489 70.000000
4.672251 -0.662880 0.309838 66.000000
4.678100 -0.678358 0.310303 58.000000
4.681921 -0.693585 0.310651 75.000000
4.686681 -0.708992 0.311058 77.000000
4.687443 -0.723824 0.311232 51.000000
4.686187 -0.738357 0.311290 63.000000
4.685871 -0.753048 0.311406 76.000000
4.690434 -0.768551 0.311813 41.000000
4.685101 -0.782443 0.311639 44.000000
4.687599 -0.797651 0.311929 46.000000
4.692015 -0.813223 0.312336 30.000000
4.599251 -0.085734 0.248360 56.000000
4.595970 -0.099780 0.248221 70.000000
4.600636 -0.114002 0.248453 65.000000
4.598267 -0.128061 0.248360 76.000000
4.600848 -0.142260 0.248499 80.000000
4.599391 -0.156341 0.248453 95.000000
4.599888 -0.170487 0.248499 94.000000
4.601339 -0.184678 0.248591 76.000000
4.600751 -0.198794 0.248591 94.000000
4.603114 -0.213046 0.248730 68.000000
4.603436 -0.227216 0.248776 66.000000
4.603715 -0.241390 0.248823 67.000000
4.604947 -0.255623 0.248915 84.000000
4.608130 -0.269983 0.249100 75.000000
4.609274 -0.284241 0.249192 73.000000
4.612369 -0.298638 0.249377 68.000000
4.615417 -0.313057 0.249562 68.000000
4.617424 -0.327426 0.249701 71.000000
4.619386 -0.341811 0.249840 58.000000
4.620308 -0.356135 0.249932 61.000000
4.620189 -0.370388 0.249978 75.000000
4.621023 -0.384726 0.250071 79.000000
4.622806 -0.399158 0.250210 72.000000
4.624545 -0.413605 0.250348 79.000000
4.619276 -0.427424 0.250163 51.000000
4.628881 -0.442637 0.250672 65.000000
4.630483 -0.457130 0.250811 77.000000
4.623096 -0.470728 0.250533 56.000000
4.634546 -0.486261 0.251134 65.000000
4.632039 -0.500370 0.251088 52.000000
4.634453 -0.515019 0.251273 61.000000
4.634837 -0.529461 0.251365 60.000000
4.635175 -0.543911 0.251458 56.000000
4.636460 -0.558486 0.251597 57.000000
4.639681 -0.573319 0.251828 59.000000
4.642856 -0.588177 0.252059 74.000000
4.646974 -0.603189 0.252336 67.000000
4.651042 -0.618231 0.252614 55.000000
4.658033 -0.633707 0.253030 60.000000
4.662003 -0.648819 0.253307 53.000000
4.671859 -0.664805 0.253862 47.000000
4.680672 -0.680714 0.254371 49.000000
4.667691 -0.693458 0.253862 83.000000
4.669493 -0.708374 0.254047 69.000000
4.666310 -0.722544 0.254001 64.000000
4.660125 -0.736234 0.253816 82.000000
4.664748 -0.751638 0.254140 63.000000
4.667348 -0.766754 0.254371 61.000000
4.667930 -0.781564 0.254509 59.000000
4.671419 -0.796888 0.254787 76.000000
4.674857 -0.812240 0.255064 48.000000
4.673327 -0.826752 0.255110 50.000000
4.677650 -0.842324 0.255434 40.000000
4.677992 -0.857210 0.255573 46.000000
4.689089 -0.874117 0.256220 25.000000
4.578634 -0.126367 0.190793 13.000000
4.602200 -0.141150 0.191605 52.000000
4.601745 -0.155269 0.191605 69.000000
4.602246 -0.169423 0.191639 74.000000
4.605699 -0.183702 0.191775 65.000000
4.603117 -0.197745 0.191707 81.000000
4.603487 -0.211912 0.191741 79.000000
4.604811 -0.226133 0.191808 100.000000
4.605094 -0.240311 0.191842 69.000000
4.603337 -0.254383 0.191808 78.000000
4.603533 -0.268563 0.191842 87.000000
4.607675 -0.282992 0.192012 62.000000
4.607782 -0.297191 0.192045 77.000000
4.610837 -0.311596 0.192181 74.000000
4.611854 -0.325881 0.192249 80.000000
4.613822 -0.340250 0.192350 68.000000
4.614749 -0.354556 0.192418 80.000000
4.616629 -0.368952 0.192519 81.000000
4.616471 -0.383196 0.192553 77.000000
4.619257 -0.397701 0.192689 77.000000
4.620006 -0.412048 0.192756 82.000000
4.620710 -0.426404 0.192824 79.000000
4.621370 -0.440768 0.192892 78.000000
4.620991 -0.455042 0.192926 86.000000
4.622555 -0.469521 0.193027 88.000000
4.625070 -0.484117 0.193163 83.000000
4.625550 -0.498518 0.193230 81.000000
4.627972 -0.513148 0.193366 95.000000
4.629354 -0.527684 0.193467 106.000000
4.626721 -0.541767 0.193433 84.000000
4.627022 -0.556198 0.193501 84.000000
4.629261 -0.570881 0.193636 84.000000
4.630463 -0.585457 0.193738 93.000000
4.637565 -0.600816 0.194043 83.000000
4.647589 -0.616620 0.194449 97.000000
4.648646 -0.631279 0.194551 75.000000
4.652627 -0.646364 0.194754 73.000000
4.653591 -0.661057 0.194855 70.000000
4.652530 -0.675474 0.194889 68.000000
4.651424 -0.689892 0.194923 62.000000
4.650273 -0.704308 0.194957 72.000000
4.648091 -0.718572 0.194957 68.000000
4.647839 -0.733140 0.195024 61.000000
4.653461 -0.748667 0.195295 53.000000
4.659033 -0.764235 0.195566 61.000000
4.669480 -0.780668 0.196006 75.000000
4.676916 -0.796670 0.196345 50.000000
4.683312 -0.812553 0.196649 61.000000
4.687686 -0.828135 0.196886 52.000000
4.690042 -0.843397 0.197056 52.000000
4.688416 -0.857962 0.197089 47.000000
4.689692 -0.873074 0.197225 44.000000
4.686008 -0.887272 0.197191 53.000000
4.683264 -0.901644 0.197191 39.000000
4.693227 -0.918504 0.197631 35.000000
4.731555 -0.941090 0.199053 13.000000
4.591251 -0.182676 0.135297 50.000000
4.590670 -0.196761 0.135297 71.000000
4.591043 -0.210890 0.135319 50.000000
4.595367 -0.225217 0.135427 73.000000
4.596652 -0.239418 0.135470 55.000000
4.600887 -0.253794 0.135579 77.000000
4.606075 -0.268255 0.135708 71.000000
4.607226 -0.282507 0.135752 63.000000
4.605340 -0.296576 0.135730 75.000000
4.606403 -0.310838 0.135773 71.000000
4.603434 -0.324828 0.135730 71.000000
4.602415 -0.338950 0.135730 59.000000
4.598363 -0.352840 0.135665 49.000000
4.601245 -0.367263 0.135752 85.000000
4.604082 -0.381707 0.135838 85.000000
4.607871 -0.396257 0.135946 64.000000
4.609621 -0.410658 0.136011 68.000000
4.614312 -0.425347 0.136141 51.000000
4.613981 -0.439596 0.136163 58.000000
4.616590 -0.454140 0.136249 62.000000
4.614181 -0.468201 0.136228 70.000000
4.617694 -0.482873 0.136336 72.000000
4.618180 -0.497251 0.136379 79.000000
4.617626 -0.511527 0.136401 74.000000
4.620008 -0.526143 0.136487 68.000000
4.622344 -0.540778 0.136574 56.000000
4.623642 -0.555314 0.136639 54.000000
4.619932 -0.569252 0.136596 60.000000
4.618164 -0.583423 0.136596 67.000000
4.627259 -0.598998 0.136834 56.000000
4.631346 -0.613978 0.136964 56.000000
4.632413 -0.628587 0.137028 55.000000
4.637394 -0.643756 0.137180 58.000000
4.643317 -0.659103 0.137353 55.000000
4.641273 -0.673345 0.137353 63.000000
4.648086 -0.688898 0.137548 59.000000
4.645951 -0.703155 0.137548 62.000000
4.651676 -0.718624 0.137721 59.000000
4.653400 -0.733514 0.137807 70.000000
4.660999 -0.749371 0.138024 58.000000
4.659665 -0.763829 0.138046 58.000000
4.658286 -0.778286 0.138067 65.000000
4.657847 -0.792908 0.138110 64.000000
4.659333 -0.807877 0.138197 52.000000
4.661756 -0.823036 0.138305 58.000000
4.662161 -0.837864 0.138370 62.000000
4.662519 -0.852702 0.138435 49.000000
4.663813 -0.867733 0.138522 45.000000
4.662111 -0.882223 0.138543 49.000000
4.660364 -0.896710 0.138565 47.000000
4.665441 -0.912537 0.138738 19.000000
4.612480 -0.241502 0.078760 49.000000
4.616710 -0.255928 0.078806 41.000000
4.598933 -0.269097 0.078649 75.000000
4.604074 -0.283574 0.078705 55.000000
4.595199 -0.297181 0.078631 67.000000
4.594266 -0.311277 0.078631 76.000000
4.595284 -0.325512 0.078649 84.000000
4.597255 -0.339830 0.078677 81.000000
4.602173 -0.354394 0.078732 92.000000
4.606048 -0.368911 0.078779 82.000000
4.608881 -0.383373 0.078816 82.000000
4.607683 -0.397511 0.078816 61.000000
4.607437 -0.411734 0.078825 86.000000
4.606153 -0.425868 0.078825 83.000000
4.604825 -0.439997 0.078825 80.000000
4.604448 -0.454221 0.078834 84.000000
4.605022 -0.468547 0.078853 71.000000
4.605552 -0.482882 0.078871 87.000000
4.607032 -0.497332 0.078899 95.000000
4.608466 -0.511795 0.078927 96.000000
4.610848 -0.526385 0.078964 73.000000
4.614177 -0.541111 0.079010 99.000000
4.619445 -0.556102 0.079075 94.000000
4.622679 -0.570885 0.079121 94.000000
4.624874 -0.585567 0.079158 94.000000
4.621072 -0.599496 0.079139 71.000000
4.623177 -0.614197 0.079176 71.000000
4.626224 -0.629052 0.079223 73.000000
4.628234 -0.643794 0.079260 85.000000
4.637127 -0.659539 0.079361 72.000000
4.642009 -0.674770 0.079426 64.000000
4.645851 -0.689890 0.079482 72.000000
4.647667 -0.704740 0.079519 84.000000
4.649436 -0.719608 0.079556 49.000000
4.648195 -0.734025 0.079565 49.000000
4.641972 -0.747646 0.079528 62.000000
4.640643 -0.762046 0.079537 64.000000
4.641241 -0.776775 0.079565 56.000000
4.639822 -0.791178 0.079574 56.000000
4.640329 -0.805923 0.079602 52.000000
4.642757 -0.821027 0.079648 45.000000
4.635297 -0.834380 0.079602 39.000000
4.672058 -0.855807 0.079972 14.000000
4.883314 -0.254276 0.020017 36.000000
4.851558 -0.267557 0.020119 54.000000
4.824759 -0.280935 0.020206 70.000000
4.824872 -0.295797 0.020202 30.000000
4.624353 -0.297796 0.020866 57.000000
4.620424 -0.311780 0.020875 61.000000
4.606478 -0.325043 0.020919 66.000000
4.599475 -0.338734 0.020938 62.000000
4.597417 -0.352767 0.020942 55.000000
4.593322 -0.366633 0.020952 89.000000
4.594170 -0.380888 0.020945 64.000000
4.595968 -0.395237 0.020935 66.000000
4.594734 -0.409335 0.020935 75.000000
4.594453 -0.423521 0.020932 53.000000
4.598109 -0.438088 0.020915 72.000000
4.599729 -0.452486 0.020905 46.000000
4.600309 -0.466797 0.020899 59.000000
4.600845 -0.481115 0.020892 67.000000
4.601335 -0.495442 0.020885 80.000000
4.602776 -0.509886 0.020875 59.000000
4.605164 -0.524456 0.020862 55.000000
4.605520 -0.538814 0.020856 53.000000
4.607817 -0.553417 0.020842 51.000000
4.611060 -0.568161 0.020826 40.000000
4.615248 -0.583056 0.020806 58.000000
4.614429 -0.597340 0.020803 66.000000
4.616540 -0.612019 0.020789 39.000000
4.617613 -0.626582 0.020779 60.000000
4.618641 -0.641158 0.020769 66.000000
4.625564 -0.656587 0.020740 63.000000
4.631444 -0.671922 0.020713 61.000000
4.634308 -0.686859 0.020696 81.000000
4.641078 -0.702419 0.020667 73.000000
4.639888 -0.716806 0.020663 65.000000
4.644583 -0.732126 0.020640 58.000000
4.633428 -0.744946 0.020670 36.000000
4.636055 -0.759965 0.020653 52.000000
4.636661 -0.774678 0.020643 27.000000
4.890781 -0.254390 -0.040506 75.000000
4.878996 -0.268788 -0.040333 83.000000
4.870163 -0.283290 -0.040208 85.000000
4.854301 -0.297312 -0.039972 83.000000
4.822434 -0.310211 -0.039485 62.000000
4.832433 -0.325745 -0.039658 106.000000
4.801489 -0.338458 -0.039187 92.000000
4.651849 -0.342244 -0.036846 53.000000
4.618875 -0.354065 -0.036344 74.000000
4.608797 -0.367518 -0.036202 61.000000
4.595690 -0.380665 -0.036014 69.000000
4.592508 -0.394591 -0.035982 61.000000
4.589284 -0.408501 -0.035951 86.000000
4.590001 -0.422763 -0.035982 70.000000
4.591668 -0.437127 -0.036030 84.000000
4.593291 -0.451506 -0.036077 80.000000
4.599842 -0.466403 -0.036202 91.000000
4.602366 -0.480929 -0.036265 100.000000
4.601864 -0.495154 -0.036281 92.000000
4.603304 -0.509600 -0.036328 80.000000
4.599732 -0.523494 -0.036297 113.000000
4.600091 -0.537836 -0.036328 87.000000
4.599412 -0.552065 -0.036344 70.000000
4.598689 -0.566296 -0.036359 90.000000
4.599906 -0.580778 -0.036407 102.000000
4.601077 -0.595272 -0.036454 92.000000
4.602203 -0.609780 -0.036501 98.000000
4.604274 -0.624434 -0.036564 70.000000
4.606298 -0.639107 -0.036626 76.000000
4.608275 -0.653798 -0.036689 66.000000
4.612185 -0.668794 -0.036784 67.000000
4.616046 -0.683821 -0.036878 56.000000
4.624801 -0.699625 -0.037051 69.000000
4.622633 -0.713811 -0.037051 42.000000
4.633261 -0.730014 -0.037255 60.000000
4.634948 -0.744860 -0.037318 48.000000
4.626721 -0.758105 -0.037223 31.000000
4.902193 -0.240177 -0.099620 23.000000
4.868489 -0.253508 -0.098704 69.000000
4.872680 -0.268717 -0.098843 55.000000
4.854867 -0.282681 -0.098371 81.000000
4.847991 -0.297209 -0.098205 87.000000
4.832092 -0.311121 -0.097789 59.000000
4.813162 -0.324737 -0.097289 48.000000
4.803169 -0.338871 -0.097040 74.000000
4.795128 -0.353094 -0.096845 103.000000
4.773092 -0.366203 -0.096263 89.000000
4.754010 -0.379417 -0.095763 75.000000
4.710982 -0.390542 -0.094598 82.000000
4.610166 -0.396454 -0.091823 54.000000
4.591005 -0.409004 -0.091324 58.000000
4.583756 -0.422538 -0.091157 63.000000
4.581443 -0.436504 -0.091129 54.000000
4.583067 -0.450851 -0.091213 50.000000
4.582656 -0.465010 -0.091240 59.000000
4.586179 -0.479586 -0.091379 65.000000
4.584687 -0.493654 -0.091379 59.000000
4.587124 -0.508156 -0.091490 58.000000
4.590510 -0.522791 -0.091629 52.000000
4.594842 -0.537568 -0.091795 44.000000
4.592179 -0.551543 -0.091768 57.000000
4.591457 -0.565751 -0.091795 60.000000
4.598626 -0.580960 -0.092045 52.000000
4.605744 -0.596218 -0.092295 42.000000
4.607857 -0.610870 -0.092406 44.000000
4.607943 -0.625272 -0.092461 41.000000
4.606002 -0.639406 -0.092461 41.000000
4.605009 -0.653675 -0.092489 33.000000
4.884428 -0.254059 -0.160482 28.000000
4.843719 -0.266842 -0.158869 70.000000
4.836892 -0.281352 -0.158628 96.000000
4.826033 -0.295579 -0.158225 74.000000
4.817126 -0.309869 -0.157902 73.000000
4.805187 -0.323907 -0.157459 78.000000
4.798190 -0.338225 -0.157217 84.000000
4.792147 -0.352577 -0.157015 69.000000
4.787058 -0.366972 -0.156854 85.000000
4.781926 -0.381339 -0.156693 84.000000
4.775754 -0.395595 -0.156491 82.000000
4.774518 -0.410245 -0.156491 101.000000
4.766271 -0.424270 -0.156209 85.000000
4.740072 -0.436598 -0.155202 80.000000
4.711854 -0.448579 -0.154113 77.000000
4.608034 -0.452956 -0.149962 47.000000
4.601652 -0.466587 -0.149760 63.000000
4.584299 -0.479039 -0.149115 79.000000
4.582808 -0.493102 -0.149115 48.000000
4.576307 -0.506609 -0.148914 54.000000
4.572746 -0.520420 -0.148833 95.000000
4.574106 -0.534795 -0.148954 72.000000
4.579388 -0.549660 -0.149236 79.000000
4.584621 -0.564562 -0.149518 54.000000
4.581876 -0.578500 -0.149478 69.000000
4.590981 -0.593965 -0.149921 46.000000
4.893302 -0.241450 -0.219753 23.000000
4.838686 -0.253651 -0.216927 61.000000
4.835890 -0.268385 -0.216822 64.000000
4.823081 -0.282522 -0.216194 100.000000
4.816211 -0.296950 -0.215880 83.000000
4.808301 -0.311275 -0.215514 99.000000
4.801346 -0.325621 -0.215200 88.000000
4.794347 -0.339928 -0.214886 85.000000
4.789298 -0.354341 -0.214676 94.000000
4.788189 -0.369033 -0.214676 61.000000
4.792011 -0.384119 -0.214938 26.000000
4.797777 -0.399397 -0.215304 38.000000
4.770659 -0.411887 -0.213944 65.000000
4.768379 -0.426433 -0.213891 69.000000
4.768043 -0.441152 -0.213944 78.000000
4.771637 -0.456252 -0.214205 91.000000
4.766241 -0.470497 -0.213996 83.000000
4.752851 -0.483907 -0.213368 75.000000
4.743400 -0.497654 -0.212949 78.000000
4.651498 -0.502467 -0.208187 50.000000
4.643980 -0.516075 -0.207873 56.000000
4.620546 -0.527832 -0.206721 46.000000
4.645684 -0.545141 -0.208134 37.000000
4.721326 -0.568687 -0.212217 35.000000
4.757223 -0.587814 -0.214205 33.000000
4.854014 -0.237545 -0.277918 43.000000
4.810410 -0.250203 -0.275135 101.000000
4.822573 -0.265675 -0.275977 71.000000
4.813766 -0.280005 -0.275459 69.000000
4.796947 -0.293795 -0.274424 89.000000
4.794032 -0.308382 -0.274294 100.000000
4.790076 -0.322887 -0.274100 85.000000
4.789062 -0.337581 -0.274100 112.000000
4.782033 -0.351832 -0.273712 90.000000
4.774961 -0.366044 -0.273324 79.000000
4.770832 -0.380453 -0.273129 91.000000
4.765664 -0.394758 -0.272871 108.000000
4.763437 -0.409292 -0.272806 97.000000
4.764146 -0.424081 -0.272935 117.000000
4.765804 -0.438970 -0.273129 109.000000
4.767415 -0.453873 -0.273324 107.000000
4.769972 -0.468888 -0.273582 100.000000
4.773475 -0.484024 -0.273906 110.000000
4.774945 -0.498977 -0.274100 131.000000
4.781330 -0.514479 -0.274618 84.000000
4.784688 -0.529695 -0.274941 84.000000
4.790972 -0.545275 -0.275459 105.000000
4.792250 -0.560319 -0.275653 86.000000
4.796453 -0.575733 -0.276041 78.000000
4.800607 -0.591178 -0.276430 64.000000
4.875003 -0.615534 -0.281412 30.000000
4.850526 -0.224434 -0.335384 38.000000
4.827906 -0.238239 -0.333700 48.000000
4.813212 -0.252322 -0.332629 63.000000
4.809429 -0.266923 -0.332399 60.000000
4.798634 -0.281096 -0.331634 53.000000
4.790782 -0.295389 -0.331098 79.000000
4.786868 -0.309893 -0.330868 94.000000
4.785895 -0.324577 -0.330868 88.000000
4.788855 -0.339540 -0.331174 80.000000
4.784808 -0.354010 -0.330945 78.000000
4.782705 -0.368612 -0.330868 95.000000
4.788509 -0.383839 -0.331404 58.000000
4.783334 -0.398198 -0.331098 73.000000
4.778116 -0.412529 -0.330792 75.000000
4.780801 -0.427541 -0.331098 57.000000
4.780459 -0.442297 -0.331174 60.000000
4.773125 -0.456394 -0.330715 46.000000
4.780632 -0.471915 -0.331404 77.000000
4.776186 -0.486277 -0.331174 113.000000
4.777647 -0.501239 -0.331404 89.000000
4.786000 -0.516963 -0.332169 68.000000
4.785382 -0.531753 -0.332246 71.000000
4.789672 -0.547110 -0.332705 64.000000
4.799855 -0.563193 -0.333624 55.000000
4.802064 -0.578392 -0.333930 46.000000
4.820059 -0.595563 -0.335461 36.000000
4.837992 -0.612849 -0.336992 11.000000
4.747178 -0.219366 -0.385703 12.000000
4.819106 -0.237515 -0.392180 85.000000
4.812386 -0.251985 -0.391647 91.000000
4.805624 -0.266417 -0.391115 85.000000
4.798818 -0.280810 -0.390583 91.000000
4.791968 -0.295163 -0.390050 84.000000
4.788058 -0.309670 -0.389784 94.000000
4.785098 -0.324223 -0.389607 96.000000
4.786068 -0.339043 -0.389784 96.000000
4.787985 -0.353946 -0.390050 99.000000
4.791842 -0.369016 -0.390494 96.000000
4.797638 -0.384273 -0.391115 79.000000
4.804377 -0.399651 -0.391825 115.000000
4.814045 -0.415332 -0.392801 130.000000
4.812747 -0.430099 -0.392801 94.000000
4.810414 -0.444770 -0.392712 88.000000
4.805061 -0.459147 -0.392357 90.000000
4.795699 -0.473104 -0.391647 92.000000
4.786298 -0.487007 -0.390937 108.000000
4.785772 -0.501793 -0.391026 80.000000
4.779258 -0.515938 -0.390583 97.000000
4.779634 -0.530818 -0.390760 98.000000
4.782930 -0.546045 -0.391204 86.000000
4.786179 -0.561297 -0.391647 83.000000
4.787401 -0.576335 -0.391913 79.000000
4.797472 -0.592486 -0.392978 59.000000
4.837135 -0.612460 -0.396704 30.000000
4.845137 -0.238240 -0.455817 34.000000
4.826499 -0.252173 -0.453995 52.000000
4.818750 -0.266597 -0.453286 65.000000
4.804005 -0.280571 -0.451869 81.000000
4.801135 -0.295186 -0.451667 96.000000
4.797228 -0.309723 -0.451363 67.000000
4.799233 -0.324640 -0.451667 110.000000
4.807147 -0.339992 -0.452578 50.000000
4.806081 -0.354738 -0.452578 80.000000
4.813898 -0.370166 -0.453489 72.000000
4.827615 -0.386119 -0.455007 67.000000
4.839297 -0.401995 -0.456323 58.000000
4.842997 -0.417266 -0.456829 50.000000
4.849621 -0.432828 -0.457639 45.000000
4.842327 -0.447157 -0.457032 59.000000
4.833999 -0.461351 -0.456323 68.000000
4.821670 -0.475109 -0.455210 62.000000
4.809302 -0.488795 -0.454096 42.000000
4.803822 -0.503134 -0.453691 60.000000
4.797310 -0.517337 -0.453185 50.000000
4.797678 -0.532272 -0.453388 72.000000
4.805907 -0.548113 -0.454400 46.000000
4.809144 -0.563433 -0.454906 60.000000
4.826160 -0.580437 -0.456829 50.000000
4.846080 -0.597916 -0.459056 39.000000
4.966614 -0.628233 -0.471609 12.000000
4.826358 -0.251876 -0.511810 96.000000
4.821594 -0.266462 -0.511358 83.000000
4.816787 -0.281022 -0.510906 98.000000
4.813918 -0.295676 -0.510680 93.000000
4.811006 -0.310316 -0.510454 123.000000
4.811022 -0.325141 -0.510567 110.000000
4.813966 -0.340180 -0.511019 127.000000
4.816864 -0.355240 -0.511471 120.000000
4.825658 -0.370778 -0.512602 97.000000
4.835392 -0.386453 -0.513845 65.000000
4.873791 -0.404577 -0.518366 45.000000
4.860957 -0.448595 -0.517349 57.000000
4.858569 -0.463411 -0.517236 101.000000
4.848224 -0.477438 -0.516219 73.000000
4.835864 -0.491205 -0.514975 97.000000
4.827416 -0.505314 -0.514184 105.000000
4.821892 -0.519696 -0.513732 92.000000
4.818300 -0.534267 -0.513506 124.000000
4.825523 -0.550061 -0.514523 92.000000
4.832695 -0.565903 -0.515540 92.000000
4.836854 -0.581439 -0.516219 70.000000
4.844909 -0.597493 -0.517349 73.000000
4.848877 -0.253337 -0.575220 78.000000
4.851049 -0.268376 -0.575596 56.000000
4.840299 -0.282681 -0.574342 66.000000
4.828516 -0.296863 -0.572964 82.000000
4.824612 -0.311484 -0.572588 82.000000
4.823634 -0.326284 -0.572588 95.000000
4.829538 -0.341570 -0.573465 90.000000
4.841330 -0.357331 -0.575094 74.000000
4.846146 -0.372637 -0.575846 70.000000
4.840035 -0.387109 -0.575220 47.000000
4.892787 -0.466947 -0.582740 43.000000
4.867635 -0.479627 -0.579732 59.000000
4.859231 -0.493858 -0.578854 71.000000
4.852759 -0.508248 -0.578228 64.000000
4.844273 -0.522390 -0.577350 62.000000
4.842647 -0.537250 -0.577350 58.000000
4.846890 -0.552777 -0.578102 67.000000
4.852069 -0.568451 -0.578980 46.000000
4.854242 -0.583808 -0.579481 62.000000
4.863260 -0.600031 -0.580860 48.000000
4.889668 -0.253479 -0.641036 44.000000
4.874032 -0.267664 -0.638974 62.000000
4.849456 -0.281237 -0.635676 82.000000
4.838683 -0.295509 -0.634301 133.000000
4.846650 -0.310924 -0.635538 154.000000
4.851603 -0.326191 -0.636363 122.000000
4.853544 -0.341283 -0.636775 127.000000
4.859389 -0.356680 -0.637737 117.000000
4.865185 -0.372116 -0.638699 121.000000
4.911415 -0.390815 -0.645297 38.000000
4.895503 -0.480378 -0.644197 103.000000
4.885137 -0.494496 -0.642960 109.000000
4.870790 -0.508144 -0.641173 79.000000
4.865269 -0.522662 -0.640624 104.000000
4.860689 -0.537259 -0.640211 97.000000
4.854097 -0.551609 -0.639524 118.000000
4.853365 -0.566614 -0.639661 106.000000
4.876191 -0.584450 -0.643098 61.000000
4.918614 -0.604851 -0.649283 19.000000
4.966810 -0.245060 -0.711739 20.000000
4.887038 -0.256174 -0.699804 107.000000
4.879318 -0.270784 -0.698760 115.000000
4.869580 -0.285234 -0.697417 118.000000
4.862760 -0.299809 -0.696522 96.000000
4.855897 -0.314345 -0.695627 109.000000
4.848990 -0.328841 -0.694732 83.000000
4.855849 -0.344273 -0.695925 98.000000
4.872521 -0.360478 -0.698611 55.000000
4.911866 -0.500058 -0.706369 63.000000
4.904408 -0.514507 -0.705473 75.000000
4.899858 -0.529233 -0.705026 108.000000
4.895263 -0.543936 -0.704578 105.000000
4.885711 -0.558057 -0.703385 76.000000
4.882012 -0.572813 -0.703086 67.000000
4.894957 -0.589558 -0.705324 113.000000
4.882330 -0.603242 -0.703683 62.000000
4.922103 -0.240883 -0.765582 60.000000
4.907543 -0.255263 -0.763326 94.000000
4.882101 -0.268959 -0.759299 152.000000
4.882237 -0.283993 -0.759460 98.000000
4.877403 -0.298729 -0.758816 136.000000
4.881388 -0.314008 -0.759621 133.000000
4.889264 -0.329581 -0.761071 149.000000
4.897090 -0.345205 -0.762521 135.000000
4.905851 -0.360952 -0.764132 112.000000
4.919482 -0.377134 -0.766548 69.000000
4.941147 -0.501039 -0.771864 84.000000
4.932715 -0.515477 -0.770736 122.000000
4.932092 -0.530714 -0.770898 129.000000
4.924555 -0.545191 -0.769931 151.000000
4.923840 -0.560408 -0.770092 129.000000
4.920136 -0.575282 -0.769770 120.000000
4.915409 -0.590021 -0.769287 128.000000
4.916514 -0.605461 -0.769770 106.000000
4.949883 -0.624995 -0.775569 35.000000
