ply
format ascii 1.0
element vertex 905
property float x
property float y
property float z
property float intensity
end_header
4.657215 -0.414069 0.709331 14.000000
4.644096 -0.427270 0.707616 87.000000
4.641778 -0.441423 0.707473 94.000000
4.640402 -0.455661 0.707473 85.000000
4.642921 -0.470294 0.708045 73.000000
4.644410 -0.484843 0.708473 69.000000
4.645853 -0.499406 0.708902 76.000000
4.647250 -0.513983 0.709331 61.000000
4.629916 -0.526453 0.707044 12.000000
4.659809 -0.357207 0.651856 47.000000
4.650785 -0.370870 0.650808 89.000000
4.652589 -0.385382 0.651201 87.000000
4.650397 -0.399570 0.651070 101.000000
4.653100 -0.414187 0.651594 101.000000
4.649833 -0.428278 0.651332 87.000000
4.647510 -0.442448 0.651201 93.000000
4.650077 -0.457092 0.651725 92.000000
4.650625 -0.471557 0.651987 102.000000
4.651129 -0.486029 0.652249 103.000000
4.649615 -0.500296 0.652249 101.000000
4.646088 -0.514340 0.651987 74.000000
4.640549 -0.528143 0.651463 80.000000
4.635952 -0.542032 0.651070 83.000000
4.633283 -0.556134 0.650939 72.000000
4.668945 -0.574953 0.655919 35.000000
4.649146 -0.283443 0.592172 40.000000
4.637355 -0.297010 0.590864 81.000000
4.635431 -0.311169 0.590745 96.000000
4.636436 -0.325528 0.590983 72.000000
4.639376 -0.340040 0.591459 78.000000
4.641281 -0.354498 0.591815 78.000000
4.643142 -0.368971 0.592172 75.000000
4.641987 -0.383214 0.592172 75.000000
4.642768 -0.397623 0.592410 96.000000
4.642516 -0.411952 0.592529 92.000000
4.641231 -0.426193 0.592529 77.000000
4.641877 -0.440617 0.592767 104.000000
4.640503 -0.454856 0.592767 99.000000
4.640074 -0.469191 0.592886 78.000000
4.638613 -0.483424 0.592886 110.000000
4.637108 -0.497653 0.592886 83.000000
4.635560 -0.511877 0.592886 87.000000
4.634954 -0.526208 0.593005 82.000000
4.638249 -0.540999 0.593599 86.000000
4.640511 -0.555698 0.594075 74.000000
4.640756 -0.570174 0.594313 90.000000
4.638984 -0.584409 0.594313 63.000000
4.642094 -0.599273 0.594907 55.000000
4.638264 -0.613252 0.594670 56.000000
4.640297 -0.628011 0.595145 17.000000
4.625562 -0.640477 0.593599 10.000000
4.618680 -0.211003 0.531041 9.000000
4.652770 -0.226869 0.534778 64.000000
4.652052 -0.241143 0.534778 71.000000
4.648312 -0.255250 0.534458 74.000000
4.645522 -0.269394 0.534244 79.000000
4.644673 -0.283645 0.534244 81.000000
4.642789 -0.297830 0.534138 90.000000
4.644829 -0.312273 0.534458 109.000000
4.644842 -0.326591 0.534565 83.000000
4.645801 -0.340986 0.534778 108.000000
4.647707 -0.355465 0.535099 109.000000
4.646595 -0.369722 0.535099 74.000000
4.643456 -0.383812 0.534885 109.000000
4.638295 -0.397716 0.534458 72.000000
4.637053 -0.411944 0.534458 107.000000
4.635767 -0.426169 0.534458 93.000000
4.635427 -0.440483 0.534565 98.000000
4.638012 -0.455091 0.534992 110.000000
4.634616 -0.469118 0.534778 80.000000
4.636122 -0.483644 0.535099 103.000000
4.635605 -0.497971 0.535206 85.000000
4.638008 -0.512628 0.535633 81.000000
4.637401 -0.526967 0.535739 74.000000
4.638726 -0.541538 0.536060 73.000000
4.641978 -0.556359 0.536594 84.000000
4.639263 -0.570476 0.536487 101.000000
4.630586 -0.583836 0.535739 76.000000
4.627786 -0.597912 0.535633 71.000000
4.626916 -0.612237 0.535739 70.000000
4.626987 -0.626697 0.535953 64.000000
4.627997 -0.641299 0.536273 80.000000
4.628961 -0.655913 0.536594 56.000000
4.627911 -0.670254 0.536701 76.000000
4.628783 -0.684886 0.537021 56.000000
4.619779 -0.698043 0.536273 15.000000
4.627412 -0.154869 0.476417 48.000000
4.638853 -0.169498 0.477557 99.000000
4.638311 -0.183729 0.477557 103.000000
4.638721 -0.198000 0.477652 82.000000
4.640080 -0.212321 0.477842 101.000000
4.642390 -0.226701 0.478127 84.000000
4.643661 -0.241045 0.478317 108.000000
4.643893 -0.255345 0.478412 103.000000
4.639113 -0.269361 0.478032 107.000000
4.634290 -0.283350 0.477652 93.000000
4.630419 -0.297376 0.477367 95.000000
4.628491 -0.311514 0.477272 104.000000
4.629500 -0.325852 0.477462 81.000000
4.630464 -0.340199 0.477652 102.000000
4.630391 -0.354479 0.477747 99.000000
4.628289 -0.368604 0.477652 79.000000
4.626145 -0.382720 0.477557 81.000000
4.624949 -0.396911 0.477557 88.000000
4.624701 -0.411187 0.477652 85.000000
4.625401 -0.425555 0.477842 92.000000
4.626055 -0.439931 0.478032 80.000000
4.627656 -0.454413 0.478317 95.000000
4.629211 -0.468908 0.478602 106.000000
4.630721 -0.483418 0.478887 96.000000
4.631196 -0.497835 0.479077 88.000000
4.632615 -0.512368 0.479361 91.000000
4.628054 -0.526242 0.479077 72.000000
4.628395 -0.540668 0.479266 82.000000
4.624738 -0.554629 0.479077 106.000000
4.620050 -0.568451 0.478792 78.000000
4.615322 -0.582249 0.478507 76.000000
4.611539 -0.596152 0.478317 71.000000
4.608701 -0.610166 0.478222 93.000000
4.613713 -0.625237 0.478887 67.000000
4.616704 -0.640071 0.479361 69.000000
4.619647 -0.654929 0.479836 68.000000
4.621556 -0.669669 0.480216 72.000000
4.619480 -0.683845 0.480216 72.000000
4.617360 -0.698014 0.480216 63.000000
4.609294 -0.711267 0.479646 81.000000
4.631676 -0.729269 0.482021 25.000000
4.621181 -0.026661 0.417245 6.000000
4.687266 -0.084579 0.422770 11.000000
4.635173 -0.097860 0.418482 71.000000
4.637840 -0.112153 0.418730 85.000000
4.637474 -0.126381 0.418730 84.000000
4.637065 -0.140608 0.418730 81.000000
4.636611 -0.154834 0.418730 93.000000
4.634122 -0.168985 0.418565 101.000000
4.638562 -0.183399 0.418977 77.000000
4.637977 -0.197629 0.418977 117.000000
4.643322 -0.212130 0.419472 99.000000
4.646631 -0.226569 0.419801 99.000000
4.646910 -0.240876 0.419884 90.000000
4.647144 -0.255186 0.419966 99.000000
4.644349 -0.269326 0.419801 88.000000
4.640517 -0.283391 0.419554 91.000000
4.638630 -0.297563 0.419472 80.000000
4.635708 -0.311659 0.419307 89.000000
4.629758 -0.325530 0.418894 94.000000
4.626750 -0.339586 0.418730 105.000000
4.624693 -0.353703 0.418647 92.000000
4.621600 -0.367731 0.418482 97.000000
4.620449 -0.381908 0.418482 75.000000
4.619256 -0.396082 0.418482 77.000000
4.620997 -0.410517 0.418730 79.000000
4.621700 -0.424874 0.418894 85.000000
4.621368 -0.439146 0.418977 91.000000
4.625949 -0.453906 0.419472 99.000000
4.626518 -0.468297 0.419637 100.000000
4.625060 -0.482489 0.419637 101.000000
4.622566 -0.496570 0.419554 80.000000
4.620031 -0.510640 0.419472 72.000000
4.618443 -0.524811 0.419472 99.000000
4.618791 -0.539209 0.419637 72.000000
4.620083 -0.553733 0.419884 73.000000
4.625287 -0.568757 0.420461 70.000000
4.625497 -0.583194 0.420626 88.000000
4.626651 -0.597765 0.420873 72.000000
4.625783 -0.612087 0.420956 75.000000
4.621909 -0.626009 0.420791 80.000000
4.621941 -0.640459 0.420956 65.000000
4.620941 -0.654776 0.421038 67.000000
4.617924 -0.668807 0.420956 70.000000
4.614865 -0.682825 0.420873 54.000000
4.615705 -0.697427 0.421121 75.000000
4.613543 -0.711585 0.421121 60.000000
4.615276 -0.726356 0.421451 42.000000
4.613026 -0.740512 0.421451 56.000000
4.613683 -0.755144 0.421698 58.000000
4.616259 -0.770115 0.422110 47.000000
4.565733 -0.776087 0.418070 16.000000
4.640291 -0.028728 0.363620 51.000000
4.625218 -0.042829 0.362561 85.000000
4.628058 -0.057055 0.362773 68.000000
4.629856 -0.071283 0.362914 72.000000
4.631610 -0.085524 0.363055 82.000000
4.635315 -0.099818 0.363338 100.000000
4.637979 -0.114111 0.363550 107.000000
4.639601 -0.128394 0.363691 92.000000
4.640182 -0.142658 0.363762 108.000000
4.639723 -0.156893 0.363762 101.000000
4.639219 -0.171127 0.363762 100.000000
4.637676 -0.185320 0.363691 105.000000
4.636089 -0.199504 0.363620 99.000000
4.635455 -0.213727 0.363620 82.000000
4.634778 -0.227947 0.363620 75.000000
4.630072 -0.241958 0.363338 68.000000
4.624328 -0.255887 0.362985 59.000000
4.629496 -0.270421 0.363409 73.000000
4.631631 -0.284806 0.363620 76.000000
4.635713 -0.299334 0.363974 75.000000
4.632782 -0.313421 0.363832 68.000000
4.628814 -0.327422 0.363620 59.000000
4.624803 -0.341402 0.363409 68.000000
4.620750 -0.355360 0.363197 61.000000
4.614666 -0.369139 0.362844 80.000000
4.611524 -0.383130 0.362702 71.000000
4.611321 -0.397361 0.362773 59.000000
4.610080 -0.411507 0.362773 73.000000
4.612769 -0.426014 0.363055 80.000000
4.616405 -0.440637 0.363409 89.000000
4.619002 -0.455188 0.363691 91.000000
4.621554 -0.469759 0.363974 76.000000
4.621083 -0.484039 0.364044 63.000000
4.619576 -0.498214 0.364044 68.000000
4.616044 -0.512165 0.363903 73.000000
4.611477 -0.525986 0.363691 61.000000
4.605879 -0.539668 0.363409 53.000000
4.610143 -0.554509 0.363832 75.000000
4.611391 -0.569016 0.364044 61.000000
4.615561 -0.583911 0.364468 52.000000
4.616716 -0.598452 0.364680 75.000000
4.617825 -0.613006 0.364892 47.000000
4.612957 -0.626769 0.364680 83.000000
4.611012 -0.640918 0.364680 60.000000
4.606061 -0.654641 0.364468 67.000000
4.602057 -0.668483 0.364327 70.000000
4.600971 -0.682745 0.364397 47.000000
4.601814 -0.697305 0.364609 58.000000
4.602610 -0.711876 0.364821 64.000000
4.604346 -0.726615 0.365104 54.000000
4.605050 -0.741212 0.365315 62.000000
4.603738 -0.755498 0.365386 56.000000
4.603366 -0.769947 0.365527 55.000000
4.609833 -0.785572 0.366163 46.000000
4.599538 -0.798349 0.365598 55.000000
4.597068 -0.812456 0.365598 57.000000
4.605353 -0.828496 0.366375 21.000000
4.569427 -0.836522 0.363974 7.000000
4.565099 0.042902 0.300893 20.000000
4.641079 0.029370 0.305307 83.000000
4.640150 0.015128 0.305249 112.000000
4.639176 0.000892 0.305191 91.000000
4.639156 -0.013341 0.305191 109.000000
4.639094 -0.027573 0.305191 109.000000
4.640984 -0.041824 0.305307 128.000000
4.642830 -0.056086 0.305423 134.000000
4.637645 -0.070254 0.305133 105.000000
4.636410 -0.084463 0.305075 111.000000
4.626148 -0.098474 0.304494 83.000000
4.624826 -0.112642 0.304436 100.000000
4.628450 -0.126940 0.304668 111.000000
4.634027 -0.141322 0.305017 119.000000
4.632573 -0.155505 0.304959 91.000000
4.631077 -0.169680 0.304901 100.000000
4.628540 -0.183808 0.304784 80.000000
4.626956 -0.197965 0.304726 99.000000
4.625330 -0.212113 0.304668 101.000000
4.623660 -0.226254 0.304610 81.000000
4.621947 -0.240386 0.304552 78.000000
4.624179 -0.254730 0.304726 85.000000
4.622378 -0.268857 0.304668 81.000000
4.623525 -0.283159 0.304784 88.000000
4.624627 -0.297471 0.304901 82.000000
4.623693 -0.311658 0.304901 96.000000
4.624706 -0.325982 0.305017 104.000000
4.622688 -0.340096 0.304959 81.000000
4.621624 -0.354276 0.304959 85.000000
4.619520 -0.368374 0.304901 95.000000
4.619363 -0.382627 0.304959 65.000000
4.619162 -0.396883 0.305017 79.000000
4.618917 -0.411141 0.305075 90.000000
4.620616 -0.425585 0.305249 78.000000
4.621276 -0.439948 0.305365 82.000000
4.618911 -0.454026 0.305307 75.000000
4.618490 -0.468296 0.305365 89.000000
4.614053 -0.482151 0.305191 76.000000
4.611559 -0.496198 0.305133 88.000000
4.610015 -0.510343 0.305133 77.000000
4.606443 -0.524258 0.305017 80.000000
4.606797 -0.538620 0.305133 84.000000
4.607105 -0.552989 0.305249 94.000000
4.606378 -0.567243 0.305307 70.000000
4.604616 -0.581373 0.305307 80.000000
4.600831 -0.595240 0.305191 96.000000
4.597993 -0.609222 0.305133 87.000000
4.597092 -0.623459 0.305191 53.000000
4.597135 -0.637835 0.305307 74.000000
4.597133 -0.652216 0.305423 78.000000
4.601038 -0.667177 0.305772 62.000000
4.602920 -0.681875 0.306004 72.000000
4.604755 -0.696591 0.306237 73.000000
4.604568 -0.711020 0.306353 82.000000
4.599407 -0.724677 0.306178 61.000000
4.597163 -0.738784 0.306178 62.000000
4.593889 -0.752723 0.306120 59.000000
4.592543 -0.766978 0.306178 55.000000
4.598041 -0.782404 0.306643 62.000000
4.596603 -0.796678 0.306701 48.000000
4.597086 -0.811297 0.306875 45.000000
4.597524 -0.825927 0.307050 35.000000
4.593986 -0.839848 0.306992 59.000000
4.615924 -0.858504 0.308444 26.000000
4.614250 -0.872847 0.308502 18.000000
4.621982 0.098213 0.249424 69.000000
4.622261 0.084033 0.249424 86.000000
4.622497 0.069851 0.249424 90.000000
4.624688 0.055694 0.249516 82.000000
4.629831 0.041551 0.249747 74.000000
4.626940 0.027329 0.249609 85.000000
4.630998 0.013146 0.249793 99.000000
4.627021 -0.001062 0.249609 83.000000
4.627995 -0.015261 0.249655 75.000000
4.629924 -0.029471 0.249747 77.000000
4.628813 -0.043666 0.249701 81.000000
4.631654 -0.057904 0.249840 110.000000
4.631454 -0.072113 0.249840 78.000000
4.629213 -0.086285 0.249747 88.000000
4.627928 -0.100466 0.249701 101.000000
4.627598 -0.114664 0.249701 110.000000
4.623230 -0.128750 0.249516 82.000000
4.621815 -0.142903 0.249470 92.000000
4.623352 -0.157149 0.249562 93.000000
4.622848 -0.171332 0.249562 95.000000
4.626293 -0.185674 0.249747 85.000000
4.623706 -0.199780 0.249655 81.000000
4.621075 -0.213873 0.249562 72.000000
4.618402 -0.227951 0.249470 80.000000
4.615685 -0.242015 0.249377 84.000000
4.614921 -0.256175 0.249377 63.000000
4.612119 -0.270215 0.249285 67.000000
4.614260 -0.284548 0.249424 68.000000
4.612369 -0.298638 0.249377 86.000000
4.614420 -0.312989 0.249516 76.000000
4.613438 -0.327145 0.249516 77.000000
4.613409 -0.341371 0.249562 78.000000
4.612340 -0.355523 0.249562 53.000000
4.614214 -0.369910 0.249701 66.000000
4.609076 -0.383734 0.249516 77.000000
4.607878 -0.397873 0.249516 65.000000
4.604645 -0.411830 0.249424 66.000000
4.603360 -0.425955 0.249424 55.000000
4.605015 -0.440361 0.249562 93.000000
4.606624 -0.454780 0.249701 71.000000
4.606201 -0.469012 0.249747 77.000000
4.606728 -0.483349 0.249840 60.000000
4.605223 -0.497480 0.249840 70.000000
4.602682 -0.511496 0.249793 62.000000
4.602084 -0.525728 0.249840 61.000000
4.600450 -0.539845 0.249840 61.000000
4.603731 -0.554552 0.250071 59.000000
4.605973 -0.569162 0.250256 73.000000
4.607178 -0.583667 0.250395 63.000000
4.605366 -0.597799 0.250395 61.000000
4.598559 -0.611268 0.250163 57.000000
4.595673 -0.625239 0.250117 51.000000
4.594722 -0.639473 0.250163 58.000000
4.592739 -0.653566 0.250163 71.000000
4.590712 -0.667653 0.250163 52.000000
4.591606 -0.682174 0.250302 55.000000
4.593442 -0.696856 0.250487 67.000000
4.590296 -0.710792 0.250441 63.000000
4.585133 -0.724405 0.250302 56.000000
4.580917 -0.738151 0.250210 51.000000
4.574687 -0.751555 0.250025 53.000000
4.570390 -0.765257 0.249932 44.000000
4.566051 -0.778940 0.249840 65.000000
4.565608 -0.793286 0.249932 35.000000
4.659555 -0.824319 0.254463 7.000000
4.632163 0.142243 0.192621 61.000000
4.641569 0.128279 0.192926 108.000000
4.638943 0.113965 0.192824 103.000000
4.637272 0.099690 0.192756 106.000000
4.635558 0.085425 0.192689 116.000000
4.634799 0.071188 0.192655 126.000000
4.631998 0.056932 0.192553 136.000000
4.627154 0.042675 0.192384 116.000000
4.624265 0.028461 0.192282 127.000000
4.618334 0.014256 0.192079 107.000000
4.619355 0.000087 0.192113 126.000000
4.620333 -0.014089 0.192147 132.000000
4.619268 -0.028257 0.192113 104.000000
4.622159 -0.042457 0.192215 103.000000
4.622006 -0.056637 0.192215 92.000000
4.624809 -0.070863 0.192316 101.000000
4.627567 -0.085107 0.192418 81.000000
4.631281 -0.099390 0.192553 89.000000
4.632953 -0.113647 0.192621 95.000000
4.631583 -0.127832 0.192587 97.000000
4.627173 -0.141918 0.192452 104.000000
4.624719 -0.156046 0.192384 79.000000
4.616228 -0.169939 0.192113 100.000000
4.621677 -0.184340 0.192316 71.000000
4.617095 -0.198346 0.192181 101.000000
4.619461 -0.212649 0.192282 82.000000
4.619784 -0.226869 0.192316 79.000000
4.617071 -0.240937 0.192249 80.000000
4.615312 -0.255046 0.192215 93.000000
4.612512 -0.269087 0.192147 89.000000
4.607675 -0.282992 0.192012 82.000000
4.604790 -0.296998 0.191944 81.000000
4.602860 -0.311056 0.191910 73.000000
4.601884 -0.325176 0.191910 97.000000
4.603855 -0.339514 0.192012 65.000000
4.605781 -0.353866 0.192113 85.000000
4.607663 -0.368234 0.192215 65.000000
4.607507 -0.382451 0.192249 84.000000
4.607308 -0.396671 0.192282 48.000000
4.605073 -0.410715 0.192249 77.000000
4.605783 -0.425025 0.192316 69.000000
4.606446 -0.439344 0.192384 78.000000
4.609056 -0.453866 0.192519 79.000000
4.607641 -0.468004 0.192519 82.000000
4.606184 -0.482138 0.192519 67.000000
4.602695 -0.496053 0.192452 84.000000
4.595192 -0.509510 0.192249 67.000000
4.592614 -0.523493 0.192215 74.000000
4.589001 -0.537347 0.192147 83.000000
4.589316 -0.551662 0.192215 87.000000
4.590578 -0.566107 0.192316 91.000000
4.591794 -0.580564 0.192418 80.000000
4.589991 -0.594649 0.192418 69.000000
4.589136 -0.608860 0.192452 58.000000
4.588236 -0.623071 0.192485 83.000000
4.587293 -0.637282 0.192519 69.000000
4.588285 -0.651774 0.192621 66.000000
4.589231 -0.666279 0.192722 74.000000
4.587165 -0.680355 0.192722 61.000000
4.591973 -0.695474 0.192959 49.000000
4.592781 -0.710017 0.193061 71.000000
4.588606 -0.723792 0.192993 55.000000
4.622873 -0.743743 0.194246 21.000000
4.635079 0.085882 0.136184 69.000000
4.630323 0.071583 0.136076 79.000000
4.631520 0.057389 0.136098 71.000000
4.632674 0.043189 0.136120 56.000000
4.619788 0.028892 0.135838 100.000000
4.621854 0.014725 0.135881 85.000000
4.620878 0.000545 0.135860 68.000000
4.618858 -0.013626 0.135817 82.000000
4.617795 -0.027791 0.135795 86.000000
4.618688 -0.041967 0.135817 77.000000
4.620537 -0.056160 0.135860 79.000000
4.620343 -0.070335 0.135860 78.000000
4.620105 -0.084510 0.135860 78.000000
4.617825 -0.098642 0.135817 87.000000
4.615502 -0.112760 0.135773 89.000000
4.610137 -0.126784 0.135665 101.000000
4.612725 -0.141018 0.135730 70.000000
4.615268 -0.155269 0.135795 85.000000
4.612772 -0.169355 0.135752 83.000000
4.611231 -0.183466 0.135730 84.000000
4.606651 -0.197442 0.135643 95.000000
4.604026 -0.211483 0.135600 75.000000
4.601359 -0.225510 0.135557 71.000000
4.600645 -0.239625 0.135557 78.000000
4.602883 -0.253903 0.135622 78.000000
4.605077 -0.268197 0.135687 78.000000
4.606228 -0.282446 0.135730 66.000000
4.605340 -0.296576 0.135730 73.000000
4.604408 -0.310704 0.135730 65.000000
4.600441 -0.324618 0.135665 79.000000
4.598427 -0.338657 0.135643 82.000000
4.595373 -0.352611 0.135600 63.000000
4.594269 -0.366708 0.135600 65.000000
4.593122 -0.380801 0.135600 77.000000
4.589941 -0.394720 0.135557 60.000000
4.591696 -0.409065 0.135622 66.000000
4.591414 -0.423242 0.135643 65.000000
4.590095 -0.437326 0.135643 72.000000
4.587736 -0.451309 0.135622 56.000000
4.588319 -0.465583 0.135665 74.000000
4.586869 -0.479658 0.135665 66.000000
4.585376 -0.493728 0.135665 65.000000
4.584833 -0.507903 0.135687 50.000000
4.586234 -0.522305 0.135752 53.000000
4.583617 -0.536257 0.135730 54.000000
4.584928 -0.550674 0.135795 65.000000
4.584209 -0.564860 0.135817 69.000000
4.585431 -0.579296 0.135881 48.000000
4.581649 -0.593105 0.135838 52.000000
4.583772 -0.607683 0.135925 50.000000
4.584858 -0.622146 0.135990 35.000000
4.582927 -0.636209 0.135990 51.000000
4.580954 -0.650266 0.135990 44.000000
4.573991 -0.663601 0.135881 35.000000
4.577867 -0.678509 0.136011 8.000000
4.621609 0.041820 0.078788 58.000000
4.615716 0.027606 0.078732 103.000000
4.617779 0.013451 0.078751 89.000000
4.612798 -0.000715 0.078705 115.000000
4.610775 -0.014861 0.078686 109.000000
4.611707 -0.029013 0.078695 126.000000
4.612597 -0.043170 0.078705 115.000000
4.614442 -0.057346 0.078723 110.000000
4.613245 -0.071487 0.078714 97.000000
4.612004 -0.085622 0.078705 128.000000
4.608720 -0.099706 0.078677 86.000000
4.608393 -0.113844 0.078677 105.000000
4.606023 -0.127927 0.078658 101.000000
4.607608 -0.142119 0.078677 100.000000
4.607149 -0.156254 0.078677 87.000000
4.604650 -0.170314 0.078658 103.000000
4.603106 -0.184400 0.078649 102.000000
4.601520 -0.198478 0.078640 93.000000
4.600890 -0.212594 0.078640 88.000000
4.601214 -0.226758 0.078649 93.000000
4.598500 -0.240768 0.078631 105.000000
4.594745 -0.254709 0.078603 63.000000
4.597934 -0.269038 0.078640 74.000000
4.595091 -0.283020 0.078621 73.000000
4.596197 -0.297246 0.078640 81.000000
4.596261 -0.311413 0.078649 83.000000
4.592292 -0.325300 0.078621 82.000000
4.591272 -0.339388 0.078621 73.000000
4.588215 -0.353318 0.078603 72.000000
4.585116 -0.367233 0.078584 80.000000
4.585961 -0.381464 0.078603 89.000000
4.586761 -0.395704 0.078621 80.000000
4.586522 -0.409863 0.078631 83.000000
4.587234 -0.424117 0.078649 82.000000
4.588898 -0.438474 0.078677 104.000000
4.585541 -0.452354 0.078658 93.000000
4.585126 -0.466521 0.078668 99.000000
4.584668 -0.480690 0.078677 76.000000
4.583172 -0.494754 0.078677 65.000000
4.586601 -0.509365 0.078723 89.000000
4.587004 -0.523661 0.078742 83.000000
4.585376 -0.537731 0.078742 79.000000
4.583705 -0.551796 0.078742 86.000000
4.580997 -0.565734 0.078732 88.000000
4.578249 -0.579660 0.078723 66.000000
4.575457 -0.593574 0.078714 57.000000
4.578571 -0.608267 0.078760 38.000000
4.621912 -0.013634 0.020905 50.000000
4.608848 -0.027739 0.020948 86.000000
4.610741 -0.041896 0.020942 84.000000
4.612591 -0.056066 0.020935 72.000000
4.613397 -0.070231 0.020932 63.000000
4.612160 -0.084367 0.020935 84.000000
4.608880 -0.098453 0.020945 76.000000
4.602558 -0.112447 0.020965 109.000000
4.601192 -0.126540 0.020968 92.000000
4.599782 -0.140625 0.020972 94.000000
4.599329 -0.154737 0.020972 87.000000
4.601831 -0.168956 0.020962 89.000000
4.603290 -0.183152 0.020955 81.000000
4.602705 -0.197274 0.020955 81.000000
4.601080 -0.211348 0.020958 76.000000
4.595416 -0.225220 0.020975 92.000000
4.593705 -0.239266 0.020978 91.000000
4.591950 -0.253303 0.020982 85.000000
4.592150 -0.267448 0.020978 81.000000
4.594302 -0.281718 0.020968 68.000000
4.597408 -0.296067 0.020955 67.000000
4.597476 -0.310238 0.020952 78.000000
4.594508 -0.324201 0.020958 62.000000
4.594488 -0.338368 0.020955 73.000000
4.590437 -0.352234 0.020965 74.000000
4.591329 -0.366474 0.020958 58.000000
4.588190 -0.380393 0.020965 72.000000
4.587001 -0.394468 0.020965 70.000000
4.588758 -0.408804 0.020955 49.000000
4.587482 -0.422881 0.020955 81.000000
4.586164 -0.436953 0.020955 75.000000
4.582810 -0.450826 0.020962 61.000000
4.580411 -0.464783 0.020965 57.000000
4.582942 -0.479248 0.020952 52.000000
4.587415 -0.493947 0.020932 54.000000
4.590848 -0.508568 0.020915 60.000000
4.610132 -0.525021 0.020846 37.000000
4.612473 -0.539626 0.020832 44.000000
4.683276 -0.562461 0.020590 39.000000
4.679543 -0.576582 0.020597 13.000000
4.463428 -0.012821 -0.033689 13.000000
4.604348 -0.027364 -0.035904 71.000000
4.601243 -0.041462 -0.035857 90.000000
4.598094 -0.055542 -0.035810 96.000000
4.595903 -0.069618 -0.035778 120.000000
4.594668 -0.083700 -0.035763 72.000000
4.591390 -0.097731 -0.035715 84.000000
4.591069 -0.111817 -0.035715 99.000000
4.593703 -0.125984 -0.035763 111.000000
4.594295 -0.140107 -0.035778 93.000000
4.595841 -0.154269 -0.035810 98.000000
4.595346 -0.168368 -0.035810 95.000000
4.594808 -0.182466 -0.035810 90.000000
4.597224 -0.196690 -0.035857 110.000000
4.592603 -0.210610 -0.035794 97.000000
4.592934 -0.224748 -0.035810 107.000000
4.592223 -0.238837 -0.035810 90.000000
4.591469 -0.252925 -0.035810 105.000000
4.589673 -0.266952 -0.035794 95.000000
4.585839 -0.280848 -0.035747 81.000000
4.584955 -0.294916 -0.035747 78.000000
4.585027 -0.309048 -0.035763 78.000000
4.586051 -0.323254 -0.035794 78.000000
4.587033 -0.337470 -0.035825 101.000000
4.586973 -0.351617 -0.035841 87.000000
4.583879 -0.365529 -0.035810 97.000000
4.581739 -0.379508 -0.035794 70.000000
4.578561 -0.393391 -0.035763 82.000000
4.580321 -0.407703 -0.035810 71.000000
4.584027 -0.422212 -0.035888 65.000000
4.587687 -0.436748 -0.035967 84.000000
4.602246 -0.452387 -0.036218 84.000000
4.607800 -0.467211 -0.036328 93.000000
4.686895 -0.489769 -0.037600 56.000000
4.811625 -0.517741 -0.039595 117.000000
4.809021 -0.532391 -0.039579 76.000000
4.827233 -0.549405 -0.039894 67.000000
4.837442 -0.565607 -0.040082 63.000000
4.849583 -0.582114 -0.040302 76.000000
4.855713 -0.597968 -0.040428 62.000000
4.600818 -0.112405 -0.091129 80.000000
4.598453 -0.126465 -0.091074 75.000000
4.595046 -0.140482 -0.090991 77.000000
4.591596 -0.154478 -0.090907 83.000000
4.590101 -0.168528 -0.090880 79.000000
4.587564 -0.182531 -0.090824 93.000000
4.586983 -0.196604 -0.090824 87.000000
4.586358 -0.210676 -0.090824 81.000000
4.583694 -0.224648 -0.090769 87.000000
4.583981 -0.238762 -0.090796 73.000000
4.583227 -0.252824 -0.090796 89.000000
4.581431 -0.266826 -0.090769 81.000000
4.579594 -0.280819 -0.090741 76.000000
4.574720 -0.294612 -0.090630 68.000000
4.573795 -0.308646 -0.090630 71.000000
4.576815 -0.322957 -0.090741 78.000000
4.579791 -0.337290 -0.090852 65.000000
4.585711 -0.351872 -0.091046 55.000000
4.596568 -0.366891 -0.091379 52.000000
4.610363 -0.382226 -0.091795 54.000000
4.624109 -0.397650 -0.092212 59.000000
4.646764 -0.413957 -0.092877 64.000000
4.700220 -0.433244 -0.094404 59.000000
4.761562 -0.453619 -0.096152 86.000000
4.786014 -0.470763 -0.096873 96.000000
4.778580 -0.484840 -0.096707 85.000000
4.792977 -0.501158 -0.097151 71.000000
4.806326 -0.517462 -0.097567 60.000000
4.823593 -0.534291 -0.098094 54.000000
4.843782 -0.551570 -0.098704 34.000000
4.839088 -0.566080 -0.098621 52.000000
4.851224 -0.582589 -0.099010 50.000000
4.871242 -0.600154 -0.099620 41.000000
4.597677 -0.154331 -0.148753 28.000000
4.580208 -0.167812 -0.148067 80.000000
4.582666 -0.181983 -0.148188 71.000000
4.581089 -0.195998 -0.148148 78.000000
4.578469 -0.209960 -0.148067 84.000000
4.577804 -0.224006 -0.148067 80.000000
4.577095 -0.238049 -0.148067 86.000000
4.577341 -0.252146 -0.148108 82.000000
4.576545 -0.266187 -0.148108 75.000000
4.577702 -0.280349 -0.148188 69.000000
4.582802 -0.294777 -0.148430 72.000000
4.582874 -0.308903 -0.148470 102.000000
4.603832 -0.324509 -0.149357 69.000000
4.621747 -0.340026 -0.150123 88.000000
4.661530 -0.357339 -0.151776 51.000000
4.745073 -0.378397 -0.155202 82.000000
4.761814 -0.394439 -0.155927 79.000000
4.775514 -0.410330 -0.156532 96.000000
4.780204 -0.425511 -0.156774 80.000000
4.783851 -0.440634 -0.156975 79.000000
4.785461 -0.455592 -0.157096 74.000000
4.787024 -0.470565 -0.157217 75.000000
4.787545 -0.485451 -0.157298 74.000000
4.790009 -0.500553 -0.157459 75.000000
4.794412 -0.515888 -0.157701 92.000000
4.804723 -0.531915 -0.158184 81.000000
4.816967 -0.548236 -0.158749 89.000000
4.825187 -0.564173 -0.159152 80.000000
4.832362 -0.580046 -0.159514 62.000000
4.571804 -0.211605 -0.202848 65.000000
4.581108 -0.226120 -0.203372 65.000000
4.579395 -0.240121 -0.203319 77.000000
4.586613 -0.254610 -0.203738 68.000000
4.603756 -0.269727 -0.204680 75.000000
4.609884 -0.284279 -0.205047 62.000000
4.743525 -0.307097 -0.212112 78.000000
4.772451 -0.323669 -0.213682 76.000000
4.781397 -0.339013 -0.214205 75.000000
4.794278 -0.354708 -0.214938 116.000000
4.793167 -0.369415 -0.214938 59.000000
4.797984 -0.384596 -0.215252 42.000000
4.784839 -0.398323 -0.214624 63.000000
4.779614 -0.412658 -0.214415 82.000000
4.776337 -0.427142 -0.214310 91.000000
4.778982 -0.442161 -0.214519 89.000000
4.786549 -0.457674 -0.214990 80.000000
4.791086 -0.472944 -0.215304 107.000000
4.793586 -0.488044 -0.215514 85.000000
4.796039 -0.503164 -0.215723 85.000000
4.806387 -0.519160 -0.216351 67.000000
4.812712 -0.534784 -0.216770 57.000000
4.827917 -0.551469 -0.217660 49.000000
4.833145 -0.567091 -0.218026 53.000000
4.839314 -0.582870 -0.218445 47.000000
4.846424 -0.598814 -0.218916 37.000000
4.825109 -0.236128 -0.276041 65.000000
4.818383 -0.250619 -0.275653 76.000000
4.814601 -0.265235 -0.275459 86.000000
4.807788 -0.279657 -0.275071 62.000000
4.802924 -0.294161 -0.274812 80.000000
4.800007 -0.308767 -0.274682 95.000000
4.796050 -0.323290 -0.274488 107.000000
4.792049 -0.337792 -0.274294 84.000000
4.788005 -0.352272 -0.274100 87.000000
4.789886 -0.367189 -0.274294 71.000000
4.785753 -0.381644 -0.274100 68.000000
4.779587 -0.395912 -0.273777 106.000000
4.777356 -0.410489 -0.273712 100.000000
4.778061 -0.425321 -0.273841 78.000000
4.777728 -0.440069 -0.273906 109.000000
4.775362 -0.454630 -0.273841 123.000000
4.772952 -0.469181 -0.273777 117.000000
4.769504 -0.483620 -0.273647 123.000000
4.773953 -0.498874 -0.274035 102.000000
4.788275 -0.515227 -0.275071 73.000000
4.785680 -0.529805 -0.275006 88.000000
4.791964 -0.545388 -0.275524 95.000000
4.798197 -0.561015 -0.276041 86.000000
4.802398 -0.576447 -0.276430 81.000000
4.823386 -0.593985 -0.277918 59.000000
4.869063 -0.614784 -0.281024 23.000000
4.859490 -0.224847 -0.336073 22.000000
4.837864 -0.238728 -0.334466 60.000000
4.833126 -0.253361 -0.334160 63.000000
4.817393 -0.267363 -0.333011 78.000000
4.809583 -0.281734 -0.332476 82.000000
4.799739 -0.295939 -0.331787 99.000000
4.795823 -0.310470 -0.331557 85.000000
4.791864 -0.324980 -0.331327 88.000000
4.790844 -0.339680 -0.331327 97.000000
4.796740 -0.354890 -0.331863 60.000000
4.791652 -0.369299 -0.331557 86.000000
4.790496 -0.383998 -0.331557 85.000000
4.793271 -0.399023 -0.331863 67.000000
4.787057 -0.413299 -0.331481 87.000000
4.778815 -0.427363 -0.330945 48.000000
4.781452 -0.442389 -0.331251 62.000000
4.769155 -0.456015 -0.330409 64.000000
4.779640 -0.471817 -0.331327 115.000000
4.775195 -0.486176 -0.331098 78.000000
4.774672 -0.500928 -0.331174 77.000000
4.782035 -0.516535 -0.331863 69.000000
4.785382 -0.531753 -0.332246 78.000000
4.792645 -0.547449 -0.332935 61.000000
4.815700 -0.565049 -0.334848 42.000000
4.809984 -0.579344 -0.334542 50.000000
4.844798 -0.598613 -0.337374 25.000000
4.842938 -0.613474 -0.337374 27.000000
4.845682 -0.223926 -0.394486 40.000000
4.818111 -0.237466 -0.392091 95.000000
4.819349 -0.252350 -0.392268 73.000000
4.806618 -0.266472 -0.391204 102.000000
4.800806 -0.280926 -0.390760 112.000000
4.797934 -0.295531 -0.390583 111.000000
4.796010 -0.310185 -0.390494 101.000000
4.796030 -0.324965 -0.390583 92.000000
4.797991 -0.339889 -0.390849 95.000000
4.797919 -0.354681 -0.390937 112.000000
4.807732 -0.370241 -0.391913 84.000000
4.813524 -0.385546 -0.392534 103.000000
4.825222 -0.401387 -0.393688 105.000000
4.827938 -0.416531 -0.394043 125.000000
4.822669 -0.430986 -0.393688 104.000000
4.813390 -0.445046 -0.392978 135.000000
4.801095 -0.458768 -0.392002 88.000000
4.789752 -0.472516 -0.391115 91.000000
4.780352 -0.486402 -0.390405 100.000000
4.772894 -0.500442 -0.389873 108.000000
4.773316 -0.515296 -0.390050 90.000000
4.772704 -0.530048 -0.390139 101.000000
4.776002 -0.545253 -0.390583 93.000000
4.784200 -0.561064 -0.391470 72.000000
4.786412 -0.576216 -0.391825 86.000000
4.793519 -0.591997 -0.392623 76.000000
4.815395 -0.609706 -0.394752 43.000000
4.820295 -0.237024 -0.453286 21.000000
4.819545 -0.251812 -0.453286 71.000000
4.814776 -0.266378 -0.452881 78.000000
4.810957 -0.280975 -0.452578 74.000000
4.812058 -0.295855 -0.452780 63.000000
4.809142 -0.310489 -0.452578 78.000000
4.811145 -0.325443 -0.452881 85.000000
4.814094 -0.340481 -0.453286 90.000000
4.822948 -0.355979 -0.454299 85.000000
4.828777 -0.371306 -0.455007 60.000000
4.837532 -0.386910 -0.456020 71.000000
4.849212 -0.402817 -0.457336 56.000000
4.874716 -0.419991 -0.460069 26.000000
4.874395 -0.435033 -0.460170 30.000000
4.838364 -0.446792 -0.456627 42.000000
4.823105 -0.460314 -0.455210 67.000000
4.815729 -0.474525 -0.454602 54.000000
4.802374 -0.488093 -0.453388 60.000000
4.791948 -0.501893 -0.452477 76.000000
4.788408 -0.516380 -0.452274 51.000000
4.784823 -0.530849 -0.452072 71.000000
4.790092 -0.546313 -0.452780 82.000000
4.800251 -0.562393 -0.453995 59.000000
4.803442 -0.577710 -0.454501 58.000000
4.835218 -0.596578 -0.457943 40.000000
4.854093 -0.614026 -0.460069 14.000000
4.862834 -0.238825 -0.515880 28.000000
4.847195 -0.252965 -0.514184 74.000000
4.843420 -0.267670 -0.513845 76.000000
4.832657 -0.281949 -0.512715 114.000000
4.826811 -0.296469 -0.512150 101.000000
4.819929 -0.310892 -0.511471 129.000000
4.819944 -0.325745 -0.511584 121.000000
4.825860 -0.341022 -0.512376 126.000000
4.834700 -0.356557 -0.513506 117.000000
4.842499 -0.372074 -0.514523 108.000000
4.846287 -0.387325 -0.515088 111.000000
4.867850 -0.404084 -0.517688 67.000000
4.898553 -0.452067 -0.521644 44.000000
4.845710 -0.462184 -0.515766 94.000000
4.840314 -0.476658 -0.515314 81.000000
4.816093 -0.489195 -0.512715 129.000000
4.820499 -0.504589 -0.513393 101.000000
4.814977 -0.518950 -0.512941 99.000000
4.813362 -0.533719 -0.512941 92.000000
4.816638 -0.549047 -0.513506 87.000000
4.820852 -0.564516 -0.514184 98.000000
4.827975 -0.580371 -0.515201 108.000000
4.828145 -0.595424 -0.515427 84.000000
4.863739 -0.254110 -0.577100 69.000000
4.868880 -0.269358 -0.577852 55.000000
4.843270 -0.282854 -0.574718 77.000000
4.838418 -0.297469 -0.574217 90.000000
4.833523 -0.312057 -0.573716 87.000000
4.835512 -0.327085 -0.574092 94.000000
4.841413 -0.342407 -0.574969 92.000000
4.845287 -0.357622 -0.575596 70.000000
4.850103 -0.372941 -0.576348 72.000000
4.857837 -0.388529 -0.577476 68.000000
4.885873 -0.466289 -0.581862 51.000000
4.873559 -0.480209 -0.580484 63.000000
4.864166 -0.494358 -0.579481 65.000000
4.855720 -0.508557 -0.578604 65.000000
4.845259 -0.522496 -0.577476 80.000000
4.840674 -0.537032 -0.577100 90.000000
4.843933 -0.552441 -0.577726 64.000000
4.847142 -0.567875 -0.578353 61.000000
4.852273 -0.583571 -0.579230 52.000000
4.853413 -0.598819 -0.579606 69.000000
4.861396 -0.614949 -0.580860 10.000000
4.909451 -0.254506 -0.643785 30.000000
4.879966 -0.267990 -0.639799 62.000000
4.861322 -0.281927 -0.637325 87.000000
4.844615 -0.295872 -0.635126 129.000000
4.847639 -0.310988 -0.635676 121.000000
4.852592 -0.326258 -0.636500 121.000000
4.860461 -0.341770 -0.637737 119.000000
4.865316 -0.357115 -0.638562 104.000000
4.866172 -0.372192 -0.638837 81.000000
4.882781 -0.388535 -0.641311 46.000000
5.000490 -0.475204 -0.658629 17.000000
4.895503 -0.480378 -0.644197 92.000000
4.890064 -0.494995 -0.643647 74.000000
4.875716 -0.508658 -0.641861 108.000000
4.860344 -0.522132 -0.639936 102.000000
4.850843 -0.536170 -0.638837 101.000000
4.846224 -0.550714 -0.638425 113.000000
4.846478 -0.565809 -0.638699 86.000000
4.848654 -0.581147 -0.639249 84.000000
4.871425 -0.599044 -0.642685 27.000000
4.937181 -0.243605 -0.707264 19.000000
4.907774 -0.257256 -0.702937 110.000000
4.899064 -0.271876 -0.701744 148.000000
4.890310 -0.286444 -0.700550 139.000000
4.878551 -0.300779 -0.698909 132.000000
4.870698 -0.315299 -0.697865 124.000000
4.868721 -0.330174 -0.697716 97.000000
4.869658 -0.345249 -0.698014 87.000000
4.881396 -0.361133 -0.699953 71.000000
4.911866 -0.500058 -0.706369 57.000000
4.900475 -0.514095 -0.704877 71.000000
4.891009 -0.528280 -0.703683 128.000000
4.884452 -0.542738 -0.702937 100.000000
4.888659 -0.558392 -0.703832 69.000000
4.887905 -0.573503 -0.703982 88.000000
4.890049 -0.588968 -0.704578 97.000000
4.899995 -0.605420 -0.706369 65.000000
4.919146 -0.240738 -0.765098 46.000000
4.890788 -0.254391 -0.760588 115.000000
4.888013 -0.269285 -0.760266 145.000000
4.884208 -0.284108 -0.759782 131.000000
4.883314 -0.299091 -0.759782 143.000000
4.887297 -0.314389 -0.760588 118.000000
4.895173 -0.329980 -0.762038 133.000000
4.903982 -0.345691 -0.763649 142.000000
4.910772 -0.361315 -0.764937 134.000000
4.922434 -0.377361 -0.767031 88.000000
4.937219 -0.500640 -0.771220 83.000000
4.932715 -0.515477 -0.770736 121.000000
4.926204 -0.530080 -0.769931 149.000000
4.919650 -0.544647 -0.769126 160.000000
4.916975 -0.559626 -0.768964 149.000000
4.913275 -0.574479 -0.768642 123.000000
4.911489 -0.589550 -0.768642 105.000000
4.910637 -0.604736 -0.768803 115.000000
4.944987 -0.624376 -0.774764 31.000000
