ply
format ascii 1.0
element vertex 951
property float x
property float y
property float z
property float intensity
end_header
4.512717 0.029765 0.574809 80.000000
4.518744 0.015943 0.575523 106.000000
4.523736 0.002083 0.576117 81.000000
4.527693 -0.011805 0.576593 92.000000
4.526642 -0.025691 0.576474 101.000000
4.525549 -0.039570 0.576355 87.000000
4.523421 -0.053431 0.576117 87.000000
4.517279 -0.067221 0.575404 96.000000
4.515066 -0.081044 0.575166 111.000000
4.509833 -0.094793 0.574571 106.000000
4.508528 -0.108605 0.574452 105.000000
4.509166 -0.122463 0.574571 103.000000
4.511747 -0.136386 0.574928 102.000000
4.516269 -0.150391 0.575523 103.000000
4.517770 -0.164317 0.575761 78.000000
4.518237 -0.178216 0.575880 83.000000
4.515685 -0.191993 0.575642 98.000000
4.511107 -0.205666 0.575166 91.000000
4.509463 -0.219457 0.575047 70.000000
4.506785 -0.233189 0.574809 89.000000
4.504066 -0.246906 0.574571 70.000000
4.506261 -0.260895 0.574928 71.000000
4.509404 -0.274959 0.575404 85.000000
4.512503 -0.289045 0.575880 87.000000
4.516548 -0.303219 0.576474 72.000000
4.519558 -0.317352 0.576950 79.000000
4.518564 -0.331216 0.576950 66.000000
4.519506 -0.345228 0.577188 68.000000
4.519416 -0.359170 0.577307 70.000000
4.518292 -0.373034 0.577307 69.000000
4.518116 -0.386979 0.577426 63.000000
4.516908 -0.400838 0.577426 73.000000
4.520601 -0.415147 0.578020 55.000000
4.521282 -0.429201 0.578258 63.000000
4.522909 -0.443360 0.578615 60.000000
4.520540 -0.457134 0.578496 51.000000
4.521091 -0.471206 0.578734 61.000000
4.526535 -0.485814 0.579566 56.000000
4.524036 -0.499591 0.579447 48.000000
4.526429 -0.513915 0.579923 68.000000
4.529762 -0.528373 0.580518 70.000000
4.528119 -0.542268 0.580518 61.000000
4.530377 -0.556641 0.580993 62.000000
4.529633 -0.570661 0.581112 57.000000
4.527861 -0.584555 0.581112 48.000000
4.528015 -0.598703 0.581350 49.000000
4.528125 -0.612858 0.581588 46.000000
4.528190 -0.627019 0.581826 43.000000
4.528212 -0.641186 0.582064 54.000000
4.528189 -0.655360 0.582301 44.000000
4.526157 -0.669249 0.582301 38.000000
4.530955 -0.684168 0.583134 53.000000
4.534723 -0.698971 0.583847 47.000000
4.535500 -0.713342 0.584204 48.000000
4.536230 -0.727725 0.584561 59.000000
4.532997 -0.741478 0.584442 44.000000
4.531680 -0.755545 0.584561 43.000000
4.527383 -0.769112 0.584323 53.000000
4.520110 -0.782153 0.583729 49.000000
4.521601 -0.796705 0.584204 42.000000
4.527931 -0.812149 0.585275 19.000000
4.541871 0.029541 0.522285 48.000000
4.537963 0.015593 0.521858 93.000000
4.540972 0.001671 0.522178 74.000000
4.540956 -0.012260 0.522178 105.000000
4.541891 -0.026197 0.522285 102.000000
4.542784 -0.040140 0.522391 102.000000
4.542639 -0.054077 0.522391 105.000000
4.542452 -0.068014 0.522391 87.000000
4.541227 -0.081931 0.522285 84.000000
4.539961 -0.095842 0.522178 103.000000
4.538651 -0.109746 0.522071 99.000000
4.541276 -0.123751 0.522391 73.000000
4.538887 -0.137623 0.522178 78.000000
4.541424 -0.151647 0.522498 72.000000
4.544912 -0.165725 0.522925 68.000000
4.542395 -0.179589 0.522712 85.000000
4.544803 -0.193651 0.523032 77.000000
4.544188 -0.207593 0.523032 75.000000
4.542536 -0.221485 0.522925 70.000000
4.539849 -0.235317 0.522712 90.000000
4.536128 -0.249080 0.522391 78.000000
4.533357 -0.262881 0.522178 60.000000
4.532529 -0.276788 0.522178 85.000000
4.533643 -0.290819 0.522391 61.000000
4.535706 -0.304927 0.522712 72.000000
4.538716 -0.319121 0.523139 76.000000
4.542674 -0.333408 0.523673 82.000000
4.545595 -0.347647 0.524100 72.000000
4.547480 -0.361828 0.524420 86.000000
4.545358 -0.375695 0.524314 77.000000
4.541212 -0.389383 0.523993 78.000000
4.538015 -0.403138 0.523780 84.000000
4.535767 -0.416967 0.523673 91.000000
4.536446 -0.431069 0.523886 60.000000
4.539060 -0.445373 0.524314 80.000000
4.540640 -0.459598 0.524634 55.000000
4.544153 -0.474042 0.525168 83.000000
4.544655 -0.488194 0.525381 67.000000
4.545112 -0.502353 0.525595 77.000000
4.544537 -0.516407 0.525702 70.000000
4.546882 -0.530809 0.526129 104.000000
4.537334 -0.543808 0.525275 70.000000
4.531698 -0.557240 0.524847 60.000000
4.530953 -0.571265 0.524954 68.000000
4.530165 -0.585291 0.525061 54.000000
4.532291 -0.599709 0.525488 57.000000
4.536342 -0.614412 0.526129 63.000000
4.539360 -0.629009 0.526663 62.000000
4.543315 -0.643770 0.527304 51.000000
4.542302 -0.657848 0.527410 56.000000
4.540263 -0.671781 0.527410 64.000000
4.540146 -0.686004 0.527624 54.000000
4.539003 -0.700082 0.527731 70.000000
4.537816 -0.714158 0.527837 69.000000
4.540513 -0.728865 0.528371 55.000000
4.541198 -0.743274 0.528692 59.000000
4.546743 -0.758512 0.529546 53.000000
4.547335 -0.772958 0.529866 54.000000
4.550820 -0.787924 0.530507 42.000000
4.548382 -0.801882 0.530507 53.000000
4.577216 -0.821455 0.533924 16.000000
4.556244 0.029271 0.469389 46.000000
4.545362 0.015253 0.468344 97.000000
4.547378 0.001309 0.468534 118.000000
4.545370 -0.012637 0.468344 84.000000
4.544314 -0.026577 0.468249 120.000000
4.542220 -0.040501 0.468059 125.000000
4.541080 -0.054425 0.467964 109.000000
4.541886 -0.068371 0.468059 109.000000
4.544641 -0.082358 0.468344 128.000000
4.545362 -0.096321 0.468439 111.000000
4.547036 -0.110314 0.468629 133.000000
4.549661 -0.124344 0.468914 105.000000
4.552244 -0.138392 0.469199 113.000000
4.554782 -0.152456 0.469484 112.000000
4.555288 -0.166465 0.469579 119.000000
4.553761 -0.180401 0.469484 87.000000
4.550203 -0.194244 0.469199 102.000000
4.549585 -0.208203 0.469199 88.000000
4.546936 -0.222064 0.469009 102.000000
4.548222 -0.236115 0.469199 99.000000
4.549464 -0.250176 0.469389 90.000000
4.546688 -0.264018 0.469199 87.000000
4.547843 -0.278087 0.469389 92.000000
4.545975 -0.291974 0.469294 100.000000
4.547044 -0.306053 0.469484 65.000000
4.546084 -0.320002 0.469484 81.000000
4.547067 -0.334093 0.469674 73.000000
4.549991 -0.348344 0.470054 95.000000
4.552870 -0.362617 0.470434 96.000000
4.553721 -0.376747 0.470624 93.000000
4.552543 -0.390716 0.470624 89.000000
4.549340 -0.404505 0.470434 91.000000
4.547087 -0.418370 0.470339 81.000000
4.544790 -0.432224 0.470244 77.000000
4.544434 -0.446262 0.470339 85.000000
4.547995 -0.460702 0.470813 75.000000
4.553492 -0.475375 0.471478 80.000000
4.554981 -0.489661 0.471763 56.000000
4.559394 -0.504289 0.472333 92.000000
4.558815 -0.518386 0.472428 68.000000
4.558191 -0.532485 0.472523 77.000000
4.553571 -0.546112 0.472238 66.000000
4.552863 -0.560201 0.472333 60.000000
4.550135 -0.574042 0.472238 53.000000
4.549339 -0.588127 0.472333 67.000000
4.549487 -0.602342 0.472523 79.000000
4.547618 -0.616297 0.472523 79.000000
4.548664 -0.630655 0.472808 57.000000
4.551636 -0.645305 0.473283 68.000000
4.550620 -0.659408 0.473378 56.000000
4.551530 -0.673803 0.473663 78.000000
4.552394 -0.688209 0.473948 65.000000
4.555181 -0.702930 0.474423 81.000000
4.554970 -0.717211 0.474613 55.000000
4.558645 -0.732128 0.475182 71.000000
4.561290 -0.746913 0.475657 77.000000
4.560941 -0.761231 0.475847 59.000000
4.561528 -0.775720 0.476132 57.000000
4.561089 -0.790050 0.476322 50.000000
4.558644 -0.804040 0.476322 51.000000
4.581632 -0.822589 0.478792 10.000000
4.552396 0.029608 0.411555 45.000000
4.565421 0.015685 0.412627 93.000000
4.565448 0.001678 0.412627 93.000000
4.564435 -0.012326 0.412545 86.000000
4.565372 -0.026335 0.412627 79.000000
4.565269 -0.040341 0.412627 80.000000
4.564128 -0.054335 0.412545 96.000000
4.567925 -0.068397 0.412875 79.000000
4.568691 -0.082429 0.412957 94.000000
4.567420 -0.096424 0.412875 83.000000
4.567103 -0.110436 0.412875 79.000000
4.562757 -0.124339 0.412545 74.000000
4.562355 -0.138336 0.412545 93.000000
4.562904 -0.152366 0.412627 93.000000
4.563411 -0.166401 0.412710 92.000000
4.564871 -0.180479 0.412875 96.000000
4.567283 -0.194611 0.413122 78.000000
4.571642 -0.208850 0.413534 67.000000
4.570980 -0.222874 0.413534 86.000000
4.573261 -0.237052 0.413782 79.000000
4.570522 -0.250972 0.413617 58.000000
4.576694 -0.265397 0.414194 60.000000
4.577848 -0.279559 0.414359 67.000000
4.576969 -0.293602 0.414359 91.000000
4.580024 -0.307911 0.414689 86.000000
4.582040 -0.322170 0.414936 86.000000
4.582025 -0.336299 0.415019 75.000000
4.579977 -0.350279 0.414936 75.000000
4.575901 -0.364091 0.414689 68.000000
4.573769 -0.378046 0.414606 62.000000
4.571595 -0.391991 0.414524 58.000000
4.570371 -0.406015 0.414524 91.000000
4.569103 -0.420035 0.414524 71.000000
4.566802 -0.433956 0.414442 80.000000
4.566440 -0.448062 0.414524 88.000000
4.565044 -0.462070 0.414524 82.000000
4.566579 -0.476383 0.414771 54.000000
4.568068 -0.490711 0.415019 86.000000
4.571494 -0.505271 0.415431 75.000000
4.571903 -0.519519 0.415596 58.000000
4.572267 -0.533774 0.415761 80.000000
4.573576 -0.548155 0.416008 72.000000
4.571874 -0.562184 0.416008 81.000000
4.571115 -0.576333 0.416091 65.000000
4.573279 -0.590865 0.416421 75.000000
4.572433 -0.605024 0.416503 80.000000
4.573518 -0.619450 0.416750 82.000000
4.574558 -0.633889 0.416998 64.000000
4.572591 -0.647921 0.416998 66.000000
4.571568 -0.662089 0.417080 63.000000
4.571487 -0.676404 0.417245 72.000000
4.569391 -0.690425 0.417245 61.000000
4.570206 -0.704897 0.417493 53.000000
4.571959 -0.719535 0.417822 68.000000
4.577602 -0.734822 0.418482 46.000000
4.577293 -0.749185 0.418647 63.000000
4.579888 -0.764045 0.419059 49.000000
4.579488 -0.778426 0.419224 50.000000
4.578060 -0.792642 0.419307 47.000000
4.567755 -0.805299 0.418647 31.000000
4.618232 -0.828819 0.423100 6.000000
4.587427 0.027883 0.359877 32.000000
4.577516 0.013777 0.359171 87.000000
4.578535 -0.000267 0.359242 89.000000
4.578512 -0.014314 0.359242 85.000000
4.578447 -0.028360 0.359242 81.000000
4.576343 -0.042389 0.359100 89.000000
4.574197 -0.056404 0.358959 96.000000
4.572007 -0.070407 0.358818 80.000000
4.577754 -0.084543 0.359242 97.000000
4.577473 -0.098587 0.359242 102.000000
4.579143 -0.112678 0.359383 92.000000
4.578776 -0.126726 0.359383 85.000000
4.579363 -0.140804 0.359453 100.000000
4.580903 -0.154919 0.359595 85.000000
4.578413 -0.168899 0.359453 74.000000
4.580863 -0.183064 0.359665 80.000000
4.581276 -0.197159 0.359736 74.000000
4.582643 -0.211305 0.359877 88.000000
4.584962 -0.225510 0.360089 71.000000
4.577276 -0.239212 0.359595 49.000000
4.582496 -0.253583 0.360018 60.000000
4.581697 -0.267641 0.360018 90.000000
4.579858 -0.281635 0.359948 65.000000
4.580964 -0.295813 0.360089 67.000000
4.581029 -0.309933 0.360160 73.000000
4.584037 -0.324266 0.360442 84.000000
4.588990 -0.338767 0.360866 91.000000
4.590913 -0.353073 0.361078 75.000000
4.591796 -0.367315 0.361219 78.000000
4.593630 -0.381648 0.361431 79.000000
4.593431 -0.395824 0.361502 73.000000
4.594183 -0.410092 0.361643 68.000000
4.591909 -0.424093 0.361572 51.000000
4.589594 -0.438084 0.361502 74.000000
4.585250 -0.451870 0.361290 70.000000
4.581857 -0.465734 0.361148 69.000000
4.579414 -0.479685 0.361078 63.000000
4.578913 -0.493839 0.361148 57.000000
4.573411 -0.507446 0.360866 44.000000
4.580753 -0.522489 0.361502 73.000000
4.581110 -0.536772 0.361643 78.000000
4.581422 -0.551062 0.361784 56.000000
4.584661 -0.565725 0.362137 63.000000
4.584882 -0.580037 0.362279 68.000000
4.586049 -0.594485 0.362490 51.000000
4.587170 -0.608945 0.362702 53.000000
4.589234 -0.623551 0.362985 68.000000
4.588288 -0.637765 0.363055 58.000000
4.588284 -0.652119 0.363197 46.000000
4.586262 -0.666193 0.363197 87.000000
4.583210 -0.680114 0.363126 51.000000
4.580116 -0.694023 0.363055 60.000000
4.576979 -0.707919 0.362985 49.000000
4.577741 -0.722423 0.363197 56.000000
4.578458 -0.736939 0.363409 72.000000
4.580113 -0.751627 0.363691 67.000000
4.584673 -0.766825 0.364185 70.000000
4.588199 -0.781891 0.364609 45.000000
4.589710 -0.796645 0.364892 47.000000
4.589209 -0.811069 0.365033 55.000000
4.584735 -0.824792 0.364892 57.000000
4.563540 -0.835446 0.363550 11.000000
4.615856 0.057538 0.303855 13.000000
4.595047 0.043181 0.302635 100.000000
4.594160 0.029077 0.302577 89.000000
4.596224 0.014989 0.302693 120.000000
4.599243 0.000888 0.302868 123.000000
4.600222 -0.013225 0.302926 99.000000
4.602157 -0.027351 0.303042 93.000000
4.604048 -0.041488 0.303158 87.000000
4.605896 -0.055637 0.303274 89.000000
4.601710 -0.069707 0.303042 129.000000
4.604469 -0.083879 0.303216 81.000000
4.599199 -0.097898 0.302926 118.000000
4.600874 -0.112057 0.303042 81.000000
4.597515 -0.126089 0.302868 86.000000
4.596108 -0.140163 0.302809 95.000000
4.594659 -0.154229 0.302751 94.000000
4.598155 -0.168471 0.302984 85.000000
4.596619 -0.182538 0.302926 96.000000
4.596037 -0.196639 0.302926 89.000000
4.598404 -0.210876 0.303100 76.000000
4.597735 -0.224983 0.303100 76.000000
4.596026 -0.239036 0.303042 77.000000
4.598262 -0.253300 0.303216 71.000000
4.600453 -0.267580 0.303390 65.000000
4.598614 -0.281632 0.303332 75.000000
4.604702 -0.296188 0.303739 67.000000
4.603772 -0.310313 0.303739 88.000000
4.605785 -0.324647 0.303913 92.000000
4.606759 -0.338922 0.304029 85.000000
4.603706 -0.352901 0.303913 78.000000
4.605587 -0.367262 0.304087 95.000000
4.606429 -0.381555 0.304204 75.000000
4.606231 -0.395771 0.304262 88.000000
4.610962 -0.410433 0.304610 74.000000
4.612663 -0.424852 0.304784 74.000000
4.614320 -0.439285 0.304959 94.000000
4.615931 -0.453733 0.305133 78.000000
4.611537 -0.467590 0.304959 78.000000
4.610081 -0.481736 0.304959 79.000000
4.608582 -0.495877 0.304959 75.000000
4.604062 -0.509684 0.304784 76.000000
4.601484 -0.523694 0.304726 72.000000
4.598865 -0.537692 0.304668 83.000000
4.598185 -0.551918 0.304726 70.000000
4.599442 -0.566389 0.304901 77.000000
4.600654 -0.580872 0.305075 58.000000
4.602811 -0.595497 0.305307 65.000000
4.601952 -0.609746 0.305365 65.000000
4.603027 -0.624265 0.305540 58.000000
4.599113 -0.638109 0.305423 71.000000
4.599110 -0.652497 0.305540 53.000000
4.596099 -0.666460 0.305481 90.000000
4.596994 -0.680997 0.305656 65.000000
4.598833 -0.695695 0.305888 62.000000
4.601609 -0.710563 0.306178 67.000000
4.602366 -0.725143 0.306353 58.000000
4.604062 -0.739894 0.306585 52.000000
4.610637 -0.755469 0.307108 49.000000
4.604359 -0.768952 0.306875 64.000000
4.600994 -0.782907 0.306817 30.000000
4.606440 -0.798383 0.307282 76.000000
4.602002 -0.812165 0.307166 65.000000
4.598506 -0.826103 0.307108 50.000000
4.539975 -0.829970 0.303797 15.000000
4.667896 0.027581 0.251504 14.000000
4.607024 0.013072 0.248684 71.000000
4.604046 -0.001063 0.248545 49.000000
4.606018 -0.015194 0.248638 66.000000
4.607948 -0.029337 0.248730 76.000000
4.607836 -0.043474 0.248730 83.000000
4.608680 -0.057622 0.248776 87.000000
4.609480 -0.071777 0.248823 82.000000
4.606242 -0.085863 0.248684 62.000000
4.607954 -0.100037 0.248776 75.000000
4.608624 -0.114198 0.248823 93.000000
4.611248 -0.128419 0.248961 99.000000
4.612829 -0.142627 0.249054 99.000000
4.616363 -0.156913 0.249239 90.000000
4.616858 -0.171112 0.249285 91.000000
4.616312 -0.185276 0.249285 80.000000
4.617718 -0.199523 0.249377 85.000000
4.617084 -0.213689 0.249377 92.000000
4.615409 -0.227804 0.249331 93.000000
4.616683 -0.242067 0.249424 88.000000
4.615919 -0.256230 0.249424 71.000000
4.613116 -0.270273 0.249331 78.000000
4.608277 -0.284180 0.249146 63.000000
4.607384 -0.298317 0.249146 75.000000
4.606447 -0.312451 0.249146 68.000000
4.606463 -0.326652 0.249192 72.000000
4.610420 -0.341150 0.249424 67.000000
4.610348 -0.355370 0.249470 61.000000
4.617202 -0.370149 0.249840 74.000000
4.619031 -0.384560 0.249978 75.000000
4.617830 -0.398730 0.249978 74.000000
4.617580 -0.412984 0.250025 65.000000
4.618281 -0.427332 0.250117 64.000000
4.618937 -0.441688 0.250210 81.000000
4.618554 -0.455955 0.250256 70.000000
4.617133 -0.470122 0.250256 78.000000
4.617656 -0.484493 0.250348 76.000000
4.616148 -0.498658 0.250348 66.000000
4.612610 -0.512597 0.250256 66.000000
4.613994 -0.527086 0.250395 70.000000
4.611363 -0.541122 0.250348 67.000000
4.613648 -0.555744 0.250533 52.000000
4.614896 -0.570263 0.250672 70.000000
4.613124 -0.584418 0.250672 64.000000
4.608338 -0.598184 0.250533 39.000000
4.609452 -0.612713 0.250672 57.000000
4.611510 -0.627389 0.250857 54.000000
4.614510 -0.642222 0.251088 48.000000
4.618453 -0.657219 0.251365 56.000000
4.622346 -0.672246 0.251643 65.000000
4.624214 -0.687010 0.251828 63.000000
4.629986 -0.702390 0.252198 62.000000
4.629784 -0.716897 0.252290 67.000000
4.625589 -0.730786 0.252198 71.000000
4.626284 -0.745450 0.252336 62.000000
4.623975 -0.759640 0.252336 64.000000
4.624579 -0.774316 0.252475 63.000000
4.627105 -0.789339 0.252706 54.000000
4.627614 -0.804044 0.252845 52.000000
4.589713 -0.811981 0.251180 25.000000
4.543941 -0.818280 0.249146 8.000000
4.680232 0.028801 0.194178 14.000000
4.622331 0.014268 0.192215 75.000000
4.623353 0.000086 0.192249 89.000000
4.625330 -0.014104 0.192316 84.000000
4.627264 -0.028307 0.192384 109.000000
4.631153 -0.042540 0.192519 99.000000
4.633999 -0.056785 0.192621 119.000000
4.635801 -0.071032 0.192689 109.000000
4.637560 -0.085291 0.192756 111.000000
4.637277 -0.099519 0.192756 89.000000
4.636950 -0.113745 0.192756 104.000000
4.636579 -0.127971 0.192756 91.000000
4.633167 -0.142103 0.192655 99.000000
4.632710 -0.156317 0.192655 105.000000
4.637202 -0.170713 0.192824 96.000000
4.640651 -0.185099 0.192959 80.000000
4.640061 -0.199335 0.192959 79.000000
4.640426 -0.213616 0.192993 74.000000
4.634758 -0.227606 0.192824 88.000000
4.636034 -0.241928 0.192892 85.000000
4.639261 -0.256371 0.193027 73.000000
4.635460 -0.270428 0.192926 89.000000
4.640594 -0.285016 0.193129 70.000000
4.645681 -0.299639 0.193332 74.000000
4.647732 -0.314092 0.193433 73.000000
4.643755 -0.328138 0.193332 64.000000
4.648707 -0.342825 0.193535 69.000000
4.644644 -0.356856 0.193433 65.000000
4.643528 -0.371104 0.193433 73.000000
4.644359 -0.385513 0.193501 69.000000
4.638176 -0.399331 0.193332 80.000000
4.636929 -0.413559 0.193332 93.000000
4.635638 -0.427783 0.193332 87.000000
4.633309 -0.441908 0.193298 78.000000
4.633921 -0.456317 0.193366 91.000000
4.632498 -0.470531 0.193366 61.000000
4.632027 -0.484845 0.193400 77.000000
4.631512 -0.499161 0.193433 82.000000
4.627972 -0.513148 0.193366 62.000000
4.628361 -0.527570 0.193433 98.000000
4.627714 -0.541884 0.193467 98.000000
4.628015 -0.556318 0.193535 86.000000
4.628270 -0.570758 0.193603 83.000000
4.627488 -0.585080 0.193636 90.000000
4.636574 -0.600688 0.194009 57.000000
4.629755 -0.614252 0.193840 88.000000
4.633791 -0.629261 0.194043 59.000000
4.627879 -0.642924 0.193907 83.000000
4.628854 -0.657541 0.194009 75.000000
4.630771 -0.672313 0.194144 68.000000
4.632641 -0.687104 0.194280 67.000000
4.629522 -0.701164 0.194246 81.000000
4.636239 -0.716739 0.194551 60.000000
4.635005 -0.731115 0.194584 72.000000
4.634714 -0.745649 0.194652 66.000000
4.632405 -0.759865 0.194652 81.000000
4.632023 -0.774403 0.194720 67.000000
4.637507 -0.789953 0.194991 38.000000
4.628169 -0.802981 0.194754 64.000000
4.620763 -0.816306 0.194584 27.000000
4.739758 0.029672 0.138435 22.000000
4.635851 0.014773 0.136184 54.000000
4.631876 0.000549 0.136098 60.000000
4.637854 -0.013677 0.136228 74.000000
4.637790 -0.027906 0.136228 60.000000
4.642681 -0.042179 0.136336 70.000000
4.644530 -0.056446 0.136379 91.000000
4.635337 -0.070560 0.136184 59.000000
4.642097 -0.084907 0.136336 93.000000
4.641814 -0.099148 0.136336 96.000000
4.640489 -0.113364 0.136314 93.000000
4.643117 -0.127682 0.136379 95.000000
4.642704 -0.141927 0.136379 95.000000
4.642246 -0.156170 0.136379 99.000000
4.643744 -0.170484 0.136423 100.000000
4.641201 -0.184651 0.136379 87.000000
4.643610 -0.199017 0.136444 84.000000
4.646972 -0.213445 0.136531 98.000000
4.648292 -0.227798 0.136574 81.000000
4.650567 -0.242213 0.136639 98.000000
4.649802 -0.256479 0.136639 86.000000
4.653983 -0.271033 0.136747 69.000000
4.646144 -0.284883 0.136596 86.000000
4.650237 -0.299456 0.136704 67.000000
4.645307 -0.313453 0.136617 79.000000
4.645320 -0.327773 0.136639 82.000000
4.647284 -0.342243 0.136704 64.000000
4.650200 -0.356804 0.136790 64.000000
4.647090 -0.370910 0.136747 62.000000
4.646926 -0.385248 0.136769 76.000000
4.646719 -0.399588 0.136790 65.000000
4.644475 -0.413754 0.136769 75.000000
4.646171 -0.428276 0.136834 80.000000
4.648816 -0.442906 0.136920 68.000000
4.650420 -0.457459 0.136985 86.000000
4.652974 -0.472127 0.137072 79.000000
4.651503 -0.486400 0.137072 65.000000
4.648995 -0.500561 0.137050 86.000000
4.647437 -0.514822 0.137050 72.000000
4.644843 -0.528965 0.137028 73.000000
4.642205 -0.543097 0.137007 65.000000
4.640517 -0.557336 0.137007 65.000000
4.639778 -0.571692 0.137028 72.000000
4.643953 -0.586675 0.137158 55.000000
4.644115 -0.601176 0.137202 52.000000
4.642248 -0.615421 0.137202 72.000000
4.647274 -0.630599 0.137353 57.000000
4.648287 -0.645266 0.137418 78.000000
4.650246 -0.660084 0.137505 53.000000
4.651167 -0.674778 0.137569 62.000000
4.651052 -0.689337 0.137613 72.000000
4.656825 -0.704798 0.137786 49.000000
4.652664 -0.718777 0.137743 65.000000
4.656363 -0.733980 0.137872 56.000000
4.657051 -0.748738 0.137937 58.000000
4.654731 -0.763022 0.137937 83.000000
4.654341 -0.777628 0.137981 46.000000
4.650948 -0.791736 0.137959 48.000000
4.645541 -0.805489 0.137894 41.000000
4.646987 -0.820432 0.137981 26.000000
4.659777 0.013569 0.079139 85.000000
4.657796 -0.000726 0.079121 105.000000
4.657773 -0.015016 0.079121 99.000000
4.658704 -0.029312 0.079130 106.000000
4.656592 -0.043586 0.079112 100.000000
4.653438 -0.057834 0.079084 101.000000
4.649239 -0.072048 0.079047 99.000000
4.647996 -0.086293 0.079038 102.000000
4.649709 -0.100596 0.079056 100.000000
4.652377 -0.114935 0.079084 112.000000
4.658000 -0.129375 0.079139 114.000000
4.660580 -0.143757 0.079167 126.000000
4.664114 -0.158191 0.079204 111.000000
4.669603 -0.172722 0.079260 110.000000
4.668052 -0.187007 0.079250 103.000000
4.669454 -0.201414 0.079269 110.000000
4.670812 -0.215831 0.079287 105.000000
4.673124 -0.230308 0.079315 92.000000
4.678387 -0.244958 0.079371 91.000000
4.680609 -0.259476 0.079398 104.000000
4.681787 -0.273952 0.079417 96.000000
4.683919 -0.288499 0.079445 98.000000
4.689996 -0.303320 0.079509 75.000000
4.683058 -0.317301 0.079454 113.000000
4.674083 -0.331101 0.079380 90.000000
4.668059 -0.345070 0.079334 82.000000
4.663987 -0.359159 0.079306 97.000000
4.661867 -0.373387 0.079297 85.000000
4.659702 -0.387605 0.079287 81.000000
4.662477 -0.402243 0.079324 85.000000
4.663212 -0.416723 0.079343 86.000000
4.665895 -0.431396 0.079380 75.000000
4.665545 -0.445804 0.079389 86.000000
4.669131 -0.460607 0.079435 96.000000
4.671675 -0.475335 0.079472 104.000000
4.667211 -0.489352 0.079445 99.000000
4.668671 -0.503991 0.079472 103.000000
4.666108 -0.518201 0.079463 101.000000
4.666484 -0.532741 0.079482 84.000000
4.670786 -0.547755 0.079537 77.000000
4.672062 -0.562441 0.079565 92.000000
4.676269 -0.577507 0.079620 87.000000
4.677452 -0.592228 0.079648 88.000000
4.675612 -0.606576 0.079648 59.000000
4.674721 -0.621049 0.079657 81.000000
4.668830 -0.634849 0.079620 86.000000
4.666860 -0.649170 0.079620 74.000000
4.662867 -0.663203 0.079602 87.000000
4.666747 -0.678369 0.079657 63.000000
4.666622 -0.692977 0.079676 80.000000
4.676338 -0.709090 0.079787 52.000000
4.674140 -0.723434 0.079787 54.000000
4.674862 -0.738239 0.079815 49.000000
4.672575 -0.752577 0.079815 51.000000
4.668272 -0.766585 0.079796 74.000000
4.670828 -0.781729 0.079842 49.000000
4.671365 -0.796560 0.079870 47.000000
4.667914 -0.810716 0.079861 52.000000
4.701837 -0.831479 0.080203 19.000000
4.657908 0.014849 0.020786 63.000000
4.666931 0.000562 0.020756 78.000000
4.666911 -0.013756 0.020756 63.000000
4.669847 -0.028091 0.020746 78.000000
4.669739 -0.042418 0.020746 72.000000
4.666586 -0.056708 0.020756 61.000000
4.666391 -0.071025 0.020756 65.000000
4.666151 -0.085341 0.020756 78.000000
4.664867 -0.099635 0.020759 90.000000
4.665539 -0.113970 0.020756 77.000000
4.670166 -0.128419 0.020740 80.000000
4.672749 -0.142838 0.020730 84.000000
4.675287 -0.157273 0.020720 91.000000
4.678779 -0.171761 0.020706 66.000000
4.681229 -0.186233 0.020696 82.000000
4.684631 -0.200765 0.020683 67.000000
4.692984 -0.215547 0.020653 65.000000
4.687306 -0.229700 0.020670 54.000000
4.687578 -0.244131 0.020667 57.000000
4.698789 -0.259169 0.020627 69.000000
4.693979 -0.273352 0.020640 52.000000
4.707092 -0.288605 0.020594 61.000000
4.714168 -0.303557 0.020567 71.000000
4.719201 -0.318421 0.020547 51.000000
4.724187 -0.333318 0.020527 54.000000
4.738101 -0.348908 0.020478 73.000000
4.746980 -0.364206 0.020444 83.000000
4.768767 -0.380592 0.020368 100.000000
4.733693 -0.392419 0.020481 59.000000
4.745419 -0.408051 0.020438 62.000000
4.753109 -0.423404 0.020408 51.000000
4.765729 -0.439266 0.020361 68.000000
4.780288 -0.455399 0.020308 71.000000
4.769911 -0.469183 0.020338 55.000000
4.776409 -0.484621 0.020312 63.000000
4.799764 -0.501866 0.020229 66.000000
4.786270 -0.515307 0.020269 56.000000
4.814485 -0.533285 0.020169 52.000000
4.820775 -0.548956 0.020143 53.000000
4.823041 -0.564207 0.020129 57.000000
4.823274 -0.579239 0.020123 61.000000
4.878047 -0.600991 0.019934 29.000000
4.921736 -0.256003 -0.040993 54.000000
4.861025 -0.267796 -0.040051 95.000000
4.854192 -0.282360 -0.039956 104.000000
4.849311 -0.297006 -0.039894 106.000000
4.842390 -0.311497 -0.039799 100.000000
4.837421 -0.326082 -0.039737 114.000000
4.832408 -0.340640 -0.039674 119.000000
4.823363 -0.354876 -0.039548 71.000000
4.822252 -0.369673 -0.039548 93.000000
4.820098 -0.384386 -0.039532 108.000000
4.817900 -0.399089 -0.039517 95.000000
4.817649 -0.413954 -0.039532 102.000000
4.816357 -0.428733 -0.039532 103.000000
4.819001 -0.443874 -0.039595 114.000000
4.820603 -0.458941 -0.039642 116.000000
4.825142 -0.474316 -0.039737 100.000000
4.830628 -0.489823 -0.039846 100.000000
4.834074 -0.505161 -0.039925 100.000000
4.841449 -0.520953 -0.040066 85.000000
4.847778 -0.536685 -0.040192 99.000000
4.853063 -0.552347 -0.040302 96.000000
4.860283 -0.568279 -0.040443 95.000000
4.864474 -0.583903 -0.040538 80.000000
4.906324 -0.604205 -0.041229 36.000000
4.904190 -0.240274 -0.099676 35.000000
4.884462 -0.254336 -0.099148 41.000000
4.884657 -0.269375 -0.099176 48.000000
4.856863 -0.282797 -0.098427 66.000000
4.830031 -0.296112 -0.097705 88.000000
4.827105 -0.310801 -0.097650 79.000000
4.819147 -0.325140 -0.097456 90.000000
4.813140 -0.339573 -0.097317 83.000000
4.808088 -0.354045 -0.097206 88.000000
4.804986 -0.368642 -0.097151 80.000000
4.801840 -0.383223 -0.097095 69.000000
4.801638 -0.398035 -0.097123 73.000000
4.800394 -0.412765 -0.097123 75.000000
4.801096 -0.427667 -0.097178 73.000000
4.801753 -0.442577 -0.097234 66.000000
4.803358 -0.457591 -0.097317 68.000000
4.809890 -0.473106 -0.097539 66.000000
4.814383 -0.488464 -0.097705 75.000000
4.821809 -0.504166 -0.097955 73.000000
4.834155 -0.520451 -0.098344 57.000000
4.842471 -0.536378 -0.098621 63.000000
4.849741 -0.552247 -0.098871 65.000000
4.862917 -0.568862 -0.099287 46.000000
4.883977 -0.586515 -0.099925 34.000000
4.899022 -0.603570 -0.100397 30.000000
4.866467 -0.253124 -0.159756 59.000000
4.847709 -0.267062 -0.159031 90.000000
4.843874 -0.281759 -0.158910 56.000000
4.829025 -0.295762 -0.158345 65.000000
4.816129 -0.309805 -0.157862 73.000000
4.808177 -0.324108 -0.157580 62.000000
4.804170 -0.338647 -0.157459 78.000000
4.797130 -0.352944 -0.157217 73.000000
4.793036 -0.367431 -0.157096 67.000000
4.789894 -0.381975 -0.157015 77.000000
4.786708 -0.396503 -0.156935 90.000000
4.786464 -0.411272 -0.156975 79.000000
4.788166 -0.426221 -0.157096 94.000000
4.789821 -0.441184 -0.157217 100.000000
4.791429 -0.456161 -0.157338 82.000000
4.794979 -0.471348 -0.157539 105.000000
4.795498 -0.486258 -0.157620 72.000000
4.797959 -0.501384 -0.157781 85.000000
4.806333 -0.517172 -0.158184 54.000000
4.812668 -0.532795 -0.158507 61.000000
4.818953 -0.548462 -0.158829 79.000000
4.824195 -0.564057 -0.159111 68.000000
4.841290 -0.581118 -0.159877 56.000000
4.862294 -0.598779 -0.160804 30.000000
4.869364 -0.240275 -0.218497 34.000000
4.840681 -0.253755 -0.217031 57.000000
4.829908 -0.268054 -0.216508 69.000000
4.832054 -0.283045 -0.216665 65.000000
4.820198 -0.297195 -0.216089 91.000000
4.818267 -0.311918 -0.216037 79.000000
4.816291 -0.326631 -0.215985 71.000000
4.809289 -0.340983 -0.215671 81.000000
4.799257 -0.355075 -0.215200 119.000000
4.795159 -0.369568 -0.215043 58.000000
4.796988 -0.384516 -0.215200 35.000000
4.784839 -0.398323 -0.214624 68.000000
4.782599 -0.412915 -0.214572 79.000000
4.789268 -0.428296 -0.214990 69.000000
4.790915 -0.443262 -0.215147 86.000000
4.795496 -0.458527 -0.215461 82.000000
4.800030 -0.473825 -0.215775 92.000000
4.804514 -0.489154 -0.216089 67.000000
4.804978 -0.504100 -0.216194 71.000000
4.808373 -0.519374 -0.216456 55.000000
4.810727 -0.534564 -0.216665 90.000000
4.814026 -0.549886 -0.216927 63.000000
4.833145 -0.567091 -0.218026 37.000000
4.843280 -0.583347 -0.218654 35.000000
4.845043 -0.237105 -0.277335 61.000000
4.826355 -0.251034 -0.276171 71.000000
4.818587 -0.265455 -0.275718 99.000000
4.813766 -0.280005 -0.275459 80.000000
4.806908 -0.294406 -0.275071 80.000000
4.802995 -0.308959 -0.274877 87.000000
4.797045 -0.323357 -0.274553 84.000000
4.792049 -0.337792 -0.274294 100.000000
4.789995 -0.352419 -0.274229 89.000000
4.786901 -0.366960 -0.274100 102.000000
4.785753 -0.381644 -0.274100 75.000000
4.786548 -0.396490 -0.274229 98.000000
4.785310 -0.411173 -0.274229 108.000000
4.783031 -0.425763 -0.274165 96.000000
4.782697 -0.440527 -0.274229 93.000000
4.783309 -0.455387 -0.274359 99.000000
4.785862 -0.470451 -0.274618 102.000000
4.790353 -0.485736 -0.275006 105.000000
4.795788 -0.501157 -0.275459 126.000000
4.801173 -0.516616 -0.275912 97.000000
4.808492 -0.532332 -0.276494 97.000000
4.815760 -0.548098 -0.277077 95.000000
4.814055 -0.562870 -0.277077 104.000000
4.829150 -0.579660 -0.278177 73.000000
4.834280 -0.595327 -0.278630 60.000000
4.865466 -0.225122 -0.336533 47.000000
4.861765 -0.239901 -0.336303 46.000000
4.852045 -0.254348 -0.335614 53.000000
4.819385 -0.267473 -0.333165 78.000000
4.804605 -0.281444 -0.332093 84.000000
4.796753 -0.295755 -0.331557 88.000000
4.792838 -0.310278 -0.331327 79.000000
4.791864 -0.324980 -0.331327 95.000000
4.798800 -0.340242 -0.331940 71.000000
4.798729 -0.355037 -0.332016 79.000000
4.801594 -0.370063 -0.332323 83.000000
4.802423 -0.384951 -0.332476 63.000000
4.801220 -0.399683 -0.332476 68.000000
4.799971 -0.414411 -0.332476 64.000000
4.795698 -0.428869 -0.332246 46.000000
4.794359 -0.443580 -0.332246 65.000000
4.789006 -0.457908 -0.331940 59.000000
4.791547 -0.472989 -0.332246 124.000000
4.791066 -0.487788 -0.332323 76.000000
4.790538 -0.502589 -0.332399 79.000000
4.792939 -0.517711 -0.332705 78.000000
4.799256 -0.533292 -0.333318 77.000000
4.823355 -0.550949 -0.335308 48.000000
4.819661 -0.565512 -0.335155 55.000000
4.823843 -0.581010 -0.335614 50.000000
4.827975 -0.596539 -0.336073 28.000000
4.834035 -0.612349 -0.336686 10.000000
4.901401 -0.226506 -0.399455 31.000000
4.819106 -0.237515 -0.392180 88.000000
4.823328 -0.252559 -0.392623 62.000000
4.812585 -0.266804 -0.391736 72.000000
4.798818 -0.280810 -0.390583 110.000000
4.796939 -0.295470 -0.390494 82.000000
4.793028 -0.309992 -0.390228 100.000000
4.795036 -0.324897 -0.390494 100.000000
4.797991 -0.339889 -0.390849 81.000000
4.802886 -0.355048 -0.391381 103.000000
4.810711 -0.370471 -0.392180 100.000000
4.820474 -0.386104 -0.393155 96.000000
4.825222 -0.401387 -0.393688 127.000000
4.828930 -0.416617 -0.394131 112.000000
4.838542 -0.432406 -0.395107 61.000000
4.824300 -0.446055 -0.393954 91.000000
4.812993 -0.459906 -0.393067 97.000000
4.800655 -0.473593 -0.392091 109.000000
4.792243 -0.487613 -0.391470 119.000000
4.789735 -0.502209 -0.391381 115.000000
4.788171 -0.516901 -0.391381 117.000000
4.787553 -0.531699 -0.391470 96.000000
4.788867 -0.546723 -0.391736 96.000000
4.792114 -0.561993 -0.392180 75.000000
4.796301 -0.577407 -0.392712 76.000000
4.803404 -0.593219 -0.393510 60.000000
4.809466 -0.608954 -0.394220 17.000000
4.874947 -0.239699 -0.458854 29.000000
4.820539 -0.251863 -0.453388 73.000000
4.813783 -0.266323 -0.452780 80.000000
4.807977 -0.280802 -0.452274 93.000000
4.809079 -0.295673 -0.452477 86.000000
4.806164 -0.310297 -0.452274 82.000000
4.811145 -0.325443 -0.452881 81.000000
4.819056 -0.340831 -0.453793 44.000000
4.825925 -0.356198 -0.454602 62.000000
4.830761 -0.371458 -0.455210 65.000000
4.837532 -0.386910 -0.456020 73.000000
4.858135 -0.403556 -0.458247 55.000000
4.919320 -0.423824 -0.464624 31.000000
4.851603 -0.433004 -0.457842 51.000000
4.845299 -0.447431 -0.457336 55.000000
4.838951 -0.461822 -0.456829 60.000000
4.827610 -0.475693 -0.455817 58.000000
4.816231 -0.489498 -0.454805 46.000000
4.807780 -0.503548 -0.454096 69.000000
4.803245 -0.517976 -0.453793 70.000000
4.798666 -0.532381 -0.453489 67.000000
4.799976 -0.547438 -0.453793 78.000000
4.801239 -0.562509 -0.454096 69.000000
4.804430 -0.577829 -0.454602 59.000000
4.855954 -0.599131 -0.460069 27.000000
4.870872 -0.616145 -0.461790 15.000000
4.859857 -0.238679 -0.515540 46.000000
4.844218 -0.252810 -0.513845 68.000000
4.837467 -0.267341 -0.513167 69.000000
4.818770 -0.281138 -0.511132 98.000000
4.815902 -0.295798 -0.510906 104.000000
4.814971 -0.310572 -0.510906 124.000000
4.821927 -0.325879 -0.511810 110.000000
4.827842 -0.341162 -0.512602 126.000000
4.836681 -0.356703 -0.513732 117.000000
4.845471 -0.372302 -0.514862 117.000000
4.842325 -0.387008 -0.514636 74.000000
4.865904 -0.449052 -0.517914 63.000000
4.861536 -0.463695 -0.517575 92.000000
4.852180 -0.477828 -0.516671 82.000000
4.842783 -0.491908 -0.515766 114.000000
4.833345 -0.505935 -0.514862 94.000000
4.824856 -0.520015 -0.514071 115.000000
4.819287 -0.534377 -0.513619 123.000000
4.815651 -0.548935 -0.513393 97.000000
4.819865 -0.564400 -0.514071 88.000000
4.826989 -0.580252 -0.515088 96.000000
4.832089 -0.595911 -0.515880 79.000000
4.937825 -0.242775 -0.586374 22.000000
4.869684 -0.254419 -0.577852 67.000000
4.875814 -0.269740 -0.578729 48.000000
4.841289 -0.282739 -0.574468 82.000000
4.832477 -0.297105 -0.573465 91.000000
4.827582 -0.311675 -0.572964 80.000000
4.829573 -0.326685 -0.573340 94.000000
4.839434 -0.342267 -0.574718 78.000000
4.845287 -0.357622 -0.575596 82.000000
4.856039 -0.373396 -0.577100 75.000000
4.866738 -0.389238 -0.578604 54.000000
4.866120 -0.464409 -0.579356 48.000000
4.858748 -0.478753 -0.578604 61.000000
4.851335 -0.493057 -0.577852 61.000000
4.846839 -0.507629 -0.577476 69.000000
4.836381 -0.521541 -0.576348 70.000000
4.834758 -0.536377 -0.576348 75.000000
4.841961 -0.552217 -0.577476 63.000000
4.846157 -0.567760 -0.578228 58.000000
4.850302 -0.583335 -0.578980 60.000000
4.854398 -0.598940 -0.579732 50.000000
4.917365 -0.254917 -0.644884 50.000000
4.901725 -0.269186 -0.642823 55.000000
4.866266 -0.282214 -0.638012 79.000000
4.843626 -0.295812 -0.634988 105.000000
4.847639 -0.310988 -0.635676 130.000000
4.851603 -0.326191 -0.636363 108.000000
4.860461 -0.341770 -0.637737 117.000000
4.867292 -0.357261 -0.638837 88.000000
4.870123 -0.372494 -0.639387 85.000000
4.915689 -0.467138 -0.646809 29.000000
4.894517 -0.480281 -0.644060 91.000000
4.891049 -0.495095 -0.643785 76.000000
4.881627 -0.509276 -0.642685 81.000000
4.864284 -0.522556 -0.640486 98.000000
4.855766 -0.536714 -0.639524 109.000000
4.841303 -0.550154 -0.637737 127.000000
4.841559 -0.565235 -0.638012 103.000000
4.887992 -0.585865 -0.644747 61.000000
4.960884 -0.244769 -0.710844 35.000000
4.900862 -0.256896 -0.701893 116.000000
4.888204 -0.271275 -0.700103 131.000000
4.876490 -0.285638 -0.698461 134.000000
4.868682 -0.300173 -0.697417 109.000000
4.865765 -0.314981 -0.697119 108.000000
4.863789 -0.329841 -0.696970 95.000000
4.867685 -0.345110 -0.697716 129.000000
4.867590 -0.360115 -0.697865 53.000000
4.923671 -0.501257 -0.708159 33.000000
4.880806 -0.512037 -0.701893 74.000000
4.874297 -0.526479 -0.701147 101.000000
4.873641 -0.541539 -0.701296 90.000000
4.867045 -0.555929 -0.700550 70.000000
4.875137 -0.572008 -0.702042 93.000000
4.882195 -0.588024 -0.703385 104.000000
4.908828 -0.606509 -0.707711 53.000000
4.914217 -0.240496 -0.764293 82.000000
4.906558 -0.255212 -0.763165 107.000000
4.898853 -0.269883 -0.762038 133.000000
4.893075 -0.284625 -0.761232 87.000000
4.898090 -0.299998 -0.762199 164.000000
4.899116 -0.315150 -0.762521 144.000000
4.902065 -0.330445 -0.763165 121.000000
4.908905 -0.346038 -0.764454 122.000000
4.913725 -0.361532 -0.765421 120.000000
4.911609 -0.376530 -0.765260 51.000000
4.923472 -0.499245 -0.768964 79.000000
4.922900 -0.514450 -0.769126 97.000000
4.924242 -0.529868 -0.769609 157.000000
4.921612 -0.544864 -0.769448 141.000000
4.918937 -0.559850 -0.769287 142.000000
4.917196 -0.574938 -0.769287 122.000000
4.914429 -0.589903 -0.769126 116.000000
4.910637 -0.604736 -0.768803 90.000000
4.972404 -0.627840 -0.779274 39.000000
