ply
format ascii 1.0
element vertex 883
property float x
property float y
property float z
property float intensity
end_header
4.401344 1.485817 0.533390 57.000000
4.398337 1.469787 0.532536 45.000000
4.409434 1.458471 0.533283 59.000000
4.408218 1.443081 0.532643 50.000000
4.416408 1.430775 0.533070 52.000000
4.424564 1.418433 0.533497 81.000000
4.428895 1.404852 0.533497 63.000000
4.433184 1.391258 0.533497 55.000000
4.437431 1.377650 0.533497 69.000000
4.441638 1.364030 0.533497 80.000000
4.449606 1.351552 0.533924 70.000000
4.454685 1.338181 0.534031 60.000000
4.459722 1.324791 0.534138 58.000000
4.464720 1.311382 0.534244 74.000000
4.464902 1.296570 0.533817 91.000000
4.465992 1.282043 0.533497 71.000000
4.467992 1.267793 0.533283 77.000000
4.470902 1.253811 0.533177 75.000000
4.476645 1.240619 0.533390 77.000000
4.481389 1.227142 0.533497 72.000000
4.484173 1.213128 0.533390 59.000000
4.487873 1.199365 0.533390 53.000000
4.492493 1.185844 0.533497 55.000000
4.495148 1.171805 0.533390 62.000000
4.499685 1.158256 0.533497 69.000000
4.505144 1.144936 0.533711 68.000000
4.509600 1.131351 0.533817 63.000000
4.514980 1.117988 0.534031 81.000000
4.519355 1.104367 0.534138 83.000000
4.522721 1.090496 0.534138 60.000000
4.527981 1.077076 0.534351 46.000000
4.529327 1.062725 0.534138 70.000000
4.531598 1.048600 0.534031 59.000000
4.534793 1.034693 0.534031 56.000000
4.536977 1.020557 0.533924 57.000000
4.546882 1.008139 0.534672 51.000000
4.547039 0.993548 0.534351 56.000000
4.550066 0.979593 0.534351 66.000000
4.554022 0.965835 0.534458 47.000000
4.554044 0.951250 0.534138 44.000000
4.558889 0.937674 0.534351 62.000000
4.567592 0.924867 0.534992 63.000000
4.572357 0.911238 0.535206 45.000000
4.580010 0.898162 0.535739 58.000000
4.582744 0.884106 0.535739 57.000000
4.584458 0.869857 0.535633 65.000000
4.587105 0.855788 0.535633 58.000000
4.588731 0.841532 0.535526 66.000000
4.591291 0.827450 0.535526 54.000000
4.595767 0.813707 0.535739 59.000000
4.603139 0.800454 0.536273 59.000000
4.609494 0.786997 0.536701 61.000000
4.614828 0.773345 0.537021 58.000000
4.615217 0.758861 0.536807 78.000000
4.622432 0.745489 0.537341 58.000000
4.624697 0.731304 0.537341 64.000000
4.625936 0.716960 0.537234 55.000000
4.633029 0.703510 0.537768 43.000000
4.395519 1.498531 0.477747 53.000000
4.401039 1.485357 0.477842 86.000000
4.406519 1.472163 0.477937 77.000000
4.411015 1.458637 0.477937 94.000000
4.416415 1.445408 0.478032 97.000000
4.422722 1.432465 0.478222 115.000000
4.425200 1.418282 0.478032 107.000000
4.428582 1.404397 0.477937 95.000000
4.430021 1.389910 0.477652 98.000000
4.431412 1.375426 0.477367 126.000000
4.435611 1.361824 0.477367 95.000000
4.439768 1.348210 0.477367 100.000000
4.442930 1.334296 0.477272 102.000000
4.447003 1.320659 0.477272 88.000000
4.449123 1.306448 0.477082 88.000000
4.452155 1.292514 0.476987 91.000000
4.457056 1.279124 0.477082 76.000000
4.458086 1.264628 0.476797 76.000000
4.463862 1.251483 0.476987 67.000000
4.470558 1.238580 0.477272 96.000000
4.472417 1.224332 0.477082 91.000000
4.476152 1.210606 0.477082 103.000000
4.480807 1.197124 0.477177 85.000000
4.480608 1.182355 0.476797 84.000000
4.483252 1.168352 0.476702 100.000000
4.484887 1.154095 0.476512 111.000000
4.490336 1.140821 0.476702 89.000000
4.493815 1.127040 0.476702 109.000000
4.501117 1.114205 0.477082 108.000000
4.505481 1.100627 0.477177 96.000000
4.508836 1.086799 0.477177 91.000000
4.515055 1.073653 0.477462 92.000000
4.517358 1.059568 0.477367 101.000000
4.522527 1.046153 0.477557 117.000000
4.523775 1.031830 0.477367 91.000000
4.526919 1.017947 0.477367 111.000000
4.530020 1.004054 0.477367 116.000000
4.535997 0.990789 0.477652 92.000000
4.541935 0.977497 0.477937 99.000000
4.548807 0.964385 0.478317 98.000000
4.555643 0.951240 0.478697 97.000000
4.559515 0.937459 0.478792 98.000000
4.563344 0.923664 0.478887 90.000000
4.570062 0.910439 0.479266 110.000000
4.568926 0.895647 0.478887 65.000000
4.572630 0.881814 0.478982 73.000000
4.576292 0.867967 0.479077 73.000000
4.581869 0.854471 0.479361 93.000000
4.587406 0.840950 0.479646 106.000000
4.591924 0.827225 0.479836 83.000000
4.595421 0.813307 0.479931 115.000000
4.594952 0.798693 0.479646 119.000000
4.600324 0.785095 0.479931 106.000000
4.604674 0.771307 0.480121 127.000000
4.610949 0.757823 0.480501 128.000000
4.616200 0.744150 0.480786 147.000000
4.616495 0.729672 0.480596 99.000000
4.624614 0.716422 0.481166 91.000000
4.629743 0.702679 0.481451 77.000000
4.405879 1.487348 0.419637 73.000000
4.410421 1.473824 0.419637 69.000000
4.413030 1.459660 0.419472 74.000000
4.414646 1.445184 0.419224 80.000000
4.419058 1.431634 0.419224 82.000000
4.426278 1.418982 0.419472 71.000000
4.432509 1.405998 0.419637 62.000000
4.436802 1.392393 0.419637 86.000000
4.441053 1.378774 0.419637 74.000000
4.441452 1.363973 0.419307 82.000000
4.444662 1.350051 0.419224 67.000000
4.444965 1.335262 0.418894 78.000000
4.448085 1.321335 0.418812 90.000000
4.454030 1.308244 0.418977 86.000000
4.457066 1.294295 0.418894 66.000000
4.461974 1.280890 0.418977 66.000000
4.467800 1.267738 0.419142 80.000000
4.472628 1.254294 0.419224 86.000000
4.478376 1.241099 0.419389 90.000000
4.483123 1.227617 0.419472 76.000000
4.489755 1.214637 0.419719 85.000000
4.493460 1.200857 0.419719 98.000000
4.496160 1.186812 0.419637 88.000000
4.494957 1.171755 0.419224 83.000000
4.495636 1.157215 0.418977 87.000000
4.496267 1.142681 0.418730 72.000000
4.497818 1.128396 0.418565 83.000000
4.503194 1.115070 0.418730 75.000000
4.508530 1.101723 0.418894 55.000000
4.515764 1.088819 0.419224 68.000000
4.522962 1.075882 0.419554 55.000000
4.528182 1.062456 0.419719 66.000000
4.534333 1.049233 0.419966 76.000000
4.537530 1.035317 0.419966 63.000000
4.540685 1.021391 0.419966 65.000000
4.545744 1.007887 0.420131 79.000000
4.549788 0.994148 0.420214 92.000000
4.549894 0.979556 0.419966 68.000000
4.552877 0.965593 0.419966 58.000000
4.552892 0.951009 0.419719 59.000000
4.559693 0.937839 0.420049 70.000000
4.566456 0.924637 0.420379 59.000000
4.570248 0.910817 0.420461 59.000000
4.574977 0.897175 0.420626 58.000000
4.577708 0.883135 0.420626 76.000000
4.581376 0.869273 0.420709 68.000000
4.587939 0.855944 0.421038 85.000000
4.591524 0.842044 0.421121 76.000000
4.595067 0.828130 0.421203 90.000000
4.596604 0.813855 0.421121 83.000000
4.597116 0.799408 0.420956 70.000000
4.597581 0.784965 0.420791 66.000000
4.601934 0.771185 0.420956 70.000000
4.606245 0.757386 0.421121 72.000000
4.613467 0.744044 0.421533 85.000000
4.626556 0.731598 0.422440 59.000000
4.633703 0.718163 0.422853 59.000000
4.652635 0.706486 0.424254 38.000000
4.400223 1.498427 0.364185 47.000000
4.401019 1.483645 0.363903 63.000000
4.398927 1.467924 0.363409 76.000000
4.401515 1.453795 0.363267 90.000000
4.405955 1.440284 0.363267 67.000000
4.412251 1.427375 0.363409 75.000000
4.419459 1.414745 0.363620 89.000000
4.426631 1.402084 0.363832 101.000000
4.430912 1.388496 0.363832 89.000000
4.435151 1.374896 0.363832 94.000000
4.436488 1.360405 0.363620 93.000000
4.445413 1.348236 0.363974 64.000000
4.444751 1.333157 0.363620 91.000000
4.450733 1.320083 0.363762 83.000000
4.456676 1.306983 0.363903 76.000000
4.461623 1.293582 0.363974 69.000000
4.461735 1.278788 0.363691 57.000000
4.467557 1.265638 0.363832 94.000000
4.466617 1.250580 0.363479 83.000000
4.468509 1.236338 0.363338 95.000000
4.472281 1.222623 0.363338 84.000000
4.478900 1.209677 0.363550 63.000000
4.481627 1.195673 0.363479 96.000000
4.487203 1.182427 0.363620 97.000000
4.490809 1.168655 0.363620 97.000000
4.494374 1.154872 0.363620 106.000000
4.497896 1.141078 0.363620 82.000000
4.504278 1.128001 0.363832 102.000000
4.508686 1.114416 0.363903 85.000000
4.515960 1.101525 0.364185 73.000000
4.521257 1.088132 0.364327 85.000000
4.525545 1.074487 0.364397 94.000000
4.529791 1.060825 0.364468 93.000000
4.530108 1.046249 0.364256 88.000000
4.533297 1.032346 0.364256 91.000000
4.536443 1.018433 0.364256 89.000000
4.540520 1.004726 0.364327 85.000000
4.545530 0.991217 0.364468 91.000000
4.549525 0.977477 0.364539 74.000000
4.553478 0.963721 0.364609 82.000000
4.555437 0.949543 0.364539 68.000000
4.559306 0.935763 0.364609 81.000000
4.560200 0.921376 0.364468 82.000000
4.562027 0.907186 0.364397 63.000000
4.565767 0.893378 0.364468 65.000000
4.569466 0.879555 0.364539 60.000000
4.577044 0.866460 0.364892 89.000000
4.582622 0.852962 0.365104 67.000000
4.588161 0.839438 0.365315 70.000000
4.590714 0.825358 0.365315 80.000000
4.592243 0.811096 0.365245 81.000000
4.590779 0.796321 0.364962 87.000000
4.591234 0.781897 0.364821 80.000000
4.591643 0.767479 0.364680 91.000000
4.593976 0.753388 0.364680 99.000000
4.600205 0.739925 0.364962 120.000000
4.604424 0.726120 0.365104 96.000000
4.609588 0.712448 0.365315 90.000000
4.625559 0.700397 0.366304 52.000000
4.387380 1.495263 0.304959 60.000000
4.393839 1.482433 0.305075 101.000000
4.395525 1.467998 0.304901 82.000000
4.401905 1.455132 0.305017 80.000000
4.408246 1.442241 0.305133 68.000000
4.415499 1.429632 0.305307 80.000000
4.419865 1.416079 0.305307 74.000000
4.426091 1.403116 0.305423 74.000000
4.428470 1.388933 0.305307 104.000000
4.429850 1.374452 0.305133 77.000000
4.435954 1.361441 0.305249 105.000000
4.441066 1.348115 0.305307 112.000000
4.448050 1.335345 0.305481 108.000000
4.457868 1.323396 0.305830 104.000000
4.461907 1.309713 0.305830 94.000000
4.465904 1.296018 0.305830 89.000000
4.471778 1.282861 0.305946 82.000000
4.470891 1.267775 0.305656 89.000000
4.474759 1.254052 0.305656 76.000000
4.475699 1.239519 0.305481 91.000000
4.477555 1.225255 0.305365 81.000000
4.484184 1.212294 0.305540 88.000000
4.491741 1.199561 0.305772 95.000000
4.497330 1.186284 0.305888 107.000000
4.500948 1.172481 0.305888 110.000000
4.504524 1.158666 0.305888 117.000000
4.504187 1.143859 0.305656 84.000000
4.504770 1.129307 0.305481 98.000000
4.508214 1.115481 0.305481 85.000000
4.509675 1.101171 0.305365 93.000000
4.514973 1.087798 0.305481 76.000000
4.521204 1.074633 0.305656 78.000000
4.523507 1.060530 0.305598 74.000000
4.530631 1.047546 0.305830 70.000000
4.535769 1.034085 0.305946 72.000000
4.529180 1.017976 0.305365 45.000000
4.547877 1.007530 0.306295 74.000000
4.550947 0.993572 0.306295 76.000000
4.554950 0.979815 0.306353 67.000000
4.558910 0.966043 0.306411 70.000000
4.554035 0.950421 0.305946 49.000000
4.562797 0.937650 0.306295 82.000000
4.563695 0.923252 0.306178 87.000000
4.565527 0.909051 0.306120 72.000000
4.568295 0.895040 0.306120 59.000000
4.569058 0.880643 0.306004 67.000000
4.574681 0.867179 0.306178 60.000000
4.578301 0.853322 0.306237 71.000000
4.584826 0.839992 0.306469 69.000000
4.593277 0.826983 0.306817 77.000000
4.597758 0.813234 0.306934 69.000000
4.603182 0.799637 0.307108 62.000000
4.605613 0.785511 0.307108 58.000000
4.608987 0.771542 0.307166 76.000000
4.612317 0.757560 0.307224 79.000000
4.616590 0.743724 0.307340 45.000000
4.616879 0.729245 0.307224 53.000000
4.622054 0.715535 0.307398 80.000000
4.626201 0.701651 0.307514 77.000000
4.621420 0.686429 0.307108 47.000000
4.617577 0.671386 0.306759 35.000000
4.398251 1.496901 0.250487 47.000000
4.405662 1.484358 0.250626 73.000000
4.408300 1.470202 0.250533 79.000000
4.409945 1.455731 0.250395 84.000000
4.411541 1.441263 0.250256 86.000000
4.413091 1.426799 0.250117 89.000000
4.416496 1.412948 0.250071 131.000000
4.420810 1.399392 0.250071 136.000000
4.426036 1.386122 0.250117 108.000000
4.430267 1.372536 0.250117 100.000000
4.431592 1.358059 0.249978 96.000000
4.437650 1.345037 0.250071 103.000000
4.441756 1.331416 0.250071 100.000000
4.444862 1.317498 0.250025 91.000000
4.450800 1.304418 0.250117 107.000000
4.452862 1.290200 0.250025 101.000000
4.458720 1.277084 0.250117 85.000000
4.465501 1.264216 0.250256 115.000000
4.471282 1.251048 0.250348 110.000000
4.477024 1.237858 0.250441 122.000000
4.480801 1.224117 0.250441 89.000000
4.481642 1.209582 0.250302 91.000000
4.487262 1.196342 0.250395 82.000000
4.489945 1.182315 0.250348 98.000000
4.495485 1.169038 0.250441 109.000000
4.499051 1.155241 0.250441 102.000000
4.503542 1.141678 0.250487 110.000000
4.507024 1.127856 0.250487 133.000000
4.508523 1.113544 0.250395 115.000000
4.511918 1.099707 0.250395 103.000000
4.515271 1.085859 0.250395 87.000000
4.524413 1.073386 0.250672 70.000000
4.527684 1.059501 0.250672 71.000000
4.530913 1.045605 0.250672 77.000000
4.537022 1.032365 0.250811 69.000000
4.540167 1.018441 0.250811 75.000000
4.545221 1.004939 0.250903 90.000000
4.548283 0.990989 0.250903 80.000000
4.551302 0.977031 0.250903 65.000000
4.552324 0.962649 0.250811 74.000000
4.555256 0.948678 0.250811 73.000000
4.557166 0.934498 0.250764 75.000000
4.558053 0.920116 0.250672 59.000000
4.561834 0.906323 0.250718 61.000000
4.564593 0.892323 0.250718 62.000000
4.569272 0.878693 0.250811 64.000000
4.572927 0.864856 0.250857 70.000000
4.575559 0.850822 0.250857 66.000000
4.580113 0.837141 0.250949 83.000000
4.583643 0.823262 0.250996 80.000000
4.588115 0.809543 0.251088 67.000000
4.593529 0.795976 0.251227 74.000000
4.597919 0.782215 0.251319 77.000000
4.605224 0.768929 0.251550 103.000000
4.615447 0.756090 0.251920 85.000000
4.622676 0.742720 0.252151 83.000000
4.629866 0.729313 0.252383 77.000000
4.635044 0.715563 0.252521 86.000000
4.641168 0.701938 0.252706 99.000000
4.648240 0.688429 0.252937 64.000000
4.392526 1.496163 0.192824 53.000000
4.396148 1.482360 0.192790 61.000000
4.398779 1.468234 0.192722 71.000000
4.403263 1.454731 0.192722 93.000000
4.407705 1.441216 0.192722 71.000000
4.413056 1.427994 0.192756 91.000000
4.419321 1.415057 0.192824 104.000000
4.424594 1.401794 0.192858 100.000000
4.429828 1.388512 0.192892 117.000000
4.442658 1.377578 0.193196 77.000000
4.439219 1.361598 0.192926 96.000000
4.443376 1.347972 0.192926 87.000000
4.445576 1.333760 0.192858 131.000000
4.448689 1.319830 0.192824 123.000000
4.453676 1.306457 0.192858 136.000000
4.459583 1.293344 0.192926 114.000000
4.466412 1.280482 0.193027 106.000000
4.467435 1.265956 0.192926 100.000000
4.471298 1.252244 0.192926 118.000000
4.469339 1.236921 0.192722 103.000000
4.470221 1.222413 0.192621 106.000000
4.474915 1.208953 0.192655 119.000000
4.477637 1.194961 0.192621 118.000000
4.481282 1.181219 0.192621 99.000000
4.487787 1.168220 0.192722 114.000000
4.493286 1.154943 0.192790 108.000000
4.497777 1.141398 0.192824 107.000000
4.501257 1.127594 0.192824 106.000000
4.503725 1.113539 0.192790 104.000000
4.505178 1.099243 0.192722 84.000000
4.505614 1.084715 0.192621 81.000000
4.510866 1.071348 0.192689 112.000000
4.509266 1.056365 0.192519 75.000000
4.518328 1.043875 0.192722 63.000000
4.526382 1.031117 0.192892 72.000000
4.528549 1.017007 0.192858 50.000000
4.539455 1.004836 0.193129 70.000000
4.548375 0.992182 0.193332 58.000000
4.551397 0.978223 0.193332 58.000000
4.553400 0.964048 0.193298 60.000000
4.558292 0.950482 0.193366 71.000000
4.560208 0.936292 0.193332 64.000000
4.550324 0.919724 0.192892 41.000000
4.565867 0.908293 0.193332 71.000000
4.562747 0.893130 0.193129 52.000000
4.572336 0.880450 0.193366 72.000000
4.576979 0.866789 0.193433 68.000000
4.581582 0.853109 0.193501 63.000000
4.587127 0.839589 0.193603 74.000000
4.592632 0.826042 0.193704 53.000000
4.600066 0.812817 0.193873 70.000000
4.604507 0.799042 0.193941 68.000000
4.606937 0.784912 0.193941 67.000000
4.609324 0.770774 0.193941 78.000000
4.612653 0.756791 0.193975 75.000000
4.619887 0.743430 0.194144 65.000000
4.622146 0.729253 0.194144 55.000000
4.627325 0.715527 0.194246 63.000000
4.626534 0.700878 0.194144 35.000000
4.392877 1.496776 0.136293 54.000000
4.397448 1.483292 0.136293 73.000000
4.399134 1.468843 0.136228 64.000000
4.399822 1.454084 0.136141 94.000000
4.403313 1.440268 0.136120 83.000000
4.405808 1.426136 0.136076 111.000000
4.423491 1.416885 0.136379 155.000000
4.432583 1.404819 0.136487 168.000000
4.434964 1.390615 0.136444 229.000000
4.438254 1.376705 0.136423 271.000000
4.438634 1.361908 0.136336 232.000000
4.441835 1.347994 0.136314 286.000000
4.446908 1.334648 0.136336 281.000000
4.452898 1.321568 0.136379 297.000000
4.456931 1.307901 0.136379 260.000000
4.461883 1.294499 0.136401 239.000000
4.467755 1.281356 0.136444 254.000000
4.471665 1.267643 0.136444 211.000000
4.472646 1.253109 0.136379 213.000000
4.474543 1.238847 0.136336 207.000000
4.479286 1.225377 0.136358 177.000000
4.484955 1.212152 0.136401 202.000000
4.492516 1.199419 0.136487 182.000000
4.497141 1.185885 0.136509 169.000000
4.501726 1.172335 0.136531 164.000000
4.504333 1.158269 0.136509 133.000000
4.507865 1.144444 0.136509 125.000000
4.510386 1.130366 0.136487 132.000000
4.512862 1.116283 0.136466 135.000000
4.515294 1.102195 0.136444 136.000000
4.519626 1.088571 0.136466 163.000000
4.521972 1.074469 0.136444 145.000000
4.527194 1.061047 0.136487 127.000000
4.530428 1.047153 0.136487 97.000000
4.538492 1.034361 0.136596 77.000000
4.543595 1.020871 0.136639 65.000000
4.546706 1.006927 0.136639 59.000000
4.549774 0.992973 0.136639 67.000000
4.552799 0.979010 0.136639 82.000000
4.556759 0.965245 0.136661 64.000000
4.557742 0.950851 0.136617 76.000000
4.561616 0.937065 0.136639 78.000000
4.565450 0.923264 0.136661 55.000000
4.570222 0.909644 0.136704 83.000000
4.572991 0.895619 0.136704 71.000000
4.577681 0.881963 0.136747 60.000000
4.582329 0.868288 0.136790 75.000000
4.585955 0.854409 0.136812 66.000000
4.590520 0.840696 0.136855 61.000000
4.595046 0.826963 0.136899 94.000000
4.597562 0.812862 0.136899 92.000000
4.601018 0.798924 0.136920 87.000000
4.602463 0.784636 0.136899 89.000000
4.604848 0.770513 0.136899 93.000000
4.610150 0.756868 0.136964 95.000000
4.612451 0.742721 0.136964 109.000000
4.619645 0.729347 0.137072 89.000000
4.623837 0.715477 0.137115 94.000000
4.625021 0.701138 0.137093 58.000000
4.400789 1.498122 0.079038 74.000000
4.402521 1.483656 0.079010 74.000000
4.406104 1.469826 0.079001 78.000000
4.406794 1.455048 0.078964 93.000000
4.410287 1.441211 0.078954 125.000000
4.412785 1.427058 0.078936 128.000000
4.415237 1.412904 0.078917 115.000000
4.430992 1.402972 0.079028 223.000000
4.437183 1.389969 0.079047 257.000000
4.441427 1.376350 0.079047 224.000000
4.445629 1.362717 0.079047 231.000000
4.448831 1.348782 0.079038 219.000000
4.452949 1.335127 0.079038 202.000000
4.455106 1.320890 0.079019 232.000000
4.461057 1.307779 0.079038 206.000000
4.464087 1.293808 0.079028 221.000000
4.467074 1.279831 0.079019 217.000000
4.470018 1.265848 0.079010 249.000000
4.473880 1.252128 0.079010 286.000000
4.476737 1.238130 0.079001 327.000000
4.479550 1.224126 0.078991 315.000000
4.482319 1.210117 0.078982 323.000000
4.488909 1.197132 0.079010 282.000000
4.492560 1.183355 0.079010 225.000000
4.495203 1.169315 0.079001 230.000000
4.498768 1.155518 0.079001 182.000000
4.502293 1.141710 0.079001 155.000000
4.503834 1.127407 0.078982 142.000000
4.506301 1.113344 0.078973 147.000000
4.507752 1.099040 0.078954 110.000000
4.512075 1.085439 0.078964 110.000000
4.517330 1.072053 0.078982 116.000000
4.524492 1.059100 0.079019 94.000000
4.530643 1.045889 0.079047 122.000000
4.539680 1.033315 0.079102 72.000000
4.545757 1.020039 0.079130 95.000000
4.546912 1.005657 0.079112 53.000000
4.548999 0.991489 0.079102 58.000000
4.552019 0.977529 0.079102 66.000000
4.555975 0.963765 0.079112 52.000000
4.556953 0.949376 0.079093 65.000000
4.557885 0.934989 0.079075 68.000000
4.560732 0.921001 0.079075 56.000000
4.565497 0.907394 0.079093 63.000000
4.568260 0.893383 0.079093 77.000000
4.571961 0.879553 0.079102 63.000000
4.571691 0.864965 0.079075 49.000000
4.580222 0.852032 0.079130 68.000000
4.582814 0.837976 0.079130 86.000000
4.584379 0.823735 0.079121 61.000000
4.587870 0.809840 0.079130 64.000000
4.591318 0.795932 0.079139 64.000000
4.595710 0.782177 0.079158 59.000000
4.602032 0.768733 0.079195 62.000000
4.605356 0.754772 0.079204 65.000000
4.613574 0.741591 0.079260 47.000000
4.616815 0.727589 0.079269 46.000000
4.623967 0.714184 0.079315 48.000000
4.629103 0.700443 0.079343 31.000000
4.397664 1.498409 0.020826 45.000000
4.402240 1.484910 0.020826 68.000000
4.405827 1.471080 0.020829 66.000000
4.411269 1.457870 0.020826 53.000000
4.412869 1.443397 0.020836 69.000000
4.416326 1.429543 0.020839 55.000000
4.415930 1.414461 0.020856 66.000000
4.420249 1.400906 0.020856 58.000000
4.424525 1.387339 0.020856 50.000000
4.431626 1.374647 0.020846 59.000000
4.438690 1.361926 0.020836 82.000000
4.443805 1.348592 0.020832 59.000000
4.447921 1.334952 0.020832 71.000000
4.451037 1.321015 0.020836 74.000000
4.455069 1.307353 0.020836 59.000000
4.455218 1.292564 0.020849 53.000000
4.456278 1.278062 0.020859 52.000000
4.461141 1.264657 0.020856 56.000000
4.467888 1.251774 0.020846 46.000000
4.471707 1.238061 0.020846 45.000000
4.471627 1.223280 0.020859 49.000000
4.479220 1.210600 0.020846 40.000000
4.484845 1.197369 0.020839 59.000000
4.489464 1.183859 0.020836 52.000000
4.495978 1.170837 0.020826 39.000000
4.499549 1.157038 0.020826 51.000000
4.503078 1.143228 0.020826 65.000000
4.505594 1.129164 0.020829 44.000000
4.505154 1.114374 0.020842 59.000000
4.506609 1.100072 0.020849 51.000000
4.510935 1.086475 0.020846 61.000000
4.513274 1.072400 0.020849 61.000000
4.517517 1.058776 0.020846 61.000000
4.520743 1.044912 0.020846 51.000000
4.528803 1.032150 0.020829 63.000000
4.533900 1.018690 0.020822 60.000000
4.539932 1.005425 0.020812 49.000000
4.544949 0.991918 0.020806 68.000000
4.550903 0.978602 0.020796 45.000000
4.551929 0.964220 0.020803 49.000000
4.553886 0.950046 0.020806 63.000000
4.554821 0.935667 0.020812 56.000000
4.560610 0.922284 0.020803 52.000000
4.567341 0.909070 0.020789 50.000000
4.572071 0.895438 0.020783 55.000000
4.574796 0.881407 0.020783 49.000000
4.577479 0.867368 0.020783 44.000000
4.580119 0.853320 0.020783 57.000000
4.584682 0.839625 0.020776 43.000000
4.583300 0.824846 0.020789 50.000000
4.584824 0.810607 0.020793 67.000000
4.589261 0.796879 0.020786 65.000000
4.596612 0.783638 0.020769 67.000000
4.600967 0.769862 0.020763 80.000000
4.604294 0.755905 0.020759 66.000000
4.607578 0.741935 0.020756 80.000000
4.612796 0.728264 0.020746 61.000000
4.616985 0.714415 0.020740 58.000000
4.618166 0.700097 0.020743 43.000000
4.685155 1.282045 -0.039878 33.000000
4.649491 1.256970 -0.039234 68.000000
4.653325 1.242699 -0.039234 57.000000
4.676453 1.233516 -0.039548 86.000000
4.672474 1.217147 -0.039422 67.000000
4.652946 1.196831 -0.039045 53.000000
4.661441 1.183780 -0.039124 62.000000
4.660202 1.168258 -0.039045 58.000000
4.663764 1.153955 -0.039045 59.000000
4.661453 1.138219 -0.038951 67.000000
4.686310 1.129063 -0.039297 83.000000
4.669322 1.109827 -0.038967 59.000000
4.692176 1.100059 -0.039281 80.000000
4.682864 1.082731 -0.039077 72.000000
4.690063 1.069248 -0.039140 68.000000
4.705028 1.057484 -0.039328 65.000000
4.718989 1.045423 -0.039501 62.000000
4.737804 1.034351 -0.039752 46.000000
4.753663 1.022543 -0.039956 70.000000
4.745040 1.005468 -0.039768 51.000000
4.750060 0.991314 -0.039799 57.000000
4.744264 0.974926 -0.039658 41.000000
4.773694 0.965717 -0.040082 18.000000
4.733962 1.310742 -0.099731 21.000000
4.718679 1.290932 -0.099176 33.000000
4.691740 1.268095 -0.098288 49.000000
4.683053 1.250340 -0.097927 61.000000
4.678169 1.233670 -0.097678 57.000000
4.671291 1.216538 -0.097373 44.000000
4.674034 1.201952 -0.097345 69.000000
4.669949 1.185637 -0.097123 65.000000
4.667747 1.169845 -0.096956 64.000000
4.670343 1.155279 -0.096929 46.000000
4.673866 1.140945 -0.096929 75.000000
4.677344 1.126600 -0.096929 69.000000
4.681751 1.112476 -0.096956 60.000000
4.684169 1.097879 -0.096929 63.000000
4.691411 1.084405 -0.097040 64.000000
4.700563 1.071341 -0.097206 66.000000
4.712605 1.058889 -0.097456 53.000000
4.724614 1.046373 -0.097705 52.000000
4.735615 1.033581 -0.097927 49.000000
4.749513 1.021362 -0.098233 41.000000
4.764359 1.009274 -0.098566 56.000000
4.773304 0.995879 -0.098732 45.000000
4.789065 0.983848 -0.099093 32.000000
4.795000 0.969746 -0.099176 29.000000
4.818540 0.959134 -0.099759 10.000000
4.681936 1.281164 -0.158990 63.000000
4.682950 1.266012 -0.158869 58.000000
4.680055 1.249835 -0.158587 62.000000
4.677104 1.233688 -0.158305 49.000000
4.676032 1.218074 -0.158104 72.000000
4.673941 1.202229 -0.157862 77.000000
4.668891 1.185671 -0.157499 76.000000
4.667661 1.170127 -0.157298 61.000000
4.666378 1.154602 -0.157096 48.000000
4.666987 1.139570 -0.156975 60.000000
4.670461 1.125246 -0.156975 68.000000
4.671947 1.110450 -0.156894 53.000000
4.675332 1.096112 -0.156894 48.000000
4.680620 1.082213 -0.156975 46.000000
4.688789 1.068958 -0.157177 48.000000
4.697896 1.055882 -0.157418 55.000000
4.706967 1.042760 -0.157660 46.000000
4.718929 1.030232 -0.158023 50.000000
4.731836 1.017850 -0.158426 55.000000
4.746667 1.005813 -0.158910 63.000000
4.754621 0.992266 -0.159111 64.000000
4.766452 0.979484 -0.159474 50.000000
4.676832 1.293157 -0.217293 35.000000
4.666328 1.274851 -0.216508 52.000000
4.669253 1.260268 -0.216456 50.000000
4.657660 1.241817 -0.215618 56.000000
4.654688 1.225740 -0.215252 61.000000
4.655528 1.210700 -0.215095 61.000000
4.656318 1.195665 -0.214938 48.000000
4.655125 1.180146 -0.214676 56.000000
4.659693 1.166101 -0.214729 63.000000
4.665187 1.152279 -0.214833 102.000000
4.660939 1.136068 -0.214415 83.000000
4.664402 1.121763 -0.214415 80.000000
4.660049 1.105601 -0.213996 48.000000
4.670225 1.092894 -0.214362 58.000000
4.677448 1.079460 -0.214572 61.000000
4.684632 1.065992 -0.214781 67.000000
4.695676 1.053365 -0.215200 61.000000
4.703761 1.040033 -0.215461 42.000000
4.715710 1.027513 -0.215932 40.000000
4.724699 1.014299 -0.216246 50.000000
4.734627 1.001247 -0.216613 47.000000
4.747452 0.988755 -0.217136 35.000000
4.755355 0.975190 -0.217398 38.000000
4.778880 0.964751 -0.218497 16.000000
4.656473 1.304962 -0.276365 46.000000
4.652761 1.288540 -0.275847 45.000000
4.649955 1.272416 -0.275394 48.000000
4.643239 1.255280 -0.274682 63.000000
4.641284 1.239484 -0.274294 68.000000
4.639275 1.223713 -0.273906 61.000000
4.643974 1.209725 -0.273971 69.000000
4.643797 1.194478 -0.273712 71.000000
4.645505 1.179735 -0.273582 58.000000
4.645231 1.164506 -0.273324 64.000000
4.641032 1.148333 -0.272806 80.000000
4.646472 1.134562 -0.272935 63.000000
4.647991 1.119834 -0.272806 60.000000
4.653347 1.106031 -0.272935 60.000000
4.659632 1.092432 -0.273129 46.000000
4.671713 1.080154 -0.273712 58.000000
4.681815 1.067368 -0.274165 61.000000
4.690910 1.054312 -0.274553 81.000000
4.697045 1.040563 -0.274747 65.000000
4.703140 1.026786 -0.274941 64.000000
4.713098 1.013821 -0.275394 56.000000
4.725948 1.001424 -0.276041 51.000000
4.734859 0.988143 -0.276430 47.000000
4.737868 0.973612 -0.276430 61.000000
4.778001 0.966588 -0.278888 29.000000
4.649229 1.300886 -0.333241 25.000000
4.655120 1.287148 -0.333394 24.000000
4.652315 1.271019 -0.332858 41.000000
4.645604 1.253879 -0.332016 56.000000
4.640759 1.237307 -0.331327 62.000000
4.639712 1.221793 -0.330945 53.000000
4.642474 1.207301 -0.330868 61.000000
4.646156 1.193053 -0.330868 67.000000
4.652694 1.179529 -0.331098 44.000000
4.664028 1.167187 -0.331710 59.000000
4.667587 1.152873 -0.331710 56.000000
4.689506 1.143038 -0.333165 88.000000
4.687175 1.127245 -0.332705 67.000000
4.686731 1.111938 -0.332399 34.000000
4.689149 1.097327 -0.332323 36.000000
4.688608 1.082038 -0.332016 39.000000
4.690933 1.067427 -0.331940 86.000000
4.688349 1.051719 -0.331481 42.000000
4.686686 1.036253 -0.331098 53.000000
4.685946 1.021020 -0.330792 57.000000
4.691007 1.007058 -0.330945 46.000000
4.698951 0.993694 -0.331327 49.000000
4.707834 0.980494 -0.331787 39.000000
4.726448 0.969255 -0.333011 33.000000
4.739172 0.956725 -0.333777 28.000000
4.794891 0.952686 -0.337910 12.000000
4.691497 1.313013 -0.396349 25.000000
4.648461 1.285608 -0.392002 56.000000
4.642775 1.268716 -0.391115 68.000000
4.641837 1.253168 -0.390671 70.000000
4.636035 1.236355 -0.389784 88.000000
4.639806 1.222126 -0.389784 68.000000
4.643534 1.207886 -0.389784 63.000000
4.650112 1.194377 -0.390050 66.000000
4.659548 1.181574 -0.390583 51.000000
4.669915 1.168966 -0.391204 79.000000
4.678314 1.155827 -0.391647 52.000000
4.687644 1.142884 -0.392180 57.000000
4.719214 1.135251 -0.394752 108.000000
4.711045 1.118008 -0.393688 73.000000
4.708633 1.102188 -0.393155 71.000000
4.698405 1.084601 -0.391913 48.000000
4.695883 1.068856 -0.391381 45.000000
4.691365 1.052700 -0.390671 52.000000
4.690682 1.037442 -0.390316 62.000000
4.693843 1.023046 -0.390316 47.000000
4.696959 1.008641 -0.390316 48.000000
4.705879 0.995463 -0.390849 54.000000
4.722563 0.983864 -0.392091 30.000000
4.722631 0.968770 -0.391825 47.000000
4.738275 0.956839 -0.392978 19.000000
4.711759 1.303706 -0.459664 19.000000
4.685030 1.280841 -0.456424 28.000000
4.662046 1.259192 -0.453590 43.000000
4.654354 1.241802 -0.452375 54.000000
4.654294 1.226502 -0.451970 45.000000
4.660923 1.212970 -0.452274 45.000000
4.666549 1.199160 -0.452477 50.000000
4.681777 1.187776 -0.453691 36.000000
4.689259 1.174375 -0.454096 43.000000
4.700566 1.161895 -0.454906 46.000000
4.708941 1.148648 -0.455412 57.000000
4.730819 1.138623 -0.457336 84.000000
4.748808 1.127555 -0.458854 96.000000
4.722219 1.105941 -0.455716 49.000000
4.712020 1.088310 -0.454299 35.000000
4.713396 1.073407 -0.454096 42.000000
4.713756 1.058286 -0.453793 46.000000
4.714066 1.043174 -0.453489 44.000000
4.710441 1.027221 -0.452780 59.000000
4.714542 1.012974 -0.452881 39.000000
4.721521 0.999331 -0.453286 49.000000
4.726513 0.985247 -0.453489 38.000000
4.733411 0.971543 -0.453894 41.000000
4.750021 0.959778 -0.455311 20.000000
4.651229 1.271895 -0.510567 82.000000
4.657028 1.258137 -0.510793 57.000000
4.660866 1.243844 -0.510793 66.000000
4.663699 1.229285 -0.510680 88.000000
4.671295 1.215972 -0.511132 76.000000
4.679815 1.202872 -0.511697 97.000000
4.687336 1.189486 -0.512150 93.000000
4.703493 1.178238 -0.513619 75.000000
4.716732 1.166186 -0.514749 65.000000
4.733801 1.155006 -0.516332 48.000000
4.741187 1.141407 -0.516784 45.000000
4.756267 1.129610 -0.518140 28.000000
4.741329 1.110708 -0.515993 63.000000
4.736969 1.094368 -0.515088 66.000000
4.729647 1.077404 -0.513845 63.000000
4.728083 1.061800 -0.513280 80.000000
4.726468 1.046216 -0.512715 60.000000
4.724802 1.030652 -0.512150 66.000000
4.727942 1.016152 -0.512150 72.000000
4.731037 1.001642 -0.512150 58.000000
4.735060 0.987326 -0.512263 60.000000
4.741960 0.973593 -0.512715 63.000000
4.723804 1.291452 -0.580484 23.000000
4.684646 1.265302 -0.574844 38.000000
4.668377 1.245548 -0.572212 68.000000
4.677932 1.232738 -0.572964 49.000000
4.676892 1.217130 -0.572337 50.000000
4.685408 1.204011 -0.572964 55.000000
4.694849 1.191096 -0.573716 46.000000
4.704256 1.178134 -0.574468 53.000000
4.711700 1.164650 -0.574969 47.000000
4.731636 1.154190 -0.577100 38.000000
4.750751 1.112630 -0.578228 36.000000
4.745443 1.096038 -0.577100 38.000000
4.744914 1.080592 -0.576598 36.000000
4.740464 1.064289 -0.575596 40.000000
4.729177 1.046522 -0.573716 43.000000
4.730427 1.031585 -0.573465 38.000000
4.738419 1.018111 -0.574092 46.000000
4.744432 1.004185 -0.574468 30.000000
4.747490 0.989625 -0.574468 36.000000
4.755363 0.976054 -0.575094 35.000000
4.803067 0.970510 -0.580860 13.000000
4.690956 1.269052 -0.635951 55.000000
4.691000 1.253631 -0.635401 77.000000
4.691951 1.238476 -0.634988 80.000000
4.695728 1.224075 -0.634988 99.000000
4.700421 1.209910 -0.635126 106.000000
4.706991 1.196215 -0.635538 91.000000
4.720246 1.184178 -0.636913 64.000000
4.725780 1.170167 -0.637187 93.000000
4.737045 1.157544 -0.638287 48.000000
4.775019 1.104906 -0.641723 56.000000
4.771626 1.088709 -0.640761 45.000000
4.769146 1.072761 -0.639936 44.000000
4.758876 1.055124 -0.638012 61.000000
4.749511 1.037771 -0.636225 82.000000
4.748799 1.022362 -0.635676 69.000000
4.750944 1.007582 -0.635538 49.000000
4.747226 0.991585 -0.634576 58.000000
4.852118 0.997960 -0.649008 21.000000
4.760797 1.300684 -0.706070 34.000000
4.722763 1.274725 -0.699506 58.000000
4.718053 1.257935 -0.698163 80.000000
4.721890 1.243454 -0.698163 105.000000
4.723769 1.228464 -0.697865 103.000000
4.726558 1.213719 -0.697716 87.000000
4.734093 1.200186 -0.698312 75.000000
4.747344 1.188059 -0.699804 39.000000
4.751927 1.173726 -0.699953 32.000000
4.791045 1.090233 -0.702788 35.000000
4.768318 1.069679 -0.698760 88.000000
4.768681 1.054404 -0.698312 92.000000
4.773826 1.040190 -0.698611 70.000000
4.777961 1.025747 -0.698760 86.000000
4.782053 1.011289 -0.698909 68.000000
4.792877 0.998227 -0.700103 72.000000
4.792042 0.982723 -0.699506 35.000000
4.735162 1.295725 -0.762521 52.000000
4.716249 1.275011 -0.758655 113.000000
4.715370 1.259263 -0.757849 121.000000
4.721120 1.245294 -0.758172 148.000000
4.725873 1.231053 -0.758333 106.000000
4.736319 1.218269 -0.759460 93.000000
4.741948 1.204218 -0.759782 112.000000
4.756150 1.192303 -0.761554 93.000000
4.760744 1.177943 -0.761716 100.000000
4.775841 1.166140 -0.763649 30.000000
4.816716 1.113668 -0.768159 26.000000
4.795091 1.093184 -0.763971 77.000000
4.794571 1.077602 -0.763326 87.000000
4.794000 1.062034 -0.762682 111.000000
4.795307 1.046900 -0.762360 97.000000
4.796566 1.031769 -0.762038 109.000000
4.801641 1.017457 -0.762360 83.000000
4.808604 1.003527 -0.763004 76.000000
4.816494 0.989763 -0.763810 73.000000
4.838855 0.978894 -0.767031 21.000000
