ply
format ascii 1.0
element vertex 907
property float x
property float y
property float z
property float intensity
end_header
4.671898 0.915330 0.663388 25.000000
4.664950 0.899117 0.662078 43.000000
4.667686 0.884801 0.662078 44.000000
4.672328 0.870839 0.662340 49.000000
4.677904 0.857037 0.662733 43.000000
4.682462 0.843032 0.662995 47.000000
4.686003 0.828835 0.663126 50.000000
4.687547 0.814285 0.662995 55.000000
4.691978 0.800233 0.663257 54.000000
4.695389 0.785998 0.663388 63.000000
4.702669 0.772392 0.664043 44.000000
4.703059 0.757646 0.663781 51.000000
4.705361 0.743214 0.663781 44.000000
4.708599 0.728926 0.663912 49.000000
4.716694 0.715368 0.664699 32.000000
4.492700 1.486539 0.601091 74.000000
4.499126 1.473367 0.601329 53.000000
4.502681 1.459251 0.601210 55.000000
4.505246 1.444823 0.600972 68.000000
4.510604 1.431295 0.601091 55.000000
4.514027 1.417152 0.600972 66.000000
4.519301 1.403591 0.601091 65.000000
4.532128 1.392346 0.602162 52.000000
4.536378 1.378435 0.602162 50.000000
4.535831 1.363081 0.601567 57.000000
4.541895 1.349725 0.601805 59.000000
4.546968 1.336065 0.601924 63.000000
4.553905 1.322940 0.602281 52.000000
4.556988 1.308689 0.602162 51.000000
4.558117 1.293888 0.601805 65.000000
4.564933 1.280703 0.602162 50.000000
4.564056 1.265364 0.601567 63.000000
4.565044 1.250568 0.601210 67.000000
4.567902 1.236297 0.601091 75.000000
4.568795 1.221507 0.600735 75.000000
4.569642 1.206724 0.600378 86.000000
4.571401 1.192197 0.600140 79.000000
4.568306 1.176431 0.599308 91.000000
4.582479 1.165104 0.600616 73.000000
4.581216 1.149830 0.600021 110.000000
4.586650 1.136248 0.600259 85.000000
4.588186 1.121699 0.600021 85.000000
4.594501 1.108316 0.600378 96.000000
4.599811 1.094676 0.600616 96.000000
4.601215 1.080104 0.600378 90.000000
4.607409 1.066655 0.600735 77.000000
4.610660 1.052515 0.600735 70.000000
4.610961 1.037710 0.600378 96.000000
4.618000 1.024420 0.600854 75.000000
4.619182 1.009823 0.600616 83.000000
4.619346 0.995019 0.600259 91.000000
4.623348 0.981048 0.600378 84.000000
4.627308 0.967063 0.600497 89.000000
4.631226 0.953062 0.600616 65.000000
4.635101 0.939047 0.600735 69.000000
4.638934 0.925016 0.600854 71.000000
4.640776 0.910589 0.600735 77.000000
4.643547 0.896347 0.600735 81.000000
4.651153 0.883023 0.601329 51.000000
4.648960 0.867837 0.600735 76.000000
4.650624 0.853391 0.600616 81.000000
4.654197 0.839296 0.600735 73.000000
4.648930 0.823625 0.599783 99.000000
4.651434 0.809359 0.599783 105.000000
4.664661 0.796926 0.601091 87.000000
4.669042 0.782941 0.601329 88.000000
4.674362 0.769097 0.601686 89.000000
4.671799 0.753960 0.601091 97.000000
4.680954 0.740712 0.601924 77.000000
4.675355 0.725128 0.600972 102.000000
4.684429 0.711827 0.601805 80.000000
4.496283 1.487189 0.543108 39.000000
4.495154 1.471533 0.542467 65.000000
4.493972 1.455896 0.541826 70.000000
4.495577 1.441192 0.541506 74.000000
4.497134 1.426491 0.541185 63.000000
4.500541 1.412390 0.541079 67.000000
4.502954 1.397986 0.540865 75.000000
4.509122 1.384749 0.541079 50.000000
4.510495 1.370042 0.540758 65.000000
4.516582 1.356769 0.540972 58.000000
4.521676 1.343189 0.541079 54.000000
4.526730 1.329591 0.541185 54.000000
4.526968 1.314588 0.540758 58.000000
4.530025 1.300419 0.540652 79.000000
4.533037 1.286243 0.540545 55.000000
4.534089 1.271525 0.540224 62.000000
4.533178 1.256281 0.539690 58.000000
4.529338 1.240268 0.538836 51.000000
4.529284 1.225328 0.538409 71.000000
4.539745 1.213223 0.539157 43.000000
4.532871 1.196499 0.537982 75.000000
4.539407 1.183339 0.538302 56.000000
4.545905 1.170150 0.538623 71.000000
4.556219 1.157911 0.539370 54.000000
4.557821 1.143444 0.539157 58.000000
4.562273 1.129694 0.539263 67.000000
4.565717 1.115692 0.539263 53.000000
4.567185 1.101213 0.539050 68.000000
4.572477 1.087656 0.539263 74.000000
4.574824 1.073396 0.539157 64.000000
4.579064 1.059580 0.539263 61.000000
4.587141 1.046632 0.539797 60.000000
4.591300 1.032772 0.539904 74.000000
4.600272 1.019972 0.540545 62.000000
4.610179 1.007339 0.541292 46.000000
4.615192 0.993609 0.541506 46.000000
4.609464 0.977589 0.540545 81.000000
4.612442 0.963443 0.540545 68.000000
4.621219 0.950489 0.541185 42.000000
4.621190 0.935715 0.540865 54.000000
4.625014 0.921727 0.540972 69.000000
4.629772 0.907916 0.541185 68.000000
4.632535 0.893708 0.541185 64.000000
4.633302 0.879121 0.540972 63.000000
4.635977 0.864902 0.540972 59.000000
4.636652 0.850316 0.540758 86.000000
4.639239 0.836087 0.540758 67.000000
4.642762 0.822023 0.540865 64.000000
4.646241 0.807946 0.540972 60.000000
4.648698 0.793688 0.540972 70.000000
4.652092 0.779586 0.541079 50.000000
4.656424 0.765633 0.541292 74.000000
4.656788 0.751027 0.541079 52.000000
4.661035 0.737047 0.541292 67.000000
4.665239 0.723048 0.541506 45.000000
4.663503 0.708135 0.541079 60.000000
4.634182 0.689147 0.537662 19.000000
4.451836 1.487316 0.482496 66.000000
4.453543 1.472712 0.482211 75.000000
4.457093 1.458732 0.482116 82.000000
4.453972 1.442596 0.481356 90.000000
4.461221 1.429836 0.481641 78.000000
4.462740 1.415239 0.481356 79.000000
4.465161 1.400945 0.481166 88.000000
4.471340 1.387830 0.481356 84.000000
4.474625 1.373813 0.481261 90.000000
4.477867 1.359789 0.481166 98.000000
4.483923 1.346618 0.481356 75.000000
4.485171 1.332004 0.481071 72.000000
4.489237 1.318238 0.481071 85.000000
4.492304 1.304181 0.480976 75.000000
4.491500 1.289018 0.480501 94.000000
4.492560 1.274417 0.480216 74.000000
4.493574 1.259821 0.479931 75.000000
4.496459 1.245763 0.479836 64.000000
4.499300 1.231699 0.479741 91.000000
4.504979 1.218410 0.479931 81.000000
4.512542 1.205612 0.480311 85.000000
4.521032 1.193033 0.480786 84.000000
4.530451 1.180665 0.481356 101.000000
4.532124 1.166263 0.481166 80.000000
4.532786 1.151617 0.480881 113.000000
4.535332 1.137463 0.480786 82.000000
4.533969 1.122346 0.480311 105.000000
4.536425 1.108195 0.480216 83.000000
4.536900 1.093571 0.479931 110.000000
4.540234 1.079647 0.479931 81.000000
4.544494 1.065940 0.480026 107.000000
4.545803 1.051544 0.479836 102.000000
4.551919 1.038257 0.480121 95.000000
4.555083 1.024287 0.480121 104.000000
4.559175 1.010523 0.480216 110.000000
4.561282 0.996319 0.480121 103.000000
4.562371 0.981901 0.479931 99.000000
4.564388 0.967692 0.479836 99.000000
4.567335 0.953684 0.479836 91.000000
4.575115 0.940671 0.480311 108.000000
4.580906 0.927224 0.480596 89.000000
4.588611 0.914139 0.481071 77.000000
4.594324 0.900632 0.481356 81.000000
4.599998 0.887099 0.481641 88.000000
4.599763 0.872425 0.481356 96.000000
4.605355 0.858857 0.481641 84.000000
4.606988 0.844544 0.481546 85.000000
4.609558 0.830406 0.481546 100.000000
4.611104 0.816087 0.481451 107.000000
4.612605 0.801766 0.481356 92.000000
4.613081 0.787275 0.481166 95.000000
4.615474 0.773119 0.481166 79.000000
4.619789 0.759278 0.481356 110.000000
4.627993 0.746054 0.481926 147.000000
4.624361 0.730918 0.481356 103.000000
4.629533 0.717185 0.481641 100.000000
4.628758 0.702529 0.481356 99.000000
4.632861 0.688618 0.481546 84.000000
4.433263 1.496590 0.422028 48.000000
4.452957 1.488034 0.423347 36.000000
4.437631 1.467795 0.421616 47.000000
4.440219 1.453554 0.421451 62.000000
4.441813 1.439003 0.421203 58.000000
4.443360 1.424457 0.420956 60.000000
4.446759 1.410517 0.420873 63.000000
4.450115 1.396569 0.420791 60.000000
4.456282 1.383501 0.420956 65.000000
4.462411 1.370408 0.421121 61.000000
4.466594 1.356711 0.421121 53.000000
4.471691 1.343288 0.421203 73.000000
4.475791 1.329562 0.421203 68.000000
4.479848 1.315825 0.421203 69.000000
4.483864 1.302075 0.421203 74.000000
4.482090 1.286663 0.420709 63.000000
4.481223 1.271546 0.420296 60.000000
4.479345 1.256178 0.419801 65.000000
4.479336 1.241365 0.419472 80.000000
4.482162 1.227353 0.419389 57.000000
4.483983 1.213076 0.419224 74.000000
4.490572 1.200086 0.419472 69.000000
4.501942 1.188337 0.420131 84.000000
4.509423 1.175525 0.420461 86.000000
4.513009 1.161685 0.420461 57.000000
4.521381 1.149061 0.420873 71.000000
4.516185 1.133002 0.420131 46.000000
4.523510 1.120099 0.420461 56.000000
4.527893 1.106452 0.420544 75.000000
4.525453 1.091155 0.420049 69.000000
4.530718 1.077727 0.420214 65.000000
4.533033 1.063594 0.420131 57.000000
4.535304 1.049457 0.420049 52.000000
4.540445 1.035982 0.420214 56.000000
4.541657 1.021609 0.420049 50.000000
4.544771 1.007671 0.420049 60.000000
4.547841 0.993723 0.420049 53.000000
4.547945 0.979137 0.419801 49.000000
4.547028 0.964353 0.419472 48.000000
4.547039 0.949787 0.419224 59.000000
4.551883 0.936234 0.419389 61.000000
4.554735 0.922264 0.419389 49.000000
4.560474 0.908870 0.419637 70.000000
4.563242 0.894875 0.419637 57.000000
4.568901 0.881437 0.419884 50.000000
4.575501 0.868158 0.420214 65.000000
4.583041 0.855030 0.420626 58.000000
4.585642 0.840966 0.420626 54.000000
4.591144 0.827423 0.420873 58.000000
4.595623 0.813681 0.421038 62.000000
4.600061 0.799920 0.421203 79.000000
4.599546 0.785300 0.420956 54.000000
4.597020 0.770362 0.420544 78.000000
4.598378 0.756093 0.420461 67.000000
4.600677 0.741982 0.420461 75.000000
4.599978 0.727397 0.420214 65.000000
4.608097 0.714197 0.420709 47.000000
4.610266 0.700056 0.420709 62.000000
4.615350 0.686348 0.420956 69.000000
4.620392 0.672615 0.421203 73.000000
4.620461 0.658156 0.421038 57.000000
4.638251 0.646177 0.422358 18.000000
4.391726 1.495531 0.363550 78.000000
4.405745 1.485239 0.364256 61.000000
4.402711 1.469188 0.363691 82.000000
4.407198 1.455674 0.363691 84.000000
4.409747 1.441525 0.363550 68.000000
4.409404 1.426453 0.363197 66.000000
4.410910 1.412006 0.362985 70.000000
4.412368 1.397562 0.362773 65.000000
4.414732 1.383422 0.362632 66.000000
4.419908 1.370166 0.362702 63.000000
4.425045 1.356893 0.362773 73.000000
4.428232 1.343021 0.362702 64.000000
4.432332 1.329429 0.362702 81.000000
4.434477 1.315256 0.362561 58.000000
4.435619 1.300803 0.362349 56.000000
4.436716 1.286354 0.362137 61.000000
4.440641 1.272737 0.362137 50.000000
4.440687 1.258018 0.361855 43.000000
4.442604 1.243850 0.361713 41.000000
4.453128 1.232078 0.362208 55.000000
4.457850 1.218674 0.362279 46.000000
4.462530 1.205252 0.362349 68.000000
4.468134 1.192070 0.362490 65.000000
4.469841 1.177848 0.362349 53.000000
4.474399 1.164380 0.362420 76.000000
4.477951 1.150647 0.362420 77.000000
4.480493 1.136658 0.362349 71.000000
4.484926 1.123150 0.362420 78.000000
4.491256 1.110103 0.362632 61.000000
4.494641 1.096319 0.362632 54.000000
4.495074 1.081824 0.362420 61.000000
4.499342 1.068259 0.362490 70.000000
4.500656 1.053995 0.362349 77.000000
4.503868 1.040182 0.362349 59.000000
4.507038 1.026359 0.362349 73.000000
4.510166 1.012527 0.362349 69.000000
4.515199 0.999117 0.362490 67.000000
4.519217 0.985472 0.362561 67.000000
4.520269 0.971183 0.362420 71.000000
4.523227 0.957311 0.362420 77.000000
4.527120 0.943633 0.362490 69.000000
4.530971 0.929940 0.362561 65.000000
4.533802 0.916035 0.362561 67.000000
4.533656 0.901537 0.362349 48.000000
4.539338 0.888199 0.362561 66.000000
4.542041 0.874268 0.362561 65.000000
4.545682 0.860515 0.362632 60.000000
4.550262 0.846931 0.362773 71.000000
4.553820 0.833147 0.362844 65.000000
4.557336 0.819349 0.362914 74.000000
4.560811 0.805537 0.362985 59.000000
4.565227 0.791882 0.363126 67.000000
4.565668 0.777537 0.362985 66.000000
4.567048 0.763361 0.362914 73.000000
4.566415 0.748861 0.362702 77.000000
4.563767 0.734055 0.362349 92.000000
4.568954 0.720517 0.362561 71.000000
4.580015 0.707870 0.363197 108.000000
4.578220 0.693217 0.362914 59.000000
4.589205 0.680487 0.363550 74.000000
4.595220 0.666978 0.363832 77.000000
4.378704 1.477328 0.304145 32.000000
4.380374 1.462939 0.303971 34.000000
4.390530 1.451373 0.304320 51.000000
4.393064 1.437276 0.304204 62.000000
4.389854 1.421332 0.303739 70.000000
4.394195 1.407857 0.303739 45.000000
4.398493 1.394369 0.303739 42.000000
4.397987 1.379375 0.303448 58.000000
4.405059 1.366763 0.303623 61.000000
4.407322 1.352656 0.303506 54.000000
4.412407 1.339418 0.303565 66.000000
4.416495 1.325875 0.303565 65.000000
4.418628 1.311751 0.303448 63.000000
4.418800 1.297064 0.303216 48.000000
4.423718 1.283780 0.303274 60.000000
4.427635 1.270202 0.303274 64.000000
4.430551 1.256340 0.303216 48.000000
4.432462 1.242202 0.303100 67.000000
4.435290 1.228332 0.303042 52.000000
4.439038 1.214718 0.303042 71.000000
4.444671 1.201615 0.303158 58.000000
4.449301 1.188231 0.303216 66.000000
4.452926 1.174575 0.303216 55.000000
4.458440 1.161411 0.303332 76.000000
4.462949 1.147976 0.303390 58.000000
4.466450 1.134279 0.303390 56.000000
4.469909 1.120570 0.303390 65.000000
4.473326 1.106851 0.303390 69.000000
4.476701 1.093122 0.303390 44.000000
4.480033 1.079383 0.303390 69.000000
4.480410 1.064941 0.303216 44.000000
4.483656 1.051190 0.303216 58.000000
4.486860 1.037430 0.303216 47.000000
4.488075 1.023216 0.303100 61.000000
4.493141 1.009879 0.303216 70.000000
4.503041 0.997601 0.303623 39.000000
4.505105 0.983568 0.303565 40.000000
4.508101 0.969742 0.303565 53.000000
4.513009 0.956320 0.303681 62.000000
4.513967 0.942062 0.303565 53.000000
4.516836 0.928209 0.303565 53.000000
4.518684 0.914150 0.303506 61.000000
4.519509 0.899892 0.303390 46.000000
4.523228 0.886214 0.303448 60.000000
4.525926 0.872333 0.303448 55.000000
4.529562 0.858630 0.303506 56.000000
4.533156 0.844912 0.303565 57.000000
4.533762 0.830641 0.303448 49.000000
4.538255 0.817081 0.303565 75.000000
4.541723 0.803328 0.303623 67.000000
4.543183 0.789219 0.303565 56.000000
4.545582 0.775277 0.303565 58.000000
4.546956 0.761163 0.303506 63.000000
4.546313 0.746725 0.303332 50.000000
4.550554 0.733091 0.303448 42.000000
4.548838 0.718504 0.303216 68.000000
4.553980 0.705003 0.303390 54.000000
4.558095 0.691327 0.303506 46.000000
4.564145 0.677926 0.303739 57.000000
4.564228 0.663633 0.303623 43.000000
4.595894 0.653843 0.305365 20.000000
4.357133 1.453123 0.248037 51.000000
4.354931 1.437555 0.247713 67.000000
4.364068 1.425740 0.247944 51.000000
4.365571 1.411422 0.247805 64.000000
4.369880 1.398022 0.247805 73.000000
4.376053 1.385212 0.247898 57.000000
4.380282 1.371780 0.247898 70.000000
4.383516 1.358039 0.247852 58.000000
4.388617 1.344877 0.247898 65.000000
4.392722 1.331407 0.247898 71.000000
4.397743 1.318211 0.247944 60.000000
4.404640 1.305565 0.248083 39.000000
4.405748 1.291202 0.247944 44.000000
4.405852 1.276567 0.247759 44.000000
4.405907 1.261942 0.247574 52.000000
4.405913 1.247330 0.247389 52.000000
4.405871 1.232729 0.247204 51.000000
4.409632 1.219206 0.247204 61.000000
4.414316 1.205936 0.247251 59.000000
4.418959 1.192648 0.247297 50.000000
4.424527 1.179600 0.247389 60.000000
4.431024 1.166784 0.247528 69.000000
4.435549 1.153436 0.247574 68.000000
4.439067 1.139822 0.247574 75.000000
4.442543 1.126198 0.247574 57.000000
4.445977 1.112563 0.247574 54.000000
4.450339 1.099158 0.247620 50.000000
4.454661 1.085736 0.247667 55.000000
4.457000 1.071830 0.247620 70.000000
4.458323 1.057690 0.247528 78.000000
4.461547 1.044007 0.247528 63.000000
4.461809 1.029640 0.247389 78.000000
4.462026 1.015280 0.247251 73.000000
4.465119 1.001586 0.247251 58.000000
4.465245 0.987235 0.247112 51.000000
4.470205 0.973957 0.247204 51.000000
4.475125 0.960658 0.247297 56.000000
4.478052 0.946924 0.247297 71.000000
4.479958 0.932977 0.247251 55.000000
4.482799 0.919228 0.247251 66.000000
4.488535 0.906065 0.247389 65.000000
4.488355 0.891705 0.247251 55.000000
4.482246 0.876204 0.246834 42.000000
4.495704 0.864526 0.247343 51.000000
4.500298 0.851101 0.247435 66.000000
4.502888 0.837290 0.247435 65.000000
4.506418 0.823652 0.247482 51.000000
4.507940 0.809645 0.247435 64.000000
4.513354 0.796333 0.247574 62.000000
4.518728 0.782995 0.247713 81.000000
4.521110 0.769128 0.247713 65.000000
4.525419 0.755583 0.247805 81.000000
4.527715 0.741696 0.247805 67.000000
4.528983 0.727643 0.247759 69.000000
4.531194 0.713745 0.247759 80.000000
4.531388 0.699535 0.247667 95.000000
4.538451 0.686377 0.247898 69.000000
4.543500 0.672890 0.248037 78.000000
4.548509 0.659378 0.248175 61.000000
4.551499 0.645561 0.248221 60.000000
4.335260 1.447038 0.190454 35.000000
4.340629 1.434044 0.190488 34.000000
4.345007 1.420721 0.190488 35.000000
4.347444 1.406769 0.190420 54.000000
4.349836 1.392815 0.190353 55.000000
4.351230 1.378558 0.190251 59.000000
4.352578 1.364305 0.190150 52.000000
4.363425 1.353017 0.190387 35.000000
4.364689 1.338745 0.190285 48.000000
4.368776 1.325348 0.190285 49.000000
4.376651 1.313087 0.190420 49.000000
4.381617 1.299937 0.190454 60.000000
4.387502 1.287051 0.190522 50.000000
4.398149 1.275533 0.190759 42.000000
4.392435 1.259280 0.190420 48.000000
4.393393 1.244981 0.190319 47.000000
4.390455 1.229610 0.190082 39.000000
4.395169 1.216401 0.190116 40.000000
4.396953 1.202384 0.190048 38.000000
4.401586 1.189149 0.190082 70.000000
4.404247 1.175382 0.190048 57.000000
4.410732 1.162629 0.190150 51.000000
4.416213 1.149595 0.190217 45.000000
4.418751 1.135792 0.190183 48.000000
4.423183 1.122476 0.190217 40.000000
4.423698 1.108172 0.190116 58.000000
4.427077 1.094595 0.190116 43.000000
4.433327 1.081718 0.190217 60.000000
4.435653 1.067878 0.190183 58.000000
4.438908 1.054265 0.190183 40.000000
4.444068 1.041097 0.190251 39.000000
4.443346 1.026558 0.190116 51.000000
4.449398 1.013587 0.190217 46.000000
4.456388 1.000808 0.190353 34.000000
4.449679 0.984972 0.190014 39.000000
4.453656 0.971529 0.190048 44.000000
4.455638 0.957650 0.190014 47.000000
4.458556 0.943976 0.190014 47.000000
4.461431 0.930293 0.190014 55.000000
4.465243 0.916802 0.190048 42.000000
4.468035 0.903099 0.190048 41.000000
4.470784 0.889387 0.190048 43.000000
4.475453 0.876050 0.190116 46.000000
4.486953 0.864016 0.190420 39.000000
4.480744 0.848573 0.190116 50.000000
4.485292 0.835188 0.190183 58.000000
4.490782 0.821963 0.190285 58.000000
4.494267 0.808358 0.190319 52.000000
4.496726 0.794566 0.190319 55.000000
4.505051 0.781791 0.190522 49.000000
4.507428 0.767967 0.190522 46.000000
4.509763 0.754134 0.190522 47.000000
4.512055 0.740295 0.190522 50.000000
4.508384 0.725496 0.190319 54.000000
4.507627 0.711195 0.190217 44.000000
4.509788 0.697362 0.190217 38.000000
4.507954 0.682924 0.190082 48.000000
4.511016 0.669238 0.190116 43.000000
4.510081 0.654964 0.190014 41.000000
4.509101 0.640703 0.189913 31.000000
4.497187 0.624941 0.189439 16.000000
4.316638 1.441275 0.134345 55.000000
4.317243 1.426770 0.134258 60.000000
4.319700 1.412896 0.134215 65.000000
4.320210 1.398404 0.134129 64.000000
4.318767 1.383312 0.133999 78.000000
4.319179 1.368847 0.133912 84.000000
4.322404 1.355290 0.133891 75.000000
4.325587 1.341726 0.133869 101.000000
4.332550 1.329329 0.133934 69.000000
4.339478 1.316903 0.133999 69.000000
4.347328 1.304734 0.134085 64.000000
4.354185 1.292244 0.134150 81.000000
4.355252 1.278035 0.134085 70.000000
4.361073 1.265224 0.134129 72.000000
4.359168 1.250184 0.133999 44.000000
4.362983 1.236804 0.133999 49.000000
4.365794 1.223143 0.133977 47.000000
4.369526 1.209743 0.133977 66.000000
4.371288 1.195804 0.133934 61.000000
4.377832 1.183170 0.133999 65.000000
4.378544 1.168959 0.133934 60.000000
4.382109 1.155521 0.133934 57.000000
4.387568 1.142576 0.133977 48.000000
4.390085 1.128860 0.133955 51.000000
4.395465 1.115879 0.133999 55.000000
4.401777 1.103118 0.134064 44.000000
4.405141 1.089609 0.134064 50.000000
4.409434 1.076326 0.134085 42.000000
4.410772 1.062324 0.134042 49.000000
4.412065 1.048324 0.133999 55.000000
4.413314 1.034327 0.133955 57.000000
4.410623 1.019430 0.133826 44.000000
4.412754 1.005671 0.133804 61.000000
4.415819 0.992128 0.133804 47.000000
4.421770 0.979225 0.133869 51.000000
4.430614 0.966935 0.133999 58.000000
4.435514 0.953759 0.134042 55.000000
4.445265 0.941598 0.134194 43.000000
4.454005 0.929182 0.134323 40.000000
4.457814 0.915715 0.134345 51.000000
4.462563 0.902431 0.134388 42.000000
4.467271 0.889126 0.134432 46.000000
4.459186 0.873300 0.134194 50.000000
4.465771 0.860373 0.134280 47.000000
4.470354 0.847041 0.134323 44.000000
4.472932 0.833322 0.134323 42.000000
4.468583 0.818333 0.134172 53.000000
4.480912 0.806393 0.134388 42.000000
4.485334 0.792991 0.134432 36.000000
4.485775 0.778884 0.134388 61.000000
4.491101 0.765623 0.134453 56.000000
4.493428 0.751841 0.134453 38.000000
4.495714 0.738051 0.134453 49.000000
4.494996 0.723778 0.134388 49.000000
4.494233 0.709515 0.134323 57.000000
4.491449 0.694958 0.134215 60.000000
4.491583 0.680875 0.134172 74.000000
4.494639 0.667239 0.134194 74.000000
4.496665 0.653447 0.134194 73.000000
4.499639 0.639789 0.134215 82.000000
4.509502 0.627085 0.134388 56.000000
4.311244 1.438191 0.078076 37.000000
4.310888 1.423390 0.078029 54.000000
4.312384 1.409226 0.078002 53.000000
4.307172 1.392913 0.077909 29.000000
4.309520 1.379083 0.077891 52.000000
4.315638 1.366459 0.077909 42.000000
4.322672 1.354109 0.077937 35.000000
4.325851 1.340545 0.077928 43.000000
4.333768 1.328439 0.077965 31.000000
4.339737 1.315717 0.077983 48.000000
4.378236 1.312732 0.078316 27.000000
4.360192 1.292758 0.078103 37.000000
4.379491 1.283875 0.078251 26.000000
4.619380 1.277568 0.080370 41.000000
4.650286 1.270768 0.080629 54.000000
4.659956 1.258058 0.080684 58.000000
4.659928 1.242725 0.080647 61.000000
4.654049 1.225877 0.080555 62.000000
4.687789 1.219394 0.080841 105.000000
4.683760 1.203017 0.080767 82.000000
4.656411 1.180779 0.080471 59.000000
4.675532 1.170371 0.080619 70.000000
4.682014 1.156741 0.080647 75.000000
4.670967 1.138819 0.080508 67.000000
4.697773 1.130095 0.080730 83.000000
4.683705 1.111522 0.080564 69.000000
4.685145 1.096692 0.080545 71.000000
4.687514 1.082088 0.080536 70.000000
4.682036 1.065705 0.080453 51.000000
4.687235 1.051774 0.080471 57.000000
4.708991 1.041490 0.080647 60.000000
4.711187 1.026825 0.080638 52.000000
4.686940 1.006490 0.080379 42.000000
4.747726 1.004311 0.080925 57.000000
4.752744 0.990149 0.080943 57.000000
4.790044 0.982593 0.081267 70.000000
4.770492 0.963342 0.081054 50.000000
4.807753 0.955521 0.081378 76.000000
4.611441 0.901824 0.079500 26.000000
4.692494 1.283761 0.020099 42.000000
4.690619 1.267792 0.020119 44.000000
4.691588 1.252621 0.020129 47.000000
4.689608 1.236690 0.020149 54.000000
4.681768 1.219270 0.020189 66.000000
4.679676 1.203405 0.020209 81.000000
4.678500 1.187810 0.020226 69.000000
4.677273 1.172235 0.020242 83.000000
4.680847 1.157879 0.020242 69.000000
4.682435 1.143039 0.020249 69.000000
4.685919 1.128668 0.020249 69.000000
4.689360 1.114286 0.020249 55.000000
4.694704 1.100351 0.020242 76.000000
4.698057 1.085943 0.020242 69.000000
4.705266 1.072414 0.020229 64.000000
4.712437 1.058851 0.020216 55.000000
4.723474 1.046121 0.020189 62.000000
4.739361 1.034399 0.020146 57.000000
4.748377 1.021117 0.020126 44.000000
4.765184 1.009449 0.020080 57.000000
4.781962 0.997688 0.020033 68.000000
4.789898 0.984019 0.020017 51.000000
4.802695 0.971304 0.019983 41.000000
4.807614 0.956956 0.019977 53.000000
4.723732 1.292598 -0.040506 18.000000
4.678448 1.264796 -0.039705 71.000000
4.675544 1.248631 -0.039595 74.000000
4.671618 1.232241 -0.039469 60.000000
4.671506 1.216895 -0.039407 48.000000
4.661661 1.199072 -0.039187 70.000000
4.658534 1.183042 -0.039077 79.000000
4.660202 1.168258 -0.039045 56.000000
4.657940 1.152515 -0.038951 63.000000
4.662425 1.138456 -0.038967 70.000000
4.667840 1.124615 -0.038998 53.000000
4.671268 1.110289 -0.038998 75.000000
4.678547 1.096865 -0.039061 64.000000
4.680915 1.082281 -0.039045 62.000000
4.686163 1.068359 -0.039077 60.000000
4.693322 1.054854 -0.039140 54.000000
4.699464 1.041099 -0.039187 81.000000
4.716313 1.029661 -0.039407 57.000000
4.729225 1.017288 -0.039564 47.000000
4.746018 1.005675 -0.039784 37.000000
4.766699 0.994785 -0.040066 47.000000
4.781482 0.982571 -0.040255 49.000000
4.796235 0.970275 -0.040443 51.000000
4.808995 0.957508 -0.040600 40.000000
4.679054 1.295524 -0.098149 26.000000
4.664688 1.276147 -0.097622 40.000000
4.668581 1.261830 -0.097622 42.000000
4.661807 1.244662 -0.097317 51.000000
4.650140 1.226272 -0.096873 61.000000
4.644207 1.209478 -0.096596 98.000000
4.641119 1.193480 -0.096401 55.000000
4.637978 1.177512 -0.096207 66.000000
4.635751 1.161818 -0.096041 72.000000
4.633471 1.146148 -0.095874 79.000000
4.634053 1.131216 -0.095791 87.000000
4.639446 1.117462 -0.095846 79.000000
4.646742 1.104149 -0.095957 65.000000
4.650107 1.089887 -0.095957 78.000000
4.658299 1.076743 -0.096096 82.000000
4.663529 1.062891 -0.096152 64.000000
4.673595 1.050114 -0.096346 64.000000
4.685578 1.037718 -0.096596 55.000000
4.696552 1.025045 -0.096818 47.000000
4.711401 1.013156 -0.097151 49.000000
4.728178 1.001601 -0.097539 64.000000
4.745905 0.990156 -0.097955 44.000000
4.759691 0.977806 -0.098260 42.000000
4.768547 0.964390 -0.098427 37.000000
4.780307 0.951514 -0.098677 41.000000
4.662660 1.275892 -0.158184 37.000000
4.659800 1.259756 -0.157902 47.000000
4.656886 1.243650 -0.157620 59.000000
4.652950 1.227319 -0.157298 48.000000
4.652825 1.212031 -0.157136 72.000000
4.648780 1.195760 -0.156814 67.000000
4.638868 1.178050 -0.156250 54.000000
4.632769 1.161383 -0.155846 49.000000
4.628551 1.145245 -0.155524 55.000000
4.628160 1.130092 -0.155363 49.000000
4.629662 1.115420 -0.155282 53.000000
4.635978 1.101904 -0.155403 50.000000
4.636419 1.086992 -0.155282 55.000000
4.643626 1.073663 -0.155443 68.000000
4.650795 1.060299 -0.155605 51.000000
4.658900 1.047121 -0.155806 39.000000
4.668920 1.034335 -0.156088 52.000000
4.683785 1.022562 -0.156572 55.000000
4.694715 1.009868 -0.156894 55.000000
4.715387 0.999187 -0.157620 57.000000
4.726255 0.986348 -0.157942 73.000000
4.743940 0.974859 -0.158547 52.000000
4.764537 0.963865 -0.159273 34.000000
4.667207 1.290493 -0.216770 28.000000
4.652843 1.271163 -0.215775 41.000000
4.638403 1.251934 -0.214781 60.000000
4.639328 1.236925 -0.214624 53.000000
4.632479 1.219886 -0.214048 57.000000
4.626535 1.203152 -0.213525 64.000000
4.623434 1.187212 -0.213159 46.000000
4.625119 1.172531 -0.213054 69.000000
4.623851 1.157122 -0.212792 78.000000
4.632226 1.144130 -0.213054 123.000000
4.626983 1.127782 -0.212583 81.000000
4.624596 1.112179 -0.212269 59.000000
4.628958 1.098217 -0.212321 65.000000
4.636195 1.084921 -0.212531 67.000000
4.646312 1.072266 -0.212897 76.000000
4.658343 1.060003 -0.213368 80.000000
4.665471 1.046581 -0.213577 79.000000
4.673535 1.033342 -0.213839 73.000000
4.685464 1.020915 -0.214310 54.000000
4.694432 1.007794 -0.214624 56.000000
4.708249 0.995662 -0.215200 38.000000
4.712258 0.981417 -0.215252 34.000000
4.728943 0.969767 -0.215985 31.000000
4.727001 0.954265 -0.215723 36.000000
4.644105 1.286143 -0.275265 37.000000
4.619153 1.263990 -0.273324 58.000000
4.620119 1.249032 -0.273129 51.000000
4.612360 1.231763 -0.272353 68.000000
4.612257 1.216588 -0.272094 70.000000
4.609209 1.200672 -0.271641 82.000000
4.611904 1.186277 -0.271577 54.000000
4.614554 1.171877 -0.271512 65.000000
4.618128 1.157714 -0.271512 52.000000
4.621658 1.143541 -0.271512 68.000000
4.623206 1.128883 -0.271382 56.000000
4.623736 1.113993 -0.271188 66.000000
4.627133 1.099802 -0.271188 76.000000
4.626599 1.084690 -0.270929 63.000000
4.628932 1.070266 -0.270865 50.000000
4.631221 1.055838 -0.270800 52.000000
4.649044 1.044906 -0.271771 79.000000
4.654176 1.031070 -0.271900 64.000000
4.665117 1.018488 -0.272418 65.000000
4.679927 1.006688 -0.273194 47.000000
4.690803 0.993980 -0.273712 39.000000
4.698715 0.980603 -0.274035 44.000000
4.705611 0.966986 -0.274294 33.000000
4.712468 0.953336 -0.274553 40.000000
4.732008 0.942185 -0.275653 25.000000
4.639627 1.298197 -0.332476 35.000000
4.638784 1.282627 -0.332093 30.000000
4.639812 1.267600 -0.331863 28.000000
4.611914 1.244778 -0.329337 56.000000
4.603188 1.227280 -0.328342 46.000000
4.595362 1.210102 -0.327424 39.000000
4.600018 1.196249 -0.327500 59.000000
4.602701 1.181883 -0.327424 65.000000
4.610171 1.168738 -0.327730 50.000000
4.617603 1.155558 -0.328036 54.000000
4.625967 1.142582 -0.328419 52.000000
4.631387 1.128857 -0.328572 69.000000
4.643553 1.116743 -0.329261 104.000000
4.644047 1.101801 -0.329031 27.000000
4.648376 1.087775 -0.329108 44.000000
4.652663 1.073733 -0.329184 46.000000
4.647186 1.057461 -0.328495 67.000000
4.652354 1.043636 -0.328648 105.000000
4.648719 1.027849 -0.328113 47.000000
4.651851 1.013582 -0.328113 66.000000
4.657863 0.999934 -0.328342 64.000000
4.670663 0.987705 -0.329108 52.000000
4.701978 0.979273 -0.331327 31.000000
4.699100 0.963640 -0.330868 45.000000
4.722558 0.953367 -0.332476 25.000000
4.740129 0.941792 -0.333624 23.000000
4.625420 1.279237 -0.389873 55.000000
4.626440 1.264253 -0.389607 48.000000
4.619719 1.247199 -0.388631 70.000000
4.621599 1.232507 -0.388453 67.000000
4.620542 1.217054 -0.388010 59.000000
4.620398 1.201870 -0.387655 67.000000
4.627923 1.188680 -0.388010 54.000000
4.633479 1.174966 -0.388187 51.000000
4.638995 1.161228 -0.388365 64.000000
4.648337 1.148424 -0.388897 64.000000
4.661516 1.136516 -0.389784 60.000000
4.672729 1.124072 -0.390494 49.000000
4.709106 1.117548 -0.393510 127.000000
4.683417 1.096287 -0.390849 57.000000
4.678994 1.080122 -0.390139 56.000000
4.673544 1.063773 -0.389340 48.000000
4.671927 1.048340 -0.388897 54.000000
4.664423 1.031636 -0.387921 66.000000
4.667566 1.017321 -0.387921 49.000000
4.670665 1.002997 -0.387921 53.000000
4.676643 0.989281 -0.388187 58.000000
4.686483 0.976350 -0.388808 45.000000
4.700189 0.964168 -0.389784 38.000000
4.710936 0.951320 -0.390494 32.000000
4.735326 0.941133 -0.392446 16.000000
4.602459 1.273435 -0.448124 18.000000
4.629374 1.265611 -0.450553 38.000000
4.629394 1.250364 -0.450148 43.000000
4.624557 1.233845 -0.449237 47.000000
4.628321 1.219651 -0.449237 58.000000
4.634929 1.206198 -0.449541 47.000000
4.642462 1.192964 -0.449946 53.000000
4.653814 1.180675 -0.450756 59.000000
4.668994 1.169294 -0.451970 42.000000
4.673525 1.155204 -0.452072 32.000000
4.695411 1.145344 -0.453995 28.000000
4.701803 1.131632 -0.454299 36.000000
4.707189 1.117662 -0.454501 98.000000
4.707690 1.102534 -0.454197 41.000000
4.707173 1.087190 -0.453793 50.000000
4.701756 1.070753 -0.452881 32.000000
4.699196 1.055014 -0.452274 35.000000
4.693669 1.038656 -0.451363 41.000000
4.694889 1.023826 -0.451161 36.000000
4.698008 1.009418 -0.451161 38.000000
4.703030 0.995412 -0.451363 50.000000
4.708983 0.981588 -0.451667 34.000000
4.710023 0.966736 -0.451464 49.000000
4.724668 0.954649 -0.452679 22.000000
4.647396 1.270847 -0.510115 66.000000
4.646477 1.255288 -0.509550 51.000000
4.649346 1.240770 -0.509437 68.000000
4.649287 1.225488 -0.508985 64.000000
4.652063 1.210968 -0.508872 66.000000
4.655757 1.196690 -0.508872 83.000000
4.665185 1.183867 -0.509550 75.000000
4.676506 1.171479 -0.510454 63.000000
4.684901 1.158319 -0.511019 74.000000
4.701946 1.147236 -0.512602 55.000000
4.729594 1.138617 -0.515427 39.000000
4.733589 1.108896 -0.515088 42.000000
4.726320 1.091909 -0.513845 47.000000
4.718022 1.074757 -0.512489 46.000000
4.711603 1.058100 -0.511358 59.000000
4.703185 1.041065 -0.510002 83.000000
4.701503 1.025572 -0.509437 59.000000
4.707541 1.011769 -0.509776 56.000000
4.714511 0.998145 -0.510228 46.000000
4.728251 0.985906 -0.511471 30.000000
4.731254 0.971396 -0.511471 43.000000
4.740056 0.958057 -0.512150 35.000000
4.687441 1.281501 -0.575721 20.000000
4.679858 1.264007 -0.574217 35.000000
4.671253 1.246316 -0.572588 47.000000
4.683688 1.234256 -0.573716 32.000000
4.672091 1.215879 -0.571710 47.000000
4.676761 1.201787 -0.571836 51.000000
4.686195 1.188898 -0.572588 43.000000
4.692708 1.175239 -0.572964 51.000000
4.703032 1.162505 -0.573841 47.000000
4.720070 1.151366 -0.575596 40.000000
4.768138 1.116706 -0.580484 15.000000
4.736743 1.094027 -0.575972 40.000000
4.732339 1.077725 -0.574969 43.000000
4.733688 1.062766 -0.574718 37.000000
4.727240 1.046093 -0.573465 31.000000
4.727519 1.030950 -0.573089 50.000000
4.732599 1.016859 -0.573340 45.000000
4.739579 1.003157 -0.573841 37.000000
4.739721 0.988004 -0.573465 33.000000
4.749532 0.974856 -0.574342 42.000000
4.771949 0.964214 -0.576849 27.000000
4.690956 1.269052 -0.635951 54.000000
4.696742 1.255165 -0.636225 47.000000
4.675670 1.234179 -0.632652 83.000000
4.675600 1.218830 -0.632102 93.000000
4.684114 1.205714 -0.632789 85.000000
4.689711 1.191825 -0.633064 93.000000
4.702952 1.179841 -0.634439 78.000000
4.711358 1.166597 -0.635126 65.000000
4.720687 1.153548 -0.635951 64.000000
4.746068 1.098209 -0.637600 54.000000
4.744586 1.082542 -0.636913 58.000000
4.742087 1.066677 -0.636088 56.000000
4.741469 1.051266 -0.635538 55.000000
4.742737 1.036292 -0.635263 78.000000
4.741052 1.020695 -0.634576 77.000000
4.748037 1.006966 -0.635126 65.000000
4.782131 0.998873 -0.639524 37.000000
4.828833 0.993173 -0.645709 20.000000
4.702717 1.269309 -0.696373 65.000000
4.715187 1.257170 -0.697716 98.000000
4.718066 1.242446 -0.697566 115.000000
4.718028 1.226969 -0.696970 115.000000
4.716023 1.211012 -0.696074 104.000000
4.719717 1.196537 -0.696074 103.000000
4.746385 1.187819 -0.699655 45.000000
4.762486 1.176337 -0.701594 34.000000
4.741875 1.079032 -0.695179 36.000000
4.753846 1.066429 -0.696522 59.000000
4.757096 1.051839 -0.696522 77.000000
4.754504 1.035975 -0.695627 52.000000
4.763460 1.022630 -0.696522 45.000000
4.772379 1.009240 -0.697417 54.000000
4.772549 0.993989 -0.696970 77.000000
4.802697 0.984910 -0.701147 33.000000
4.740873 1.297287 -0.763488 46.000000
4.711484 1.273724 -0.757849 121.000000
4.719184 1.260282 -0.758494 118.000000
4.726846 1.246804 -0.759138 104.000000
4.734469 1.233291 -0.759782 125.000000
4.741098 1.219498 -0.760266 118.000000
4.744817 1.204946 -0.760266 113.000000
4.751364 1.191104 -0.760749 111.000000
4.758828 1.177469 -0.761393 94.000000
4.755706 1.161225 -0.760266 50.000000
4.792204 1.092526 -0.763488 62.000000
4.784942 1.075439 -0.761716 84.000000
4.782437 1.059473 -0.760749 100.000000
4.781808 1.043954 -0.760105 97.000000
4.782093 1.028656 -0.759621 85.000000
4.783296 1.013571 -0.759299 94.000000
4.789281 0.999496 -0.759782 89.000000
4.800059 0.986387 -0.761071 75.000000
4.839822 0.979089 -0.767193 29.000000
