ply
format ascii 1.0
element vertex 1294
property float x
property float y
property float z
property float intensity
end_header
2.861033 0.326070 0.591807 33.000000
2.860069 0.317074 0.591426 47.000000
2.861028 0.308298 0.591426 46.000000
2.865866 0.299929 0.592188 31.000000
2.865795 0.291036 0.591998 41.000000
2.872536 0.282822 0.593141 52.000000
2.867527 0.273446 0.591998 34.000000
2.871285 0.264919 0.592569 38.000000
2.872085 0.256109 0.592569 42.000000
2.874813 0.247465 0.592950 33.000000
2.873602 0.238481 0.592569 23.000000
2.856706 0.228249 0.589141 6.000000
2.685385 1.046632 0.556565 39.000000
2.690419 1.039097 0.556922 45.000000
2.688081 1.028729 0.555851 42.000000
2.691224 1.020477 0.555851 41.000000
2.695264 1.012561 0.556029 46.000000
2.693747 1.002572 0.555136 51.000000
2.689424 0.991581 0.553707 51.000000
2.690605 0.982651 0.553350 48.000000
2.689906 0.973053 0.552635 47.000000
2.692878 0.964796 0.552635 62.000000
2.695826 0.956530 0.552635 56.000000
2.695963 0.947277 0.552100 62.000000
2.698856 0.939001 0.552100 44.000000
2.704515 0.931678 0.552635 42.000000
2.707361 0.923376 0.552635 46.000000
2.706452 0.913807 0.551921 44.000000
2.712042 0.906435 0.552457 52.000000
2.707337 0.895639 0.551028 34.000000
2.712878 0.888247 0.551564 45.000000
2.717462 0.880526 0.551921 41.000000
2.720151 0.872185 0.551921 51.000000
2.722814 0.863835 0.551921 46.000000
2.727329 0.856067 0.552278 54.000000
2.729002 0.847404 0.552100 52.000000
2.735352 0.840183 0.552814 46.000000
2.736034 0.831215 0.552457 63.000000
2.742340 0.823949 0.553171 55.000000
2.742026 0.814691 0.552635 44.000000
2.743568 0.805998 0.552457 51.000000
2.746973 0.797851 0.552635 51.000000
2.746571 0.788606 0.552100 37.000000
2.746137 0.779370 0.551564 47.000000
2.751358 0.771738 0.552100 44.000000
2.750868 0.762506 0.551564 58.000000
2.756041 0.754842 0.552100 46.000000
2.761193 0.747153 0.552635 52.000000
2.766324 0.739440 0.553171 47.000000
2.766677 0.730448 0.552814 42.000000
2.767953 0.721708 0.552635 44.000000
2.767296 0.712477 0.552100 60.000000
2.766608 0.703257 0.551564 61.000000
2.770661 0.695245 0.551921 56.000000
2.771826 0.686505 0.551742 47.000000
2.773919 0.677998 0.551742 65.000000
2.775986 0.669484 0.551742 57.000000
2.778984 0.661192 0.551921 54.000000
2.781957 0.652888 0.552100 57.000000
2.786823 0.645015 0.552635 43.000000
2.788789 0.636462 0.552635 59.000000
2.791688 0.628119 0.552814 47.000000
2.795523 0.619977 0.553171 42.000000
2.796451 0.611188 0.552993 41.000000
2.799275 0.602813 0.553171 50.000000
2.798223 0.593610 0.552635 39.000000
2.798105 0.584620 0.552278 41.000000
2.797958 0.575636 0.551921 44.000000
2.798746 0.566854 0.551742 39.000000
2.798542 0.557881 0.551385 52.000000
2.804103 0.550049 0.552100 63.000000
2.808676 0.542003 0.552635 54.000000
2.808392 0.533017 0.552278 43.000000
2.808079 0.524037 0.551921 43.000000
2.813545 0.516130 0.552635 39.000000
2.814147 0.507321 0.552457 49.000000
2.816659 0.498856 0.552635 58.000000
2.813329 0.489370 0.551742 52.000000
2.815787 0.480902 0.551921 51.000000
2.823072 0.473236 0.552993 50.000000
2.823539 0.464413 0.552814 52.000000
2.825923 0.455905 0.552993 45.000000
2.830224 0.447694 0.553529 67.000000
2.832556 0.439160 0.553707 46.000000
2.835836 0.430763 0.554064 61.000000
2.835197 0.421771 0.553707 29.000000
2.840373 0.413638 0.554422 44.000000
2.846499 0.405615 0.555315 56.000000
2.845781 0.396609 0.554958 34.000000
2.847959 0.388009 0.555136 49.000000
2.853037 0.379788 0.555851 52.000000
2.856141 0.371287 0.556208 39.000000
2.853362 0.362028 0.555493 38.000000
2.851530 0.352910 0.554958 51.000000
2.851622 0.344042 0.554779 41.000000
2.852664 0.335292 0.554779 53.000000
2.854657 0.326650 0.554958 50.000000
2.850756 0.317347 0.554064 53.000000
2.849760 0.308388 0.553707 40.000000
2.855585 0.300157 0.554600 50.000000
2.860408 0.291794 0.555315 39.000000
2.864228 0.283307 0.555851 54.000000
2.867042 0.274706 0.556208 52.000000
2.866892 0.265818 0.556029 30.000000
2.872593 0.257460 0.556922 40.000000
2.877291 0.248984 0.557637 28.000000
2.879022 0.240238 0.557816 34.000000
2.885630 0.231876 0.558887 12.000000
2.672096 1.040057 0.519005 35.000000
2.678953 1.033275 0.519673 29.000000
2.676585 1.022937 0.518671 26.000000
2.682477 1.015769 0.519172 49.000000
2.684658 1.007188 0.519005 39.000000
2.687735 0.998947 0.519005 38.000000
2.682461 0.987627 0.517503 52.000000
2.683626 0.978716 0.517169 51.000000
2.683835 0.969472 0.516668 42.000000
2.687725 0.961566 0.516835 62.000000
2.694379 0.954635 0.517503 52.000000
2.698225 0.946691 0.517670 37.000000
2.697392 0.937113 0.517002 53.000000
2.703051 0.929796 0.517503 37.000000
2.702158 0.920226 0.516835 43.000000
2.702166 0.910985 0.516334 41.000000
2.707753 0.903628 0.516835 61.000000
2.701152 0.892220 0.515166 55.000000
2.703877 0.883929 0.515166 47.000000
2.710328 0.876845 0.515833 45.000000
2.715822 0.869429 0.516334 59.000000
2.720356 0.861689 0.516668 44.000000
2.723927 0.853634 0.516835 42.000000
2.727475 0.845566 0.517002 47.000000
2.736654 0.839220 0.518171 41.000000
2.736386 0.829961 0.517670 45.000000
2.739863 0.821845 0.517837 35.000000
2.740482 0.812874 0.517503 51.000000
2.741071 0.803907 0.517169 46.000000
2.742577 0.795219 0.517002 42.000000
2.742161 0.785985 0.516501 38.000000
2.742662 0.777030 0.516167 41.000000
2.745983 0.768878 0.516334 47.000000
2.743578 0.759133 0.515500 49.000000
2.747796 0.751233 0.515833 46.000000
2.750088 0.742800 0.515833 32.000000
2.746639 0.732832 0.514832 48.000000
2.749827 0.724653 0.514999 45.000000
2.745359 0.714472 0.513830 50.000000
2.747538 0.706046 0.513830 37.000000
2.752558 0.698342 0.514331 33.000000
2.748949 0.688455 0.513329 47.000000
2.750092 0.679781 0.513162 58.000000
2.758869 0.672979 0.514331 43.000000
2.766671 0.665898 0.515333 33.000000
2.765824 0.656723 0.514832 41.000000
2.770705 0.648910 0.515333 50.000000
2.772683 0.640406 0.515333 58.000000
2.777518 0.632555 0.515833 59.000000
2.782332 0.624680 0.516334 56.000000
2.784235 0.616141 0.516334 56.000000
2.786112 0.607596 0.516334 42.000000
2.790855 0.599668 0.516835 49.000000
2.789788 0.590489 0.516334 41.000000
2.791586 0.581927 0.516334 40.000000
2.790462 0.572764 0.515833 49.000000
2.792206 0.564201 0.515833 42.000000
2.791989 0.555246 0.515500 29.000000
2.797550 0.547437 0.516167 45.000000
2.800184 0.539038 0.516334 49.000000
2.801825 0.530445 0.516334 38.000000
2.805377 0.522208 0.516668 47.000000
2.807936 0.513777 0.516835 37.000000
2.809499 0.505160 0.516835 32.000000
2.812978 0.496882 0.517169 48.000000
2.812546 0.487911 0.516835 37.000000
2.811114 0.478783 0.516334 44.000000
2.820349 0.471460 0.517670 52.000000
2.822755 0.462965 0.517837 40.000000
2.827082 0.454773 0.518338 53.000000
2.832360 0.446714 0.519005 35.000000
2.831768 0.437720 0.518671 36.000000
2.832123 0.428882 0.518504 43.000000
2.838302 0.420917 0.519339 35.000000
2.840555 0.412349 0.519506 35.000000
2.846688 0.404328 0.520341 43.000000
2.850844 0.396000 0.520842 40.000000
2.853023 0.387385 0.521009 44.000000
2.859084 0.379281 0.521843 36.000000
2.863168 0.370889 0.522344 56.000000
2.858424 0.361358 0.521342 50.000000
2.856583 0.352224 0.520842 47.000000
2.854713 0.343104 0.520341 39.000000
2.854774 0.334230 0.520174 47.000000
2.855786 0.325470 0.520174 34.000000
2.854811 0.316489 0.519840 34.000000
2.857729 0.307941 0.520174 45.000000
2.860621 0.299378 0.520508 44.000000
2.864469 0.290900 0.521009 36.000000
2.868291 0.282402 0.521509 33.000000
2.872089 0.273883 0.522010 39.000000
2.872916 0.265070 0.522010 41.000000
2.874697 0.256343 0.522177 40.000000
2.871541 0.247182 0.521509 30.000000
2.874251 0.238535 0.521843 30.000000
2.857279 0.228295 0.518838 15.000000
2.667011 1.038940 0.482427 31.000000
2.674795 1.032531 0.483202 38.000000
2.677027 1.023967 0.483047 33.000000
2.682928 1.016800 0.483512 48.000000
2.687884 1.009258 0.483821 28.000000
2.694672 1.002384 0.484441 36.000000
2.690318 0.991381 0.483202 46.000000
2.689635 0.981768 0.482582 53.000000
2.691705 0.973176 0.482427 53.000000
2.692818 0.964247 0.482118 58.000000
2.693901 0.955321 0.481808 50.000000
2.698684 0.947706 0.482118 50.000000
2.698779 0.938449 0.481653 51.000000
2.703514 0.930808 0.481963 63.000000
2.710097 0.923784 0.482582 49.000000
2.709174 0.914202 0.481963 50.000000
2.710092 0.905260 0.481653 46.000000
2.710042 0.896012 0.481188 59.000000
2.709023 0.886465 0.480569 43.000000
2.711729 0.878149 0.480569 37.000000
2.715352 0.870127 0.480724 38.000000
2.720834 0.862688 0.481188 48.000000
2.726295 0.855223 0.481653 59.000000
2.727963 0.846562 0.481498 69.000000
2.737159 0.840217 0.482582 45.000000
2.736887 0.830955 0.482118 48.000000
2.739424 0.822555 0.482118 55.000000
2.750458 0.816676 0.483512 34.000000
2.740628 0.804618 0.481498 57.000000
2.744032 0.796481 0.481653 42.000000
2.749311 0.788876 0.482118 35.000000
2.745066 0.778551 0.481034 59.000000
2.748392 0.770392 0.481188 47.000000
2.746935 0.760903 0.480569 45.000000
2.747350 0.751950 0.480259 51.000000
2.746783 0.742745 0.479794 49.000000
2.747140 0.733804 0.479485 39.000000
2.750333 0.725625 0.479640 36.000000
2.748723 0.716188 0.479020 55.000000
2.755691 0.708981 0.479794 62.000000
2.760726 0.701253 0.480259 46.000000
2.759031 0.691819 0.479640 59.000000
2.764017 0.684063 0.480104 53.000000
2.768982 0.676283 0.480569 50.000000
2.773926 0.668478 0.481034 47.000000
2.774041 0.659508 0.480724 42.000000
2.774128 0.650544 0.480414 62.000000
2.775148 0.641807 0.480259 48.000000
2.774214 0.632632 0.479794 47.000000
2.774214 0.623684 0.479485 48.000000
2.780937 0.616238 0.480259 64.000000
2.777989 0.606650 0.479485 56.000000
2.783700 0.598955 0.480104 57.000000
2.786491 0.590617 0.480259 46.000000
2.791192 0.582671 0.480724 58.000000
2.792966 0.574105 0.480724 39.000000
2.800524 0.566708 0.481653 55.000000
2.800312 0.557728 0.481343 54.000000
2.798131 0.548375 0.480724 45.000000
2.798831 0.539601 0.480569 55.000000
2.800473 0.531011 0.480569 48.000000
2.802089 0.522417 0.480569 49.000000
2.801735 0.513462 0.480259 38.000000
2.800380 0.504339 0.479794 62.000000
2.804833 0.496261 0.480259 48.000000
2.809262 0.488161 0.480724 44.000000
2.807825 0.479042 0.480259 40.000000
2.812205 0.470914 0.480724 54.000000
2.816561 0.462765 0.481188 66.000000
2.825770 0.455378 0.482427 47.000000
2.830081 0.447168 0.482892 48.000000
2.830464 0.438333 0.482737 46.000000
2.833749 0.429943 0.483047 49.000000
2.840918 0.422118 0.483976 67.000000
2.840244 0.413116 0.483666 54.000000
2.843454 0.404678 0.483976 63.000000
2.843704 0.395816 0.483821 55.000000
2.844905 0.387090 0.483821 57.000000
2.849017 0.378751 0.484286 51.000000
2.848206 0.369754 0.483976 57.000000
2.850308 0.361138 0.484131 42.000000
2.853363 0.352634 0.484441 54.000000
2.854432 0.343878 0.484441 38.000000
2.854492 0.335004 0.484286 40.000000
2.856488 0.326357 0.484441 48.000000
2.857476 0.317592 0.484441 46.000000
2.858436 0.308824 0.484441 39.000000
2.859370 0.300053 0.484441 38.000000
2.861260 0.291379 0.484596 51.000000
2.864107 0.282793 0.484906 49.000000
2.865945 0.274099 0.485060 48.000000
2.868740 0.265487 0.485370 43.000000
2.866589 0.256421 0.484906 42.000000
2.867362 0.247625 0.484906 39.000000
2.868108 0.238827 0.484906 38.000000
2.867842 0.229948 0.484751 21.000000
2.661759 1.036561 0.446544 43.000000
2.673235 1.031600 0.447831 29.000000
2.668069 1.020209 0.446544 38.000000
2.673037 1.012721 0.446830 30.000000
2.679837 1.005908 0.447402 33.000000
2.680128 0.996646 0.446973 48.000000
2.678530 0.986706 0.446258 42.000000
2.680615 0.978144 0.446115 42.000000
2.678950 0.968232 0.445401 44.000000
2.680976 0.959674 0.445258 43.000000
2.683908 0.951445 0.445258 58.000000
2.685881 0.942878 0.445115 44.000000
2.688761 0.934633 0.445115 54.000000
2.692551 0.926702 0.445258 50.000000
2.697255 0.919076 0.445543 37.000000
2.701000 0.911114 0.445686 54.000000
2.706598 0.903765 0.446115 46.000000
2.709358 0.895456 0.446115 49.000000
2.712093 0.887140 0.446115 43.000000
2.717626 0.879731 0.446544 44.000000
2.721255 0.871692 0.446687 54.000000
2.727690 0.864536 0.447259 48.000000
2.733162 0.857053 0.447688 52.000000
2.731053 0.847196 0.446973 39.000000
2.729855 0.837650 0.446401 51.000000
2.730518 0.828696 0.446115 59.000000
2.730204 0.819460 0.445686 40.000000
2.732705 0.811080 0.445686 57.000000
2.726635 0.800181 0.444400 48.000000
2.725275 0.790707 0.443828 40.000000
2.729591 0.782889 0.444114 40.000000
2.731027 0.774240 0.443971 33.000000
2.733390 0.765858 0.443971 46.000000
2.740495 0.758791 0.444686 59.000000
2.738037 0.749072 0.443971 51.000000
2.740323 0.740668 0.443971 50.000000
2.744494 0.732769 0.444257 52.000000
2.745773 0.724093 0.444114 57.000000
2.745108 0.714916 0.443685 51.000000
2.749206 0.706984 0.443971 51.000000
2.749443 0.698059 0.443685 46.000000
2.756372 0.690825 0.444400 66.000000
2.765203 0.684032 0.445401 49.000000
2.769211 0.676016 0.445686 33.000000
2.771272 0.667517 0.445686 48.000000
2.776196 0.659699 0.446115 47.000000
2.774352 0.650274 0.445543 39.000000
2.773442 0.641089 0.445115 56.000000
2.768641 0.631035 0.444114 43.000000
2.769599 0.622320 0.443971 56.000000
2.771495 0.613820 0.443971 51.000000
2.775299 0.605738 0.444257 56.000000
2.777144 0.597220 0.444257 48.000000
2.779931 0.588903 0.444400 50.000000
2.783663 0.580777 0.444686 49.000000
2.786401 0.572433 0.444829 51.000000
2.788144 0.563882 0.444829 49.000000
2.788890 0.555132 0.444686 51.000000
2.787667 0.546001 0.444257 40.000000
2.789328 0.537446 0.444257 51.000000
2.794853 0.529625 0.444829 56.000000
2.803275 0.522319 0.445829 40.000000
2.800971 0.513002 0.445258 39.000000
2.802531 0.504406 0.445258 38.000000
2.805041 0.495979 0.445401 45.000000
2.804599 0.487031 0.445115 39.000000
2.807055 0.478591 0.445258 42.000000
2.805582 0.469486 0.444829 55.000000
2.807986 0.461037 0.444972 45.000000
2.817204 0.453682 0.446115 53.000000
2.818583 0.445037 0.446115 39.000000
2.822869 0.436843 0.446544 45.000000
2.823217 0.428031 0.446401 57.000000
2.826475 0.419659 0.446687 50.000000
2.832646 0.411700 0.447402 71.000000
2.828017 0.402169 0.446544 35.000000
2.831198 0.393764 0.446830 40.000000
2.836315 0.385611 0.447402 50.000000
2.832579 0.376254 0.446687 55.000000
2.835684 0.367817 0.446973 40.000000
2.841708 0.359739 0.447688 50.000000
2.841815 0.350898 0.447545 65.000000
2.842879 0.342178 0.447545 44.000000
2.846864 0.333801 0.447974 42.000000
2.848858 0.325178 0.448117 43.000000
2.857712 0.317314 0.449261 36.000000
2.857687 0.308438 0.449118 53.000000
2.858620 0.299669 0.449118 43.000000
2.860511 0.290998 0.449261 36.000000
2.861390 0.282221 0.449261 50.000000
2.866183 0.273819 0.449833 43.000000
2.865039 0.264842 0.449547 52.000000
2.857952 0.255343 0.448403 34.000000
2.865624 0.247172 0.449404 28.000000
2.860451 0.237884 0.448546 36.000000
2.861167 0.229107 0.448546 17.000000
2.682724 1.045058 0.414664 44.000000
2.679443 1.034325 0.413747 41.000000
2.679825 1.025037 0.413354 45.000000
2.677395 1.014704 0.412567 31.000000
2.684208 1.007878 0.413092 28.000000
2.679854 0.996874 0.412043 35.000000
2.676388 0.986249 0.411126 51.000000
2.673813 0.975995 0.410340 58.000000
2.678659 0.968461 0.410602 65.000000
2.678818 0.959236 0.410209 58.000000
2.682682 0.951344 0.410340 63.000000
2.685588 0.943109 0.410340 58.000000
2.691278 0.935842 0.410733 61.000000
2.692262 0.926936 0.410471 55.000000
2.695093 0.918672 0.410471 49.000000
2.699778 0.911033 0.410733 57.000000
2.704441 0.903374 0.410995 58.000000
2.705317 0.894450 0.410733 65.000000
2.708048 0.886146 0.410733 54.000000
2.710754 0.877834 0.410733 47.000000
2.713435 0.869513 0.410733 70.000000
2.718925 0.862083 0.411126 53.000000
2.719665 0.853144 0.410864 45.000000
2.720376 0.844209 0.410602 47.000000
2.727692 0.837313 0.411257 47.000000
2.728350 0.828365 0.410995 62.000000
2.725182 0.818280 0.410209 57.000000
2.732431 0.811326 0.410864 58.000000
2.730151 0.801544 0.410209 60.000000
2.729741 0.792335 0.409816 48.000000
2.733112 0.784230 0.409947 52.000000
2.730736 0.774489 0.409291 56.000000
2.732145 0.765840 0.409160 47.000000
2.740214 0.759042 0.409947 80.000000
2.738705 0.749585 0.409422 50.000000
2.741949 0.741438 0.409553 46.000000
2.744210 0.733022 0.409553 46.000000
2.746447 0.724600 0.409553 40.000000
2.751535 0.716920 0.409947 50.000000
2.754682 0.708722 0.410078 42.000000
2.755882 0.700023 0.409947 31.000000
2.766672 0.693734 0.411126 58.000000
2.768787 0.685243 0.411126 46.000000
2.774728 0.677685 0.411650 57.000000
2.776794 0.669169 0.411650 49.000000
2.779799 0.660876 0.411781 39.000000
2.771196 0.649857 0.410340 56.000000
2.766415 0.639789 0.409422 45.000000
2.765465 0.630638 0.409029 48.000000
2.766420 0.621933 0.408898 53.000000
2.768315 0.613443 0.408898 51.000000
2.772121 0.605370 0.409160 56.000000
2.771057 0.596237 0.408767 56.000000
2.781602 0.589582 0.409947 47.000000
2.778546 0.580033 0.409291 45.000000
2.782254 0.571904 0.409553 55.000000
2.783996 0.563366 0.409553 53.000000
2.785711 0.554822 0.409553 62.000000
2.789346 0.546654 0.409816 54.000000
2.793931 0.538657 0.410209 55.000000
2.796544 0.530267 0.410340 48.000000
2.804005 0.522774 0.411126 59.000000
2.800720 0.513276 0.410471 52.000000
2.799354 0.504155 0.410078 44.000000
2.798936 0.495219 0.409816 72.000000
2.800442 0.486629 0.409816 44.000000
2.801922 0.478035 0.409816 60.000000
2.806308 0.469928 0.410209 50.000000
2.811650 0.461958 0.410733 55.000000
2.816969 0.453961 0.411257 45.000000
2.823245 0.446089 0.411912 50.000000
2.829499 0.438183 0.412567 53.000000
2.826909 0.428906 0.412043 49.000000
2.829192 0.420377 0.412174 43.000000
2.832430 0.411980 0.412436 39.000000
2.832700 0.403149 0.412305 63.000000
2.830978 0.394047 0.411912 48.000000
2.834138 0.385627 0.412174 48.000000
2.832359 0.376538 0.411781 43.000000
2.834484 0.367974 0.411912 49.000000
2.837567 0.359526 0.412174 50.000000
2.839640 0.350940 0.412305 66.000000
2.843656 0.342582 0.412699 57.000000
2.846663 0.334087 0.412961 58.000000
2.850630 0.325689 0.413354 40.000000
2.851616 0.316942 0.413354 63.000000
2.853560 0.308298 0.413485 51.000000
2.854493 0.299542 0.413485 56.000000
2.856385 0.290883 0.413616 58.000000
2.853317 0.281730 0.413092 43.000000
2.858116 0.273351 0.413616 50.000000
2.859928 0.264673 0.413747 33.000000
2.861714 0.255986 0.413878 33.000000
2.862486 0.247205 0.413878 41.000000
2.867183 0.238750 0.414402 45.000000
2.869878 0.230111 0.414664 37.000000
2.880455 0.222066 0.415975 27.000000
2.888044 0.213739 0.416892 15.000000
2.896597 0.205438 0.417940 11.000000
2.688035 1.075948 0.381082 16.000000
2.663640 1.056700 0.377515 36.000000
2.669641 1.049615 0.377871 44.000000
2.673774 1.041780 0.377990 37.000000
2.676031 1.033214 0.377871 36.000000
2.671771 1.022158 0.376920 63.000000
2.671181 1.012547 0.376444 70.000000
2.682639 1.007493 0.377515 35.000000
2.675483 0.995445 0.376206 61.000000
2.674798 0.985857 0.375731 64.000000
2.677810 0.977646 0.375731 69.000000
2.677996 0.968412 0.375374 50.000000
2.680020 0.959856 0.375255 72.000000
2.680145 0.950633 0.374898 64.000000
2.674619 0.939441 0.373828 58.000000
2.678426 0.931557 0.373947 49.000000
2.677517 0.922041 0.373471 66.000000
2.677514 0.912859 0.373114 59.000000
2.685005 0.906230 0.373709 48.000000
2.686831 0.897673 0.373590 45.000000
2.693343 0.890675 0.374066 63.000000
2.697950 0.883026 0.374304 59.000000
2.697813 0.873826 0.373947 69.000000
2.700481 0.865545 0.373947 48.000000
2.702178 0.856955 0.373828 50.000000
2.702899 0.848066 0.373590 47.000000
2.705488 0.839769 0.373590 53.000000
2.713747 0.833216 0.374304 67.000000
2.716290 0.824886 0.374304 57.000000
2.720710 0.817121 0.374541 62.000000
2.727010 0.809902 0.375017 48.000000
2.728530 0.801252 0.374898 69.000000
2.733835 0.793709 0.375255 62.000000
2.734349 0.784769 0.375017 47.000000
2.732924 0.775291 0.374541 66.000000
2.733377 0.766366 0.374304 48.000000
2.734759 0.757711 0.374185 60.000000
2.735155 0.748793 0.373947 63.000000
2.740315 0.741177 0.374304 51.000000
2.740658 0.732252 0.374066 70.000000
2.744811 0.724348 0.374304 44.000000
2.747020 0.715924 0.374304 61.000000
2.749204 0.707493 0.374304 60.000000
2.751362 0.699055 0.374304 67.000000
2.752530 0.690369 0.374185 62.000000
2.750781 0.680965 0.373709 53.000000
2.751893 0.672286 0.373590 77.000000
2.751047 0.663141 0.373233 50.000000
2.751136 0.654238 0.372995 57.000000
2.752164 0.645567 0.372877 52.000000
2.753164 0.636897 0.372758 72.000000
2.756073 0.628668 0.372877 73.000000
2.760895 0.620864 0.373233 55.000000
2.762787 0.612391 0.373233 49.000000
2.767562 0.604549 0.373590 70.000000
2.769404 0.596056 0.373590 79.000000
2.772191 0.587763 0.373709 44.000000
2.773009 0.579052 0.373590 67.000000
2.773800 0.570341 0.373471 52.000000
2.774564 0.561631 0.373352 55.000000
2.779195 0.553699 0.373709 49.000000
2.779906 0.544979 0.373590 50.000000
2.787414 0.537578 0.374304 55.000000
2.793928 0.529951 0.374898 55.000000
2.799444 0.522107 0.375374 52.000000
2.801033 0.513516 0.375374 54.000000
2.802595 0.504920 0.375374 52.000000
2.798265 0.495279 0.374660 49.000000
2.799771 0.486691 0.374660 55.000000
2.801252 0.478099 0.374660 51.000000
2.802705 0.469503 0.374660 69.000000
2.803153 0.460741 0.374541 51.000000
2.806514 0.452456 0.374779 55.000000
2.809850 0.444154 0.375017 55.000000
2.816105 0.436294 0.375612 40.000000
2.821357 0.428249 0.376087 49.000000
2.820693 0.419299 0.375850 56.000000
2.817054 0.409926 0.375255 48.000000
2.817315 0.401141 0.375136 49.000000
2.815582 0.392084 0.374779 51.000000
2.818739 0.383713 0.375017 66.000000
2.819904 0.375063 0.375017 59.000000
2.822026 0.366538 0.375136 48.000000
2.831017 0.358881 0.376087 60.000000
2.832104 0.350194 0.376087 57.000000
2.835137 0.341742 0.376325 60.000000
2.843074 0.333856 0.377158 53.000000
2.845072 0.325245 0.377277 60.000000
2.848030 0.316735 0.377515 66.000000
2.851949 0.308317 0.377871 54.000000
2.864731 0.300815 0.379298 28.000000
2.859714 0.291419 0.378585 60.000000
2.865535 0.283134 0.379180 58.000000
2.868366 0.274531 0.379417 41.000000
2.869195 0.265730 0.379417 41.000000
2.878897 0.257726 0.380488 43.000000
2.880663 0.248979 0.380607 57.000000
2.882403 0.240223 0.380726 55.000000
2.885106 0.231538 0.380963 39.000000
2.884813 0.222609 0.380844 50.000000
2.885483 0.213757 0.380844 46.000000
2.880182 0.204480 0.380131 35.000000
2.658923 1.055160 0.341712 26.000000
2.662148 1.046997 0.341712 38.000000
2.665348 1.038825 0.341712 30.000000
2.671305 1.031717 0.342032 42.000000
2.674458 1.023517 0.342032 49.000000
2.676655 1.014955 0.341925 44.000000
2.677895 1.006039 0.341712 52.000000
2.679105 0.997125 0.341498 52.000000
2.682151 0.988901 0.341498 49.000000
2.683305 0.979986 0.341285 49.000000
2.682559 0.970397 0.340857 68.000000
2.683651 0.961492 0.340644 48.000000
2.682840 0.951924 0.340217 67.000000
2.682933 0.942701 0.339896 58.000000
2.684874 0.934138 0.339790 44.000000
2.683967 0.924602 0.339362 59.000000
2.687732 0.916684 0.339469 56.000000
2.692415 0.909070 0.339683 62.000000
2.690477 0.899230 0.339149 57.000000
2.697943 0.892533 0.339683 61.000000
2.702558 0.884870 0.339896 56.000000
2.702423 0.875655 0.339576 60.000000
2.706990 0.867967 0.339790 54.000000
2.710588 0.859959 0.339896 46.000000
2.709419 0.850448 0.339469 75.000000
2.712965 0.842426 0.339576 71.000000
2.716487 0.834391 0.339683 54.000000
2.718083 0.825764 0.339576 59.000000
2.723460 0.818279 0.339896 55.000000
2.724051 0.809354 0.339683 52.000000
2.727476 0.801273 0.339790 51.000000
2.727057 0.792070 0.339469 69.000000
2.730429 0.783974 0.339576 54.000000
2.731865 0.775322 0.339469 55.000000
2.734231 0.766937 0.339469 46.000000
2.733697 0.757748 0.339149 49.000000
2.733131 0.748570 0.338829 62.000000
2.736375 0.740441 0.338935 68.000000
2.744397 0.733582 0.339576 61.000000
2.745673 0.724906 0.339469 62.000000
2.748847 0.716729 0.339576 56.000000
2.751033 0.708293 0.339576 55.000000
2.753193 0.699849 0.339576 58.000000
2.754363 0.691157 0.339469 53.000000
2.753575 0.681987 0.339149 54.000000
2.752756 0.672828 0.338829 57.000000
2.755774 0.664613 0.338935 62.000000
2.757800 0.656155 0.338935 65.000000
2.763672 0.648599 0.339362 51.000000
2.766618 0.640342 0.339469 45.000000
2.774386 0.633177 0.340110 53.000000
2.779225 0.625317 0.340430 62.000000
2.781131 0.616787 0.340430 48.000000
2.782039 0.608040 0.340324 62.000000
2.780003 0.598665 0.339896 56.000000
2.780854 0.589927 0.339790 37.000000
2.780704 0.580987 0.339576 56.000000
2.781499 0.572253 0.339469 55.000000
2.782267 0.563519 0.339362 64.000000
2.783008 0.554786 0.339256 58.000000
2.783721 0.546054 0.339149 50.000000
2.788312 0.538076 0.339469 43.000000
2.789950 0.529519 0.339469 56.000000
2.792539 0.521140 0.339576 46.000000
2.793147 0.512390 0.339469 37.000000
2.795684 0.503995 0.339576 52.000000
2.798196 0.495589 0.339683 39.000000
2.799703 0.487002 0.339683 52.000000
2.801184 0.478410 0.339683 54.000000
2.806561 0.470471 0.340110 56.000000
2.806029 0.461536 0.339896 53.000000
2.811358 0.453558 0.340324 53.000000
2.809791 0.444465 0.340003 42.000000
2.814088 0.436299 0.340324 57.000000
2.823278 0.428857 0.341178 55.000000
2.823597 0.420047 0.341071 53.000000
2.825856 0.411526 0.341178 57.000000
2.829074 0.403134 0.341391 54.000000
2.826359 0.393905 0.340964 59.000000
2.830509 0.385634 0.341285 59.000000
2.829708 0.376686 0.341071 88.000000
2.832822 0.368259 0.341285 54.000000
2.837884 0.360066 0.341712 55.000000
2.837989 0.351236 0.341605 57.000000
2.841027 0.342766 0.341819 40.000000
2.843053 0.334164 0.341925 66.000000
2.847029 0.325778 0.342246 45.000000
2.848015 0.317042 0.342246 56.000000
2.848974 0.308303 0.342246 58.000000
2.848917 0.299457 0.342139 52.000000
2.850812 0.290817 0.342246 51.000000
2.853670 0.282264 0.342459 64.000000
2.857491 0.273792 0.342780 45.000000
2.859308 0.265116 0.342886 49.000000
2.864069 0.256697 0.343313 40.000000
2.867815 0.248166 0.343634 40.000000
2.868563 0.239366 0.343634 52.000000
2.876222 0.231121 0.344381 62.000000
2.876917 0.222296 0.344381 45.000000
2.874611 0.213248 0.344061 36.000000
2.877235 0.204569 0.344275 35.000000
2.653956 1.033519 0.306408 40.000000
2.660829 1.026807 0.306788 40.000000
2.666755 1.019706 0.307073 50.000000
2.665218 1.009755 0.306598 35.000000
2.669235 1.001924 0.306693 42.000000
2.668564 0.992340 0.306313 51.000000
2.667861 0.982771 0.305933 54.000000
2.672733 0.975264 0.306123 52.000000
2.671968 0.965705 0.305743 50.000000
2.673981 0.957167 0.305648 54.000000
2.677843 0.949292 0.305743 54.000000
2.678865 0.940412 0.305553 55.000000
2.679857 0.931534 0.305363 46.000000
2.680820 0.922659 0.305173 61.000000
2.681754 0.913787 0.304984 62.000000
2.682658 0.904918 0.304794 61.000000
2.681646 0.895421 0.304414 61.000000
2.683435 0.886877 0.304319 66.000000
2.687089 0.878950 0.304414 54.000000
2.688827 0.870395 0.304319 65.000000
2.695276 0.863358 0.304699 84.000000
2.696963 0.854784 0.304604 66.000000
2.697673 0.845909 0.304414 78.000000
2.704058 0.838810 0.304794 63.000000
2.706619 0.830510 0.304794 59.000000
2.707249 0.821624 0.304604 54.000000
2.711664 0.813887 0.304794 61.000000
2.711286 0.804713 0.304509 46.000000
2.716607 0.797233 0.304794 58.000000
2.720952 0.789451 0.304984 43.000000
2.722404 0.780824 0.304889 51.000000
2.723829 0.772197 0.304794 49.000000
2.727144 0.764105 0.304889 55.000000
2.730435 0.756001 0.304984 46.000000
2.730821 0.747094 0.304794 56.000000
2.727335 0.737152 0.304224 65.000000
2.732469 0.729553 0.304509 71.000000
2.728919 0.719641 0.303939 48.000000
2.734004 0.712019 0.304224 54.000000
2.739068 0.704373 0.304509 55.000000
2.737357 0.694985 0.304129 60.000000
2.738510 0.686341 0.304034 63.000000
2.739637 0.677697 0.303939 63.000000
2.741703 0.669288 0.303939 56.000000
2.745679 0.661341 0.304129 58.000000
2.744790 0.652223 0.303844 41.000000
2.747747 0.644026 0.303939 40.000000
2.755529 0.636941 0.304509 46.000000
2.763293 0.629814 0.305079 67.000000
2.765212 0.621333 0.305079 66.000000
2.769049 0.613278 0.305268 46.000000
2.770917 0.604780 0.305268 62.000000
2.771787 0.596066 0.305173 67.000000
2.776524 0.588180 0.305458 69.000000
2.773443 0.578640 0.304984 60.000000
2.776181 0.570329 0.305079 53.000000
2.777917 0.561809 0.305079 70.000000
2.773770 0.552116 0.304509 50.000000
2.778382 0.544178 0.304794 49.000000
2.777106 0.535086 0.304509 53.000000
2.776778 0.526192 0.304319 78.000000
2.781315 0.518218 0.304604 46.000000
2.783871 0.509863 0.304699 60.000000
2.786402 0.501496 0.304794 61.000000
2.795769 0.494335 0.305553 62.000000
2.796291 0.485585 0.305458 40.000000
2.799731 0.477339 0.305648 54.000000
2.807073 0.469736 0.306218 50.000000
2.805554 0.460636 0.305933 51.000000
2.811867 0.452820 0.306408 52.000000
2.813243 0.444191 0.306408 44.000000
2.812626 0.435253 0.306218 74.000000
2.817885 0.427221 0.306598 45.000000
2.816228 0.418134 0.306313 55.000000
2.817497 0.409492 0.306313 59.000000
2.820712 0.401127 0.306503 56.000000
2.820943 0.392334 0.306408 53.000000
2.823120 0.383812 0.306503 60.000000
2.821324 0.374754 0.306218 58.000000
2.821473 0.365968 0.306123 51.000000
2.822582 0.357310 0.306123 57.000000
2.824653 0.348772 0.306218 45.000000
2.827687 0.340343 0.306408 56.000000
2.826740 0.331433 0.306218 46.000000
2.830711 0.323099 0.306503 57.000000
2.833668 0.314634 0.306693 53.000000
2.833630 0.305832 0.306598 59.000000
2.833565 0.297032 0.306503 49.000000
2.833472 0.288237 0.306408 52.000000
2.836324 0.279739 0.306598 57.000000
2.840142 0.271321 0.306883 58.000000
2.847899 0.263250 0.307548 59.000000
2.852660 0.254868 0.307928 44.000000
2.858387 0.246544 0.308403 43.000000
2.864090 0.238188 0.308878 53.000000
2.881676 0.230758 0.310492 27.000000
2.652011 1.033629 0.270383 39.000000
2.657029 1.026206 0.270548 40.000000
2.658303 1.017337 0.270383 33.000000
2.664208 1.010237 0.270631 53.000000
2.664496 1.001007 0.270383 40.000000
2.664752 0.991785 0.270136 49.000000
2.664977 0.982572 0.269889 55.000000
2.671723 0.975758 0.270218 61.000000
2.675642 0.967896 0.270301 49.000000
2.676722 0.959010 0.270136 61.000000
2.682470 0.951793 0.270383 50.000000
2.688198 0.944550 0.270631 38.000000
2.685435 0.934334 0.270136 65.000000
2.688289 0.926091 0.270136 52.000000
2.690174 0.917517 0.270054 56.000000
2.693921 0.909578 0.270136 49.000000
2.699534 0.902256 0.270383 67.000000
2.702290 0.893970 0.270383 47.000000
2.705020 0.885675 0.270383 42.000000
2.707724 0.877372 0.270383 44.000000
2.713251 0.869973 0.270631 45.000000
2.710207 0.859838 0.270136 73.000000
2.710930 0.850922 0.269971 46.000000
2.716383 0.843487 0.270218 49.000000
2.715148 0.833980 0.269889 69.000000
2.715786 0.825067 0.269724 57.000000
2.720214 0.817304 0.269889 56.000000
2.721753 0.808671 0.269806 49.000000
2.723265 0.800036 0.269724 68.000000
2.724750 0.791400 0.269641 62.000000
2.725249 0.782487 0.269476 50.000000
2.726678 0.773850 0.269394 58.000000
2.729039 0.765481 0.269394 57.000000
2.732335 0.757371 0.269476 68.000000
2.735607 0.749248 0.269559 65.000000
2.737893 0.740852 0.269559 63.000000
2.741116 0.732706 0.269641 60.000000
2.741424 0.723784 0.269476 45.000000
2.745560 0.715873 0.269641 71.000000
2.747743 0.707446 0.269641 69.000000
2.747969 0.698522 0.269476 71.000000
2.746233 0.689119 0.269146 56.000000
2.746399 0.680211 0.268982 56.000000
2.747505 0.671546 0.268899 53.000000
2.746646 0.662413 0.268652 52.000000
2.747695 0.653752 0.268569 65.000000
2.750659 0.645547 0.268652 56.000000
2.751655 0.636880 0.268569 57.000000
2.755539 0.628879 0.268734 66.000000
2.761345 0.621296 0.269064 54.000000
2.766157 0.613469 0.269311 69.000000
2.770947 0.605617 0.269559 66.000000
2.773766 0.597323 0.269641 54.000000
2.778510 0.589431 0.269889 40.000000
2.780306 0.580903 0.269889 56.000000
2.782075 0.572371 0.269889 43.000000
2.783818 0.563833 0.269889 54.000000
2.782602 0.554705 0.269641 41.000000
2.783313 0.545974 0.269559 53.000000
2.783018 0.537055 0.269394 61.000000
2.782694 0.528143 0.269229 59.000000
2.783322 0.519421 0.269146 59.000000
2.785882 0.511059 0.269229 60.000000
2.784495 0.501979 0.268982 48.000000
2.789947 0.494129 0.269311 59.000000
2.792432 0.485738 0.269394 63.000000
2.799803 0.478174 0.269889 56.000000
2.805189 0.470241 0.270218 64.000000
2.805635 0.461471 0.270136 58.000000
2.812941 0.453813 0.270631 47.000000
2.811367 0.444714 0.270383 60.000000
2.816657 0.436697 0.270713 48.000000
2.820940 0.428502 0.270961 54.000000
2.820269 0.419553 0.270796 53.000000
2.819571 0.410611 0.270631 48.000000
2.823777 0.402380 0.270878 62.000000
2.823025 0.393440 0.270713 55.000000
2.826193 0.385046 0.270878 56.000000
2.825385 0.376111 0.270713 36.000000
2.822573 0.366928 0.270383 45.000000
2.820719 0.357891 0.270136 53.000000
2.821804 0.349235 0.270136 54.000000
2.823851 0.340696 0.270218 58.000000
2.824883 0.332031 0.270218 53.000000
2.827869 0.323589 0.270383 64.000000
2.828848 0.314911 0.270383 50.000000
2.831783 0.306445 0.270548 60.000000
2.833701 0.297860 0.270631 53.000000
2.837576 0.289468 0.270878 60.000000
2.838450 0.280761 0.270878 66.000000
2.842275 0.272336 0.271125 33.000000
2.843097 0.263615 0.271125 42.000000
2.843892 0.254891 0.271125 40.000000
2.846647 0.246337 0.271290 44.000000
2.863280 0.238926 0.272610 27.000000
2.853071 0.229264 0.271703 48.000000
2.886552 0.223039 0.274424 8.000000
2.887223 0.214182 0.274424 9.000000
2.639231 1.026722 0.235574 36.000000
2.641438 1.018261 0.235503 37.000000
2.651071 1.012647 0.235997 48.000000
2.656031 1.005216 0.236139 33.000000
2.654433 0.995309 0.235786 50.000000
2.661214 0.988552 0.236068 68.000000
2.661426 0.979348 0.235856 48.000000
2.667229 0.972204 0.236068 60.000000
2.671138 0.964356 0.236139 65.000000
2.669388 0.954475 0.235786 49.000000
2.672304 0.946281 0.235786 70.000000
2.677077 0.938739 0.235927 56.000000
2.677118 0.929539 0.235715 68.000000
2.679013 0.920997 0.235644 63.000000
2.684659 0.913738 0.235856 63.000000
2.683669 0.904222 0.235574 43.000000
2.689269 0.896932 0.235786 54.000000
2.693902 0.889304 0.235927 44.000000
2.690930 0.879174 0.235503 81.000000
2.694563 0.871221 0.235574 53.000000
2.697223 0.862951 0.235574 60.000000
2.698907 0.854370 0.235503 53.000000
2.699612 0.845489 0.235362 50.000000
2.703146 0.837498 0.235432 68.000000
2.703796 0.828616 0.235291 47.000000
2.703462 0.819447 0.235079 50.000000
2.708829 0.812010 0.235291 62.000000
2.709395 0.803128 0.235150 61.000000
2.705146 0.792845 0.234656 71.000000
2.707566 0.784542 0.234656 61.000000
2.709960 0.776232 0.234656 43.000000
2.711370 0.767642 0.234585 56.000000
2.714672 0.759589 0.234656 47.000000
2.721796 0.752588 0.235009 53.000000
2.721206 0.743444 0.234797 54.000000
2.730215 0.736915 0.235291 64.000000
2.732463 0.728535 0.235291 51.000000
2.730827 0.719131 0.235009 54.000000
2.736881 0.711755 0.235291 41.000000
2.739052 0.703355 0.235291 43.000000
2.734429 0.693230 0.234797 60.000000
2.737511 0.685080 0.234867 46.000000
2.736695 0.675960 0.234656 61.000000
2.739725 0.667797 0.234726 63.000000
2.742731 0.659622 0.234797 56.000000
2.742800 0.650743 0.234656 56.000000
2.743813 0.642098 0.234585 82.000000
2.746742 0.633901 0.234656 52.000000
2.749646 0.625693 0.234726 60.000000
2.753499 0.617692 0.234867 43.000000
2.755381 0.609241 0.234867 61.000000
2.760161 0.601423 0.235079 61.000000
2.763944 0.593372 0.235221 74.000000
2.763799 0.584476 0.235079 55.000000
2.766556 0.576198 0.235150 50.000000
2.765379 0.567105 0.234938 53.000000
2.768084 0.558816 0.235009 44.000000
2.767828 0.549932 0.234867 60.000000
2.771460 0.541821 0.235009 45.000000
2.770171 0.532749 0.234797 65.000000
2.774733 0.524805 0.235009 58.000000
2.775349 0.516107 0.234938 62.000000
2.775938 0.507411 0.234867 55.000000
2.777482 0.498892 0.234867 47.000000
2.779982 0.490542 0.234938 49.000000
2.783440 0.482352 0.235079 54.000000
2.791789 0.474984 0.235574 56.000000
2.796185 0.466911 0.235786 68.000000
2.798589 0.458492 0.235856 42.000000
2.803921 0.450539 0.236139 55.000000
2.805290 0.441934 0.236139 60.000000
2.808604 0.433631 0.236280 62.000000
2.805977 0.424414 0.235997 41.000000
2.808252 0.415950 0.236068 48.000000
2.806554 0.406902 0.235856 50.000000
2.809764 0.398570 0.235997 52.000000
2.809986 0.389811 0.235927 55.000000
2.813145 0.381457 0.236068 43.000000
2.814302 0.372824 0.236068 50.000000
2.811476 0.363675 0.235786 65.000000
2.814558 0.355299 0.235927 53.000000
2.812665 0.346295 0.235715 29.000000
2.815694 0.337903 0.235856 50.000000
2.820681 0.329728 0.236139 46.000000
2.825643 0.321525 0.236421 44.000000
2.828599 0.313075 0.236562 49.000000
2.831530 0.304610 0.236704 61.000000
2.835427 0.296233 0.236916 40.000000
2.839299 0.287836 0.237127 56.000000
2.845133 0.279614 0.237481 58.000000
2.848956 0.271168 0.237692 41.000000
2.847788 0.262243 0.237551 62.000000
2.853547 0.253949 0.237904 32.000000
2.851331 0.244936 0.237692 38.000000
2.857040 0.236601 0.238046 37.000000
2.857752 0.227834 0.238046 43.000000
2.897225 0.222054 0.240800 7.000000
2.656735 1.034939 0.201158 39.000000
2.659898 1.026783 0.201158 50.000000
2.663968 1.018974 0.201216 44.000000
2.665214 1.010089 0.201100 36.000000
2.667366 1.001557 0.201041 50.000000
2.667619 0.992325 0.200867 56.000000
2.667841 0.983101 0.200693 52.000000
2.668968 0.974227 0.200577 61.000000
2.667250 0.964338 0.200286 49.000000
2.665497 0.954468 0.199996 69.000000
2.667472 0.945953 0.199938 61.000000
2.671303 0.938095 0.199996 64.000000
2.676055 0.930551 0.200112 59.000000
2.681729 0.923311 0.200286 67.000000
2.686439 0.915723 0.200403 49.000000
2.687344 0.906839 0.200286 73.000000
2.692954 0.899538 0.200461 58.000000
2.695701 0.891272 0.200461 61.000000
2.692730 0.881136 0.200112 51.000000
2.698270 0.873793 0.200286 56.000000
2.698086 0.864597 0.200112 56.000000
2.698822 0.855712 0.199996 59.000000
2.706198 0.848921 0.200286 44.000000
2.700208 0.837953 0.199764 59.000000
2.702766 0.829665 0.199764 73.000000
2.708164 0.822239 0.199938 62.000000
2.705894 0.812492 0.199647 67.000000
2.707416 0.803902 0.199589 51.000000
2.709870 0.795592 0.199589 63.000000
2.712298 0.787275 0.199589 67.000000
2.717579 0.779775 0.199764 56.000000
2.718038 0.770890 0.199647 63.000000
2.719429 0.762278 0.199589 57.000000
2.723679 0.754464 0.199705 65.000000
2.721166 0.744787 0.199415 63.000000
2.724402 0.736696 0.199473 65.000000
2.723756 0.727562 0.199299 73.000000
2.722114 0.718184 0.199067 62.000000
2.721406 0.709074 0.198892 55.000000
2.723569 0.700722 0.198892 54.000000
2.723771 0.691871 0.198776 73.000000
2.729754 0.684482 0.199008 78.000000
2.735718 0.677063 0.199241 59.000000
2.739721 0.669140 0.199357 63.000000
2.744673 0.661433 0.199531 53.000000
2.750574 0.653933 0.199764 70.000000
2.752568 0.645491 0.199764 73.000000
2.755508 0.637268 0.199822 51.000000
2.753556 0.627924 0.199589 70.000000
2.751574 0.618598 0.199357 70.000000
2.752484 0.609937 0.199299 69.000000
2.758244 0.602341 0.199531 61.000000
2.756175 0.593037 0.199299 72.000000
2.758958 0.584785 0.199357 62.000000
2.758784 0.575910 0.199241 58.000000
2.762494 0.567845 0.199357 52.000000
2.765202 0.559565 0.199415 52.000000
2.767884 0.551274 0.199473 49.000000
2.770543 0.542972 0.199531 56.000000
2.773175 0.534658 0.199589 53.000000
2.780688 0.527263 0.199938 58.000000
2.785237 0.519278 0.200112 69.000000
2.790745 0.511449 0.200344 61.000000
2.791318 0.502708 0.200286 61.000000
2.792847 0.494142 0.200286 64.000000
2.794350 0.485572 0.200286 55.000000
2.793859 0.476661 0.200170 48.000000
2.791369 0.467428 0.199938 76.000000
2.788850 0.458215 0.199705 63.000000
2.788271 0.449340 0.199589 63.000000
2.792595 0.441250 0.199764 61.000000
2.796895 0.433139 0.199938 52.000000
2.795249 0.424107 0.199764 60.000000
2.802462 0.416409 0.200112 63.000000
2.806691 0.408240 0.200286 74.000000
2.812872 0.400330 0.200577 64.000000
2.815076 0.391836 0.200635 54.000000
2.818243 0.383466 0.200751 66.000000
2.820396 0.374949 0.200809 61.000000
2.827473 0.367065 0.201158 47.000000
2.824624 0.357888 0.200925 61.000000
2.826699 0.349342 0.200983 55.000000
2.827758 0.340668 0.200983 56.000000
2.827799 0.331875 0.200925 59.000000
2.833763 0.323764 0.201216 57.000000
2.835735 0.315179 0.201274 57.000000
2.839666 0.306799 0.201448 60.000000
2.844565 0.298501 0.201680 66.000000
2.845468 0.289773 0.201680 59.000000
2.849324 0.281336 0.201855 59.000000
2.850173 0.272593 0.201855 51.000000
2.852985 0.264031 0.201971 36.000000
2.857759 0.255632 0.202203 38.000000
2.858530 0.246864 0.202203 51.000000
2.855294 0.237762 0.201971 44.000000
2.857005 0.229080 0.202029 43.000000
2.839778 0.218935 0.200983 15.000000
2.837449 0.210001 0.200809 10.000000
2.631064 1.023015 0.166109 34.000000
2.642578 1.018175 0.166525 40.000000
2.645689 1.010062 0.166525 44.000000
2.645973 1.000879 0.166386 52.000000
2.649967 0.993108 0.166432 51.000000
2.654874 0.985669 0.166525 49.000000
2.658823 0.977865 0.166571 61.000000
2.660872 0.969361 0.166525 53.000000
2.660075 0.959835 0.166340 51.000000
2.658305 0.949987 0.166109 50.000000
2.661207 0.941827 0.166109 63.000000
2.658428 0.931673 0.165831 66.000000
2.661274 0.923513 0.165831 43.000000
2.661261 0.914369 0.165692 55.000000
2.664054 0.906200 0.165692 50.000000
2.670608 0.899299 0.165877 48.000000
2.676197 0.892050 0.166016 66.000000
2.679869 0.884149 0.166062 62.000000
2.682570 0.875923 0.166062 44.000000
2.689046 0.868919 0.166247 57.000000
2.693602 0.861275 0.166340 76.000000
2.694327 0.852403 0.166247 60.000000
2.696929 0.844133 0.166247 51.000000
2.698552 0.835559 0.166201 74.000000
2.701103 0.827276 0.166201 55.000000
2.702672 0.818696 0.166155 55.000000
2.701344 0.809252 0.165970 60.000000
2.698068 0.799256 0.165692 49.000000
2.700507 0.790974 0.165692 63.000000
2.701962 0.782407 0.165646 53.000000
2.702429 0.773564 0.165554 50.000000
2.700945 0.764180 0.165369 39.000000
2.710011 0.757775 0.165692 53.000000
2.715211 0.750257 0.165831 55.000000
2.722318 0.743241 0.166062 61.000000
2.725549 0.735146 0.166109 57.000000
2.729722 0.727296 0.166201 66.000000
2.730009 0.718408 0.166109 57.000000
2.735100 0.710784 0.166247 48.000000
2.734365 0.701644 0.166109 77.000000
2.730696 0.691777 0.165831 66.000000
2.730867 0.682911 0.165739 86.000000
2.734889 0.675009 0.165831 62.000000
2.736947 0.666615 0.165831 70.000000
2.740922 0.658683 0.165924 58.000000
2.743901 0.650502 0.165970 57.000000
2.747830 0.642536 0.166062 63.000000
2.750761 0.634328 0.166109 49.000000
2.749772 0.625220 0.165970 55.000000
2.751678 0.616781 0.165970 52.000000
2.752582 0.608120 0.165924 68.000000
2.752482 0.599247 0.165831 59.000000
2.756261 0.591219 0.165924 64.000000
2.761971 0.583588 0.166109 63.000000
2.760815 0.574500 0.165970 44.000000
2.767457 0.567032 0.166201 52.000000
2.767225 0.558143 0.166109 49.000000
2.770884 0.550040 0.166201 47.000000
2.773539 0.541728 0.166247 56.000000
2.772245 0.532650 0.166109 51.000000
2.773866 0.524142 0.166109 51.000000
2.778407 0.516178 0.166247 45.000000
2.782926 0.508192 0.166386 66.000000
2.785455 0.499828 0.166432 47.000000
2.788943 0.491628 0.166525 70.000000
2.790438 0.483069 0.166525 66.000000
2.792891 0.474674 0.166571 46.000000
2.796305 0.466432 0.166663 75.000000
2.794765 0.457366 0.166525 58.000000
2.794183 0.448472 0.166432 40.000000
2.797519 0.440209 0.166525 47.000000
2.798857 0.431624 0.166525 49.000000
2.797205 0.422587 0.166386 60.000000
2.806393 0.415176 0.166756 41.000000
2.811608 0.407138 0.166941 58.000000
2.812844 0.398510 0.166941 51.000000
2.813064 0.389741 0.166895 48.000000
2.812266 0.380840 0.166802 57.000000
2.810451 0.371816 0.166663 56.000000
2.811578 0.363192 0.166663 54.000000
2.808715 0.354063 0.166478 42.000000
2.803839 0.344711 0.166201 58.000000
2.807859 0.336465 0.166340 49.000000
2.814831 0.328546 0.166617 44.000000
2.817811 0.320135 0.166710 43.000000
2.823744 0.312039 0.166941 55.000000
2.828661 0.303803 0.167126 55.000000
2.834547 0.295644 0.167357 32.000000
2.832459 0.286643 0.167218 70.000000
2.838296 0.278442 0.167449 50.000000
2.842120 0.270017 0.167588 58.000000
2.849898 0.261939 0.167912 34.000000
2.850688 0.253195 0.167912 50.000000
2.852447 0.244533 0.167958 48.000000
2.858161 0.236194 0.168189 57.000000
2.858872 0.227425 0.168189 38.000000
2.838641 0.217045 0.167218 13.000000
2.841286 0.208482 0.167311 9.000000
2.643102 1.029102 0.131719 48.000000
2.646247 1.020988 0.131719 55.000000
2.648433 1.012508 0.131686 58.000000
2.652462 1.004732 0.131719 46.000000
2.654596 0.996238 0.131686 54.000000
2.661387 0.989482 0.131821 44.000000
2.659721 0.979586 0.131652 51.000000
2.661775 0.971079 0.131618 70.000000
2.662861 0.962229 0.131550 51.000000
2.662037 0.952708 0.131415 69.000000
2.666831 0.945205 0.131483 63.000000
2.665946 0.935695 0.131347 58.000000
2.665028 0.926200 0.131212 59.000000
2.671637 0.919319 0.131347 69.000000
2.670661 0.909830 0.131212 64.000000
2.675334 0.902271 0.131279 72.000000
2.676193 0.893426 0.131212 54.000000
2.674176 0.883644 0.131042 60.000000
2.675925 0.875125 0.131009 58.000000
2.677646 0.866604 0.130975 65.000000
2.677437 0.857471 0.130873 72.000000
2.682914 0.850158 0.130975 53.000000
2.688370 0.842819 0.131076 70.000000
2.691898 0.834863 0.131110 53.000000
2.697313 0.827480 0.131212 65.000000
2.699839 0.819201 0.131212 64.000000
2.703297 0.811201 0.131246 69.000000
2.704814 0.802619 0.131212 57.000000
2.705346 0.793755 0.131144 58.000000
2.710648 0.786286 0.131246 47.000000
2.713048 0.777966 0.131246 58.000000
2.713499 0.769094 0.131178 53.000000
2.717770 0.761305 0.131246 63.000000
2.716240 0.751897 0.131110 63.000000
2.721426 0.744351 0.131212 69.000000
2.722733 0.735738 0.131178 55.000000
2.724011 0.727123 0.131144 77.000000
2.720431 0.717235 0.130941 53.000000
2.724553 0.709389 0.131009 66.000000
2.723812 0.700280 0.130907 70.000000
2.725948 0.691920 0.130907 70.000000
2.726119 0.683069 0.130839 67.000000
2.728202 0.674702 0.130839 49.000000
2.733172 0.667039 0.130941 73.000000
2.740064 0.659820 0.131110 77.000000
2.743047 0.651641 0.131144 69.000000
2.746980 0.643678 0.131212 54.000000
2.745047 0.634348 0.131076 58.000000
2.745031 0.625480 0.131009 67.000000
2.745962 0.616836 0.130975 76.000000
2.744914 0.607761 0.130873 62.000000
2.748718 0.599763 0.130941 57.000000
2.751523 0.591537 0.130975 65.000000
2.755280 0.583506 0.131042 57.000000
2.758036 0.575254 0.131076 66.000000
2.760767 0.566991 0.131110 68.000000
2.761513 0.558321 0.131076 59.000000
2.762233 0.549651 0.131042 50.000000
2.762925 0.540982 0.131009 64.000000
2.762609 0.532125 0.130941 75.000000
2.764229 0.523647 0.130941 64.000000
2.770735 0.516078 0.131110 55.000000
2.776238 0.508295 0.131246 63.000000
2.776801 0.499598 0.131212 60.000000
2.782257 0.491772 0.131347 41.000000
2.785722 0.483576 0.131415 64.000000
2.790148 0.475530 0.131516 52.000000
2.795537 0.467627 0.131652 63.000000
2.798931 0.459372 0.131719 59.000000
2.801314 0.450941 0.131753 59.000000
2.811569 0.443746 0.132058 56.000000
2.810942 0.434813 0.131990 71.000000
2.809299 0.425738 0.131889 57.000000
2.811580 0.417264 0.131923 61.000000
2.808891 0.408062 0.131787 55.000000
2.806171 0.398880 0.131652 69.000000
2.805402 0.389994 0.131584 54.000000
2.801634 0.380713 0.131415 65.000000
2.802788 0.372116 0.131415 55.000000
2.803917 0.363516 0.131415 48.000000
2.804027 0.354786 0.131381 51.000000
2.803119 0.345937 0.131313 53.000000
2.807144 0.337694 0.131415 73.000000
2.809159 0.329196 0.131449 59.000000
2.812142 0.320802 0.131516 59.000000
2.818080 0.312724 0.131686 54.000000
2.824988 0.304719 0.131889 53.000000
2.829885 0.296466 0.132024 64.000000
2.834759 0.288187 0.132160 56.000000
2.839608 0.279880 0.132295 53.000000
2.844433 0.271546 0.132430 55.000000
2.847243 0.263002 0.132498 62.000000
2.849032 0.254354 0.132532 53.000000
2.851791 0.245784 0.132600 44.000000
2.859504 0.237612 0.132837 29.000000
2.857230 0.228599 0.132735 44.000000
2.870872 0.220827 0.133175 16.000000
2.831668 0.209080 0.131821 9.000000
2.611470 1.016432 0.096496 44.000000
2.620172 1.010576 0.096626 34.000000
2.626061 1.003604 0.096691 44.000000
2.627258 0.994834 0.096647 38.000000
2.635914 0.988878 0.096777 40.000000
2.643620 0.982530 0.096886 43.000000
2.643808 0.973378 0.096821 26.000000
2.649599 0.966291 0.096886 29.000000
2.652551 0.958157 0.096886 47.000000
2.647949 0.947318 0.096712 50.000000
2.657438 0.941529 0.096864 48.000000
